0.000000000000000000e+00 4.059840000000000323e-03 4.655803087447730526e+00
0.000000000000000000e+00 7.307680000000000209e-04 1.227720898141204664e+00
0.000000000000000000e+00 1.583489999999999898e-03 1.991173770909927532e+00
0.000000000000000000e+00 4.143759999999999913e-04 4.650163894750023452e+00
0.000000000000000000e+00 5.818109999999999601e-03 2.854272495052857295e+00
2.500000000000000139e-02 2.874750000000000135e-03 3.361486999034588141e+00
0.000000000000000000e+00 0.000000000000000000e+00 1.343601629387353169e-01
0.000000000000000000e+00 1.098330000000000009e-03 4.763969056147305814e+00
0.000000000000000000e+00 1.135099999999999998e-03 2.749375764310568737e+00
6.250000000000000347e-03 2.054849999999999993e-03 1.862081667667500717e+00
0.000000000000000000e+00 6.807679999999999981e-04 3.311228749657011416e+00
0.000000000000000000e+00 9.822719999999999629e-04 6.748648104040277929e-01
0.000000000000000000e+00 1.956379999999999925e-02 3.147482488859858041e+00
3.125000000000000173e-03 3.565989999999999785e-03 2.746874562986232782e+00
3.125000000000000173e-03 3.119300000000000198e-03 2.694150629568308641e+00
0.000000000000000000e+00 9.672089999999999854e-02 3.751184016611689209e+00
3.125000000000000173e-03 1.638399999999999926e-03 2.915210216164635604e+00
0.000000000000000000e+00 2.153790000000000045e-03 1.283835292530650651e+00
0.000000000000000000e+00 4.108490000000000232e-04 4.745288397374849865e+00
0.000000000000000000e+00 7.332690000000000432e-04 3.380102760705633314e-01
2.187499999999999861e-02 2.189500000000000040e-03 8.349705143673885610e-01
1.562500000000000000e-02 9.231240000000000279e-02 2.344853784643469830e+00
0.000000000000000000e+00 6.698879999999999939e-04 1.454342760117210975e+00
0.000000000000000000e+00 2.800419999999999993e-02 1.915850300413333596e+00
0.000000000000000000e+00 1.787390000000000029e-03 4.527659631470061008e+00
1.874999999999999931e-02 1.844289999999999949e-03 9.565582372469616512e-01
0.000000000000000000e+00 1.776569999999999831e-05 3.950606598523465074e-01
9.374999999999999653e-03 2.452160000000000104e-03 3.536459186776863106e+00
6.250000000000000347e-03 3.426820000000000126e-03 1.004861249577347238e+00
1.874999999999999931e-02 4.285060000000000258e-03 4.686645735579438643e+00
1.250000000000000069e-02 1.646270000000000025e-03 4.157243822691959245e+00
0.000000000000000000e+00 4.798319999999999669e-02 3.036166187038936926e+00
0.000000000000000000e+00 2.940860000000000002e-03 4.676890672736286447e+00
0.000000000000000000e+00 4.127080000000000201e-04 3.083781681866741398e+00
0.000000000000000000e+00 4.261110000000000136e-04 6.851988476839504516e-01
0.000000000000000000e+00 6.412800000000000401e-04 4.451182559995173982e+00
2.187499999999999861e-02 2.257920000000000066e-03 2.969874612665434732e+00
2.500000000000000139e-02 1.398780000000000075e-03 2.466010227841236579e-01
9.374999999999999653e-03 1.731649999999999943e-03 3.131882503401349993e+00
0.000000000000000000e+00 1.095930000000000026e-05 4.124822964738515729e+00
0.000000000000000000e+00 1.983999999999999978e-04 3.896896549740621829e+00
0.000000000000000000e+00 2.761469999999999810e-03 4.260800295573902829e+00
0.000000000000000000e+00 4.538430000000000415e-03 4.155695937839515075e+00
1.874999999999999931e-02 1.058159999999999934e-01 1.461260641512902581e+00
0.000000000000000000e+00 5.415679999999999756e-04 4.155374170438522086e+00
0.000000000000000000e+00 0.000000000000000000e+00 6.326461089153578854e-02
0.000000000000000000e+00 1.194240000000000058e-03 2.228879660729121692e+00
0.000000000000000000e+00 6.945919999999999525e-04 3.983331850416133690e+00
9.374999999999999653e-03 1.670849999999999983e-03 2.000417763655951031e+00
0.000000000000000000e+00 1.246850000000000085e-03 4.531216260601874879e+00
0.000000000000000000e+00 4.891519999999999679e-04 4.314963705052512921e+00
0.000000000000000000e+00 9.709439999999999521e-04 2.752870837876316479e+00
0.000000000000000000e+00 1.227519999999999957e-03 3.230610316459462616e+00
0.000000000000000000e+00 1.387019999999999876e-04 2.530029456295974644e+00
0.000000000000000000e+00 1.001020000000000035e-03 4.977579180048949503e+00
0.000000000000000000e+00 5.349760000000000496e-04 2.406443602840316665e+00
2.187499999999999861e-02 2.588800000000000042e-03 4.921945953605327828e-01
0.000000000000000000e+00 0.000000000000000000e+00 2.116883778528096727e+00
0.000000000000000000e+00 3.001600000000000101e-03 3.932359832169247227e+00
1.562500000000000000e-02 2.030450000000000050e-03 1.900757140454384375e-01
0.000000000000000000e+00 1.339360000000000030e-02 3.148285018600244900e+00
0.000000000000000000e+00 5.059840000000000127e-04 4.752322654424904869e+00
0.000000000000000000e+00 4.533950000000000133e-03 5.929162516421920825e-01
6.250000000000000347e-03 1.636709999999999901e-02 3.242645481007643937e+00
0.000000000000000000e+00 1.697919999999999898e-04 1.060124357198312772e+00
6.250000000000000000e-02 9.238079999999999903e-02 3.370079988394076409e+00
2.500000000000000139e-02 1.746930000000000011e-02 2.484067223572655081e+00
0.000000000000000000e+00 2.926720000000000059e-04 3.223275354577670893e+00
6.250000000000000347e-03 9.751650000000000595e-02 1.324758208050973440e+00
2.812500000000000069e-02 6.750950000000000353e-03 3.874731689188086303e+00
0.000000000000000000e+00 7.621499999999999803e-03 3.732505299806826438e-01
0.000000000000000000e+00 9.328920000000000528e-04 1.622458918534168681e+00
0.000000000000000000e+00 4.471560000000000291e-03 1.065167486852984347e+00
0.000000000000000000e+00 5.062399999999999886e-03 2.493154520031420907e-01
0.000000000000000000e+00 4.283520000000000079e-04 3.534908668641519203e+00
1.562500000000000000e-02 2.561920000000000083e-03 2.728727998019716772e+00
0.000000000000000000e+00 3.009410000000000123e-03 2.879308189882378244e+00
9.374999999999999653e-03 9.823260000000000325e-02 7.408069099708264327e-01
0.000000000000000000e+00 5.916870000000000289e-04 2.589587173776402462e+00
1.562500000000000000e-02 1.951299999999999996e-03 1.942263814808619760e+00
0.000000000000000000e+00 2.964350000000000145e-03 6.168919213667184431e-01
0.000000000000000000e+00 2.298630000000000047e-05 4.857000249392044111e+00
0.000000000000000000e+00 2.208000000000000002e-04 9.904549804118595313e-01
0.000000000000000000e+00 2.038139999999999917e-03 2.329085216742188269e-02
0.000000000000000000e+00 4.308560000000000233e-04 1.552632000064197548e+00
0.000000000000000000e+00 9.313280000000000386e-04 2.914320130040648937e+00
3.125000000000000173e-03 1.032699999999999894e-03 2.297174848853069218e+00
0.000000000000000000e+00 4.157860000000000202e-04 4.168660088363636440e+00
5.312499999999999861e-02 8.096280000000000143e-02 1.021038205741845450e+00
4.062500000000000139e-02 3.053200000000000011e-02 4.666218582148548677e+00
0.000000000000000000e+00 2.155520000000000125e-04 4.925025564650304055e+00
0.000000000000000000e+00 2.283919999999999980e-05 3.488081157638381224e+00
0.000000000000000000e+00 1.655229999999999939e-03 1.752344698821212132e+00
0.000000000000000000e+00 1.058499999999999979e-03 2.773876855777839712e+00
0.000000000000000000e+00 2.122439999999999960e-05 3.419240573716041176e+00
0.000000000000000000e+00 0.000000000000000000e+00 1.810284001904243656e+00
0.000000000000000000e+00 2.202299999999999917e-03 3.364984901609278101e+00
5.937499999999999722e-02 9.331920000000000492e-02 1.176474246011501856e+00
0.000000000000000000e+00 3.360799999999999942e-04 7.241776522746135036e-01
0.000000000000000000e+00 6.546559999999999879e-04 5.284372186357283452e-01
0.000000000000000000e+00 6.582429999999999792e-04 2.786603425603619399e+00
9.374999999999999653e-03 1.682429999999999950e-03 9.735069971015702928e-01
0.000000000000000000e+00 2.284760000000000127e-05 1.484459790634150567e+00
0.000000000000000000e+00 9.338880000000000141e-04 3.253776841080084470e+00
2.500000000000000139e-02 1.978499999999999790e-03 4.707723835121770506e+00
0.000000000000000000e+00 4.255980000000000136e-04 2.366163202194848658e-01
0.000000000000000000e+00 1.123389999999999935e-03 3.848427163936587903e+00
1.250000000000000069e-02 9.614830000000000598e-02 2.857835254286581694e+00
3.125000000000000173e-03 1.015789999999999922e-02 2.147457712153521214e+00
9.687500000000000278e-02 6.987699999999999467e-02 4.746683838568305225e-01
0.000000000000000000e+00 2.336579999999999994e-03 2.685235765797799878e-01
1.874999999999999931e-02 2.946180000000000066e-03 2.925333799869536566e+00
0.000000000000000000e+00 5.041279999999999546e-04 4.870458120147552750e-01
0.000000000000000000e+00 1.141249999999999903e-03 8.456066534815687152e-01
0.000000000000000000e+00 3.142399999999999729e-04 1.792849917869069998e+00
0.000000000000000000e+00 8.968959999999999997e-04 4.484179974489585163e+00
0.000000000000000000e+00 1.824639999999999986e-03 3.977600153857221876e+00
9.374999999999999653e-03 2.110020000000000211e-03 1.952748887441624337e-02
2.500000000000000139e-02 1.271689999999999973e-02 4.448343238565851010e+00
0.000000000000000000e+00 7.512320000000000065e-04 4.522901768895114749e+00
0.000000000000000000e+00 7.213420000000000335e-04 2.042359556606994087e+00
0.000000000000000000e+00 2.448740000000000031e-03 4.021819708139951821e+00
0.000000000000000000e+00 6.638079999999999979e-04 5.747561765347325435e-01
0.000000000000000000e+00 1.711040000000000044e-03 2.532354941116934821e+00
0.000000000000000000e+00 5.340329999999999470e-04 4.461717732824868499e+00
2.500000000000000139e-02 2.886080000000000069e-03 4.569505835920068648e+00
0.000000000000000000e+00 1.124860000000000096e-03 3.724373183370915275e+00
1.562500000000000000e-02 9.845779999999999810e-02 2.649996498743032447e+00
3.125000000000000173e-03 7.276859999999999579e-03 2.205390532459878816e+00
2.187499999999999861e-02 1.725179999999999986e-03 1.553965431603840930e+00
0.000000000000000000e+00 1.108349999999999917e-03 1.659250654281141379e+00
7.499999999999999722e-02 9.119080000000000241e-02 4.029518457394429376e+00
1.874999999999999931e-02 2.367680000000000045e-03 2.697607231727388477e+00
0.000000000000000000e+00 1.196469999999999999e-02 3.082136141980571953e+00
2.187499999999999861e-02 2.271490000000000141e-03 1.443121887064106712e+00
0.000000000000000000e+00 6.538050000000000112e-03 3.272417572408564679e-01
0.000000000000000000e+00 1.894019999999999948e-03 3.634339780674405773e+00
1.874999999999999931e-02 2.188540000000000103e-03 1.018398216109908549e+00
3.125000000000000173e-03 1.328320000000000022e-03 4.543726548370302654e-01
3.125000000000000173e-03 1.013430000000000060e-02 4.198485251330003720e+00
2.500000000000000139e-02 9.119449999999999779e-02 2.496282121544454391e+00
0.000000000000000000e+00 2.212480000000000067e-04 4.980363138055711403e+00
1.093750000000000000e-01 8.059560000000000335e-02 4.367255877400227249e+00
3.125000000000000173e-03 4.384090000000000209e-02 1.380266462422764517e+00
0.000000000000000000e+00 1.326909999999999938e-03 2.337580547287188448e+00
0.000000000000000000e+00 1.613630000000000012e-03 4.713513345659388953e+00
5.000000000000000278e-02 3.114019999999999982e-02 2.572207633487062051e+00
2.500000000000000139e-02 2.399300000000000044e-03 2.889036183684430714e+00
2.500000000000000139e-02 9.373130000000000350e-02 2.226308462042960290e+00
9.374999999999999653e-03 1.712500000000000133e-02 2.466100981664455460e+00
3.125000000000000000e-02 9.269950000000000412e-02 1.373380755777245943e+00
0.000000000000000000e+00 6.688840000000000063e-02 2.399352404798164695e+00
2.500000000000000139e-02 2.256129999999999854e-03 4.290030412138261084e+00
0.000000000000000000e+00 6.634879999999999467e-04 3.328804086855716271e+00
1.562500000000000000e-02 6.326270000000000504e-02 3.732713668677716701e+00
0.000000000000000000e+00 1.080769999999999995e-03 4.861904255819088583e+00
0.000000000000000000e+00 3.778890000000000135e-04 4.410229958517317250e+00
0.000000000000000000e+00 8.857600000000000033e-05 1.851996691637175507e+00
6.250000000000000347e-03 2.601790000000000092e-03 4.540590782324727570e+00
0.000000000000000000e+00 5.914749999999999869e-03 4.296663148998637993e+00
0.000000000000000000e+00 4.361139999999999787e-04 2.657185374045595516e+00
3.125000000000000000e-02 3.582459999999999985e-03 1.345041970149203792e+00
0.000000000000000000e+00 2.497089999999999987e-03 9.487794092739293417e-01
2.812500000000000069e-02 2.929469999999999991e-03 1.807435363908375114e+00
0.000000000000000000e+00 2.284800000000000080e-04 3.215472496714835593e+00
0.000000000000000000e+00 1.262590000000000066e-03 3.770473819657880199e+00
0.000000000000000000e+00 7.862400000000000075e-04 1.110110657170032544e+00
0.000000000000000000e+00 5.950719999999999838e-04 2.558390470611217715e+00
9.374999999999999653e-03 4.418430000000000274e-02 3.663025973295332527e+00
3.125000000000000173e-03 1.011630000000000029e-01 3.120317850390161851e+00
3.125000000000000173e-03 1.053449999999999942e-01 4.242750160227161338e+00
2.500000000000000139e-02 4.157700000000000284e-03 4.925170505118946274e+00
0.000000000000000000e+00 1.668100000000000051e-03 1.064221788689547754e+00
1.250000000000000069e-02 1.873340000000000031e-03 2.041523041287338192e+00
0.000000000000000000e+00 9.454080000000000122e-04 4.352871843696688003e+00
1.874999999999999931e-02 2.500479999999999804e-03 2.904942163758368778e+00
0.000000000000000000e+00 5.562589999999999896e-02 2.712990980001245944e+00
1.874999999999999931e-02 3.234620000000000117e-03 4.575187051780470249e+00
1.562500000000000000e-02 2.443069999999999877e-03 4.299096869035183843e+00
0.000000000000000000e+00 0.000000000000000000e+00 2.880791324989215418e+00
0.000000000000000000e+00 1.960640000000000039e-03 3.528080876077487105e+00
0.000000000000000000e+00 4.176909999999999824e-03 3.205618872537385755e+00
3.125000000000000173e-03 4.010429999999999724e-03 3.982282061378248361e+00
2.187499999999999861e-02 2.890880000000000186e-03 3.233841396615998676e+00
0.000000000000000000e+00 5.110120000000000330e-04 1.837236631918877539e+00
0.000000000000000000e+00 1.680169999999999927e-02 8.759465862435078520e-01
0.000000000000000000e+00 4.472849999999999569e-03 3.820849910653614234e+00
2.812500000000000069e-02 1.063820000000000043e-01 4.779720209174564971e+00
0.000000000000000000e+00 3.899519999999999961e-04 3.254977270249490573e+00
2.500000000000000139e-02 4.914299999999999918e-03 3.732697279398713874e+00
3.125000000000000173e-03 1.057229999999999975e-01 6.260424926969909709e-01
6.250000000000000347e-03 2.253180000000000027e-03 9.958255479817740285e-01
0.000000000000000000e+00 7.212200000000000208e-03 4.644092872367989067e+00
0.000000000000000000e+00 6.965899999999999696e-04 1.335718973250587638e+00
3.125000000000000173e-03 4.237310000000000208e-03 4.276313547163050011e+00
3.125000000000000173e-03 1.638399999999999926e-03 8.313331314304678310e-01
0.000000000000000000e+00 4.549120000000000247e-04 3.370022728850639471e+00
0.000000000000000000e+00 1.152189999999999985e-03 2.675099762787019664e+00
0.000000000000000000e+00 1.165760000000000060e-03 7.333929785489051723e-01
6.250000000000000347e-03 1.876489999999999972e-03 3.735237221076836978e+00
0.000000000000000000e+00 1.717310000000000104e-03 9.735913739216522922e-01
3.125000000000000173e-03 9.907549999999999690e-02 2.185911754710367472e+00
0.000000000000000000e+00 7.575680000000000218e-04 6.917274040912557709e-01
0.000000000000000000e+00 2.290809999999999841e-05 1.137680726637757544e+00
4.374999999999999722e-02 9.286930000000000185e-02 7.744596836786843408e-01
2.187499999999999861e-02 9.398080000000000322e-02 3.210737943088189716e+00
0.000000000000000000e+00 8.727410000000000116e-04 3.189723844349000359e+00
2.187499999999999861e-02 4.447099999999999838e-03 1.180578428510719480e+00
3.125000000000000173e-03 3.552200000000000149e-03 2.384803098933108156e+00
0.000000000000000000e+00 1.508430000000000014e-02 2.638481810710116005e+00
3.125000000000000173e-03 8.051139999999999686e-02 1.491114506311215671e+00
3.125000000000000173e-03 1.300809999999999987e-02 1.229905699250568141e+00
0.000000000000000000e+00 1.093500000000000071e-03 3.768883987363949473e+00
0.000000000000000000e+00 3.865599999999999852e-04 2.934079178370558871e+00
0.000000000000000000e+00 3.960319999999999921e-04 4.828315126510386968e+00
0.000000000000000000e+00 9.725849999999999860e-04 2.454591078503284507e+00
0.000000000000000000e+00 5.066300000000000144e-03 4.420463233076460163e+00
3.125000000000000173e-03 2.049860000000000137e-03 6.563098367910369380e-01
0.000000000000000000e+00 9.213119999999999990e-03 6.719781595029594712e-01
1.250000000000000069e-02 1.492419999999999945e-03 3.179486350794023419e+00
0.000000000000000000e+00 2.971199999999999796e-03 4.277669056213709631e+00
0.000000000000000000e+00 3.582030000000000262e-04 2.895398427210356562e+00
0.000000000000000000e+00 0.000000000000000000e+00 2.159942262923009615e+00
0.000000000000000000e+00 2.266500000000000068e-05 1.904481056228046310e+00
0.000000000000000000e+00 4.371779999999999590e-03 2.944015285354048661e+00
0.000000000000000000e+00 2.796070000000000152e-02 4.162862955083978633e+00
0.000000000000000000e+00 9.713919999999999586e-04 1.192340074431027519e+00
0.000000000000000000e+00 3.946889999999999882e-04 3.973927454730147302e-01
0.000000000000000000e+00 1.420790000000000074e-02 4.038263887665322294e+00
2.500000000000000139e-02 3.781179999999999871e-03 4.890565154759380917e+00
3.749999999999999861e-02 9.332930000000000392e-02 3.149423981055608834e+00
0.000000000000000000e+00 9.288960000000000185e-04 2.776701351575876497e+00
1.250000000000000069e-02 2.233600000000000082e-03 4.219733255070960531e+00
0.000000000000000000e+00 1.502230000000000058e-02 3.202777724593699915e+00
2.500000000000000139e-02 2.025410000000000058e-03 6.246352358552892392e-01
0.000000000000000000e+00 3.027460000000000047e-03 7.324012431750143159e-01
2.500000000000000139e-02 3.049660000000000044e-03 3.332058665256820706e+00
0.000000000000000000e+00 5.184509999999999596e-04 4.322255408479272809e+00
6.250000000000000347e-03 4.423810000000000242e-03 6.647995755686031405e-01
5.937499999999999722e-02 3.057150000000000145e-02 1.027727791956037251e+00
5.625000000000000139e-02 2.776290000000000008e-02 4.019040745339742315e+00
3.125000000000000173e-03 2.511300000000000164e-03 1.636210850047620236e+00
3.125000000000000173e-03 4.904710000000000319e-02 2.037203350175476047e-01
0.000000000000000000e+00 5.038909999999999743e-03 1.540150305691828647e-01
2.187499999999999861e-02 1.618690000000000103e-03 7.686361115957007772e-01
1.874999999999999931e-02 2.141820000000000009e-03 4.612479797638247447e+00
0.000000000000000000e+00 2.419950000000000139e-03 2.730421173096333920e+00
1.562500000000000000e-02 3.066240000000000025e-03 3.984957070026353243e+00
3.125000000000000173e-03 3.250620000000000072e-03 1.053951072952110213e+00
6.250000000000000347e-03 9.723959999999999548e-02 1.390915551478799639e+00
0.000000000000000000e+00 9.452040000000000528e-04 3.958124313249189896e+00
0.000000000000000000e+00 7.615950000000000497e-02 1.057433554020922317e+00
0.000000000000000000e+00 1.490089999999999991e-02 4.534014695949625917e+00
6.250000000000000347e-03 1.058700000000000058e-01 3.078824116597175475e+00
0.000000000000000000e+00 3.948159999999999821e-04 8.936857928084473990e-01
0.000000000000000000e+00 7.678379999999999624e-04 1.898368591694441943e+00
1.874999999999999931e-02 3.031170000000000132e-03 3.512763578958720156e+00
1.562500000000000000e-02 3.008639999999999926e-03 3.424043727229422629e+00
0.000000000000000000e+00 4.332159999999999939e-04 4.579594847370167976e+00
1.562500000000000000e-02 9.502410000000000023e-02 3.128567698126487162e+00
2.187499999999999861e-02 1.575999999999999927e-03 3.121881902743378623e-01
3.125000000000000173e-03 1.159630000000000036e-02 1.116918190546148271e+00
0.000000000000000000e+00 4.844800000000000235e-04 2.758126036758928201e+00
9.374999999999999653e-03 1.239670000000000008e-02 4.712027336266102040e+00
0.000000000000000000e+00 4.800399999999999914e-04 3.808892376466788132e-01
0.000000000000000000e+00 3.199870000000000058e-03 4.589633934563047690e-01
0.000000000000000000e+00 1.699390000000000059e-03 2.627421322257347036e+00
2.187499999999999861e-02 1.467830000000000003e-02 6.257529316084753379e-02
0.000000000000000000e+00 4.008959999999999781e-04 3.004837697950879516e-01
3.125000000000000173e-03 3.554240000000000177e-03 6.889053189194160876e-01
0.000000000000000000e+00 2.583100000000000066e-03 2.188588383436201212e+00
0.000000000000000000e+00 2.310159999999999918e-05 2.218579073949106251e-01
0.000000000000000000e+00 1.050369999999999906e-03 1.652636841835448678e+00
0.000000000000000000e+00 2.158080000000000046e-04 2.792131341004350231e-01
0.000000000000000000e+00 4.081919999999999841e-04 3.294579790956414733e+00
0.000000000000000000e+00 1.503280000000000068e-02 2.945671191265695210e+00
0.000000000000000000e+00 1.689149999999999940e-03 4.941903485542881391e+00
3.437500000000000278e-02 9.183139999999999359e-02 4.868507829503415651e-01
0.000000000000000000e+00 2.894400000000000098e-03 1.055392543546817663e+00
0.000000000000000000e+00 5.686610000000000362e-04 1.176773194773586440e+00
3.125000000000000173e-03 5.242880000000000110e-03 3.241960920244568278e+00
9.374999999999999653e-03 2.396220000000000121e-03 2.593214868036447518e-01
0.000000000000000000e+00 1.454400000000000007e-03 3.269326392008692350e-01
0.000000000000000000e+00 7.194179999999999889e-04 1.280703302995958470e+00
0.000000000000000000e+00 2.035069999999999935e-03 3.014880720123853219e+00
0.000000000000000000e+00 1.184639999999999961e-04 3.929793895563009620e+00
0.000000000000000000e+00 2.590209999999999908e-03 2.632677680341289239e+00
1.562500000000000000e-02 2.736580000000000176e-03 1.979954463959235245e+00
2.812500000000000069e-02 1.990979999999999833e-03 1.137749004136878739e+00
0.000000000000000000e+00 6.967679999999999534e-04 1.265443272535160535e+00
0.000000000000000000e+00 1.694719999999999929e-04 4.724616215963251875e+00
3.125000000000000173e-03 7.283379999999999889e-03 4.715106939374262396e+00
6.250000000000000347e-03 9.373159999999999825e-02 3.753350920232221721e+00
1.874999999999999931e-02 1.863550000000000059e-03 3.093208072218385229e+00
0.000000000000000000e+00 4.155939999999999786e-04 6.465185790962574286e-01
0.000000000000000000e+00 9.509100000000000148e-04 2.127888686298706311e+00
0.000000000000000000e+00 1.054980000000000067e-03 1.950846379642438677e+00
1.250000000000000069e-02 2.263419999999999929e-03 4.187826224575311507e+00
0.000000000000000000e+00 1.096769999999999950e-03 2.745863599348859374e+00
0.000000000000000000e+00 6.741759999999999637e-04 4.708593353566188355e+00
0.000000000000000000e+00 2.113100000000000148e-05 1.831374600221286064e-01
0.000000000000000000e+00 7.471850000000000366e-04 3.458987939619351692e+00
3.125000000000000173e-03 3.111469999999999861e-03 3.257514656657831242e+00
0.000000000000000000e+00 1.666050000000000083e-03 3.041567683304773340e+00
0.000000000000000000e+00 1.573410000000000086e-02 4.955789029506667553e+00
0.000000000000000000e+00 2.303570000000000037e-05 3.997902246985272523e+00
0.000000000000000000e+00 1.903490000000000086e-03 7.988307374501990576e-01
1.250000000000000069e-02 2.274879999999999958e-03 3.060998332566947866e+00
0.000000000000000000e+00 1.117699999999999900e-03 8.857519952791997886e-01
4.374999999999999722e-02 9.447800000000000642e-02 2.262770230701282692e+00
0.000000000000000000e+00 1.104769999999999927e-03 1.477549333743644056e-01
2.500000000000000139e-02 2.047740000000000150e-03 3.306918773232981223e+00
0.000000000000000000e+00 6.739200000000000529e-04 6.783527262800703728e-01
1.562500000000000000e-02 1.534779999999999912e-03 4.520193086719987541e+00
2.187499999999999861e-02 3.539259999999999802e-03 3.461525773611362045e+00
0.000000000000000000e+00 1.516810000000000033e-02 4.386080701769464518e+00
1.874999999999999931e-02 2.160829999999999869e-03 3.571303990910984494e-01
2.187499999999999861e-02 1.910910000000000039e-03 3.906446946785727015e+00
0.000000000000000000e+00 1.883970000000000002e-03 6.592018718319342385e-01
2.187499999999999861e-02 1.846399999999999994e-03 2.093157754841121765e+00
0.000000000000000000e+00 2.317350000000000098e-05 4.172898180705941762e+00
0.000000000000000000e+00 2.934720000000000037e-03 2.361479151661134868e+00
0.000000000000000000e+00 9.900270000000000944e-04 1.182523810004972864e+00
1.250000000000000069e-02 2.455940000000000206e-03 2.696718639819086327e+00
0.000000000000000000e+00 1.005440000000000023e-03 2.215366383453950760e+00
0.000000000000000000e+00 4.798909999999999981e-03 1.745366730344655615e+00
0.000000000000000000e+00 3.800690000000000231e-04 2.496227198017004767e+00
1.874999999999999931e-02 2.920260000000000043e-03 3.931030741494539349e+00
9.374999999999999653e-03 5.028669999999999841e-03 4.366508200357984038e+00
0.000000000000000000e+00 5.014590000000000193e-03 3.347695321236183297e+00
0.000000000000000000e+00 1.906240000000000018e-03 1.357280451286106526e+00
0.000000000000000000e+00 1.986430000000000140e-02 3.278592415725923193e+00
6.250000000000000347e-03 1.056669999999999970e-01 3.327126253701488956e+00
0.000000000000000000e+00 5.669930000000000109e-04 4.100619190670250269e+00
1.562500000000000000e-02 2.025729999999999892e-03 4.007833182137602535e+00
9.374999999999999653e-03 2.273659999999999830e-03 4.595772252729979357e-01
2.500000000000000139e-02 2.434110000000000180e-03 6.862040929930923738e-01
1.250000000000000069e-02 2.330530000000000102e-01 2.575387106736002352e+00
0.000000000000000000e+00 1.069309999999999965e-03 4.432057443165141386e+00
1.250000000000000069e-02 4.369429999999999842e-02 1.785096131655152796e+00
9.374999999999999653e-03 3.263419999999999949e-03 2.046118485854895308e+00
0.000000000000000000e+00 1.706880000000000029e-04 1.771883675345804043e+00
0.000000000000000000e+00 7.615360000000000488e-04 2.981721335349761581e+00
0.000000000000000000e+00 4.818989999999999884e-04 3.769318090292290258e+00
1.874999999999999931e-02 1.846269999999999899e-03 3.912798900342010278e+00
0.000000000000000000e+00 9.813059999999999318e-04 7.076445996454344689e-01
3.125000000000000173e-03 2.106110000000000013e-03 3.183747377203692608e+00
0.000000000000000000e+00 2.598090000000000122e-02 7.004900462915908399e-02
0.000000000000000000e+00 2.915650000000000099e-03 1.478497749719329679e+00
2.500000000000000139e-02 1.970749999999999846e-03 4.805054378534565629e+00
0.000000000000000000e+00 1.852670000000000055e-03 2.918805615013609689e+00
0.000000000000000000e+00 7.629439999999999920e-04 1.286466706147172401e+00
6.250000000000000347e-03 9.591370000000000451e-02 8.224727252631230945e-01
0.000000000000000000e+00 2.327870000000000113e-03 4.983795357102017043e+00
2.187499999999999861e-02 1.057939999999999992e-01 3.399836156751367522e+00
2.187499999999999861e-02 2.269179999999999982e-03 4.883727926792278851e+00
6.250000000000000347e-03 9.337080000000000379e-02 4.245616655122784522e+00
0.000000000000000000e+00 1.392379999999999920e-03 1.936312572671822219e-01
1.874999999999999931e-02 9.445839999999999792e-02 3.407972991604306223e+00
0.000000000000000000e+00 1.390399999999999969e-03 1.553221997189442760e+00
4.062500000000000139e-02 9.210559999999999581e-02 4.524721782440106033e+00
6.250000000000000347e-03 2.075260000000000212e-03 2.621123216773517672e+00
2.500000000000000139e-02 1.873859999999999979e-03 2.945271984604586724e+00
2.812500000000000069e-02 2.572029999999999889e-03 3.068062348903469960e+00
2.187499999999999861e-02 2.621119999999999787e-03 2.655499882649274390e+00
0.000000000000000000e+00 7.348079999999999889e-04 2.611145164904473681e+00
0.000000000000000000e+00 6.900479999999999635e-04 1.919520513345199797e+00
0.000000000000000000e+00 2.159229999999999830e-03 4.965155195292045853e+00
0.000000000000000000e+00 1.044479999999999974e-03 9.101077415525105074e-01
0.000000000000000000e+00 3.196639999999999942e-04 1.594886675774062068e+00
2.187499999999999861e-02 9.248950000000000227e-02 4.993467442411779089e+00
0.000000000000000000e+00 1.246080000000000104e-04 1.962090423197487166e+00
0.000000000000000000e+00 5.467900000000000364e-03 2.712746774511684222e+00
2.187499999999999861e-02 9.461440000000000128e-02 2.069184505025316589e+00
0.000000000000000000e+00 6.872280000000000142e-04 3.782564689825579585e+00
1.874999999999999931e-02 9.194399999999999795e-02 3.629071954078497697e+00
2.812500000000000069e-02 3.442109999999999961e-03 3.909370671969081723e+00
0.000000000000000000e+00 6.992189999999999690e-03 6.305688305930651216e-01
0.000000000000000000e+00 1.394669999999999981e-03 9.588154017509498139e-01
3.125000000000000173e-03 1.060979999999999979e-01 1.628876269040794966e+00
6.250000000000000347e-03 9.600559999999999650e-02 2.398173765473125663e+00
0.000000000000000000e+00 6.709759999999999943e-04 2.309807963967653421e+00
0.000000000000000000e+00 9.627099999999999764e-04 4.894849672597618273e+00
0.000000000000000000e+00 9.212159999999999837e-04 4.563342111937942924e+00
2.187499999999999861e-02 1.072179999999999939e-01 4.102985315579315895e+00
0.000000000000000000e+00 3.164320000000000327e-02 1.032947253752254824e+00
1.562500000000000000e-02 2.516579999999999859e-02 4.924517721554338756e+00
0.000000000000000000e+00 4.944450000000000407e-03 1.547640359431259327e+00
0.000000000000000000e+00 3.636349999999999999e-03 2.490444704936145559e-02
3.125000000000000173e-03 2.788010000000000141e-02 2.649490164873684162e+00
3.125000000000000173e-03 9.415859999999999855e-03 2.482125873713596942e+00
3.125000000000000173e-03 9.381390000000000562e-02 4.189734159588737405e+00
0.000000000000000000e+00 9.310079999999999875e-04 2.960838649630059827e+00
0.000000000000000000e+00 6.525110000000000632e-02 3.088373616173276659e+00
0.000000000000000000e+00 9.754950000000000079e-03 2.681097641071099602e+00
0.000000000000000000e+00 9.487999999999999689e-04 3.004235881564881971e+00
1.562500000000000000e-02 4.853309999999999569e-03 2.191014136960199643e+00
1.562500000000000000e-02 1.140150000000000018e-02 1.982183259788321994e+00
0.000000000000000000e+00 9.804160000000000132e-04 4.083718929473089787e+00
0.000000000000000000e+00 7.351289999999999474e-04 2.665214800290045982e+00
0.000000000000000000e+00 1.287280000000000021e-02 1.712455476459098680e+00
0.000000000000000000e+00 1.105660000000000063e-03 2.781565588324419913e+00
0.000000000000000000e+00 5.445759999999999577e-04 1.507675485747645983e+00
0.000000000000000000e+00 0.000000000000000000e+00 8.328393325251298718e-01
0.000000000000000000e+00 1.257150000000000064e-03 3.291348195231927676e+00
2.187499999999999861e-02 4.692009999999999931e-02 1.824911203554820949e+00
0.000000000000000000e+00 5.997439999999999716e-03 4.297335134431631509e+00
3.125000000000000173e-03 7.856079999999999661e-03 2.509205118687522607e+00
6.250000000000000347e-03 3.045700000000000143e-03 3.047686724692630467e+00
2.187499999999999861e-02 3.931640000000000135e-02 4.547432197323020286e-01
6.250000000000000347e-03 1.056610000000000049e-01 3.071936339447865372e+00
3.125000000000000173e-03 9.614699999999999636e-02 4.683829851142601308e-01
3.125000000000000173e-03 1.310719999999999941e-02 2.388272425747465899e+00
3.125000000000000173e-03 1.924210000000000156e-02 4.032486831248130343e+00
9.374999999999999653e-03 1.994320000000000120e-02 3.418268089746296479e+00
3.125000000000000173e-03 2.061569999999999982e-03 4.031962691834784174e+00
0.000000000000000000e+00 7.370529999999999920e-04 4.982094701301416961e+00
2.500000000000000139e-02 9.138689999999999314e-02 6.843416714446176607e-01
0.000000000000000000e+00 2.513410000000000047e-05 3.179019325617124636e+00
0.000000000000000000e+00 9.543040000000000030e-04 1.151837368932123740e-01
3.125000000000000173e-03 1.674499999999999990e-03 3.547509204445174369e+00
1.562500000000000000e-02 8.223740000000000216e-03 3.292652106321927619e+00
6.250000000000000347e-03 1.161219999999999917e-03 3.346209154265189945e+00
3.437500000000000278e-02 1.080409999999999981e-01 5.150369779570507234e-01
1.874999999999999931e-02 2.177730000000000117e-03 1.554423768891970425e+00
1.250000000000000069e-02 1.298880000000000000e-02 3.052332794464930998e+00
0.000000000000000000e+00 4.325870000000000106e-04 4.745090532618995161e-01
0.000000000000000000e+00 9.813059999999999318e-04 3.747655697884419546e+00
0.000000000000000000e+00 3.771189999999999785e-04 1.222163067003833037e+00
0.000000000000000000e+00 1.171200000000000062e-03 3.532651628749527983e+00
0.000000000000000000e+00 6.514459999999999695e-04 2.664985621623902290e+00
0.000000000000000000e+00 1.893570000000000019e-03 3.714688672070043385e+00
0.000000000000000000e+00 1.591040000000000000e-04 1.399385327972672677e+00
3.125000000000000173e-03 1.994670000000000037e-03 3.393821131829576565e+00
3.125000000000000173e-03 4.915199999999999778e-03 1.377043504536012541e+00
2.187499999999999861e-02 2.162369999999999830e-03 2.246014794267448433e+00
9.374999999999999653e-03 1.618819999999999981e-03 1.963648155511110716e-01
0.000000000000000000e+00 1.004289999999999914e-03 9.695211150671356748e-01
0.000000000000000000e+00 4.186719999999999786e-04 1.377378701484184287e+00
4.374999999999999722e-02 9.396519999999999873e-02 2.679014014915817476e+00
0.000000000000000000e+00 1.231099999999999946e-03 1.098361038079720409e-01
0.000000000000000000e+00 9.903360000000000808e-04 3.446635449141340679e+00
0.000000000000000000e+00 7.363839999999999752e-04 1.830503294304630657e+00
2.812500000000000069e-02 9.350529999999999953e-02 2.258139025170899927e+00
1.250000000000000069e-02 1.768510000000000047e-03 2.452268826252910205e+00
3.125000000000000173e-03 2.374269999999999940e-03 2.100053505792167208e+00
0.000000000000000000e+00 9.944520000000000529e-04 2.097956785560415760e+00
0.000000000000000000e+00 3.824640000000000028e-04 7.174873583985091896e-01
9.374999999999999653e-03 1.282939999999999992e-03 2.182653968705454695e+00
3.125000000000000173e-03 6.807039999999999662e-04 3.471257650621213386e+00
1.250000000000000069e-02 1.612420000000000042e-03 4.296587258786208174e+00
0.000000000000000000e+00 4.040960000000000016e-04 3.694602698279800368e+00
0.000000000000000000e+00 1.594239999999999969e-04 2.239541757030624858e+00
0.000000000000000000e+00 9.662660000000000693e-02 9.634951293100180170e-01
0.000000000000000000e+00 1.203389999999999928e-03 7.498230179226206271e-01
9.062499999999999722e-02 9.205710000000000282e-02 5.094625260465862615e-01
1.874999999999999931e-02 3.238850000000000149e-03 4.883112497037989108e-02
0.000000000000000000e+00 0.000000000000000000e+00 4.105974363641176517e+00
0.000000000000000000e+00 6.957559999999999569e-04 6.398022552834270460e-01
3.125000000000000000e-02 9.436310000000000531e-02 3.908274695588139114e+00
0.000000000000000000e+00 6.579199999999999621e-05 4.217710078744422830e+00
3.125000000000000173e-03 2.264899999999999813e-03 1.321958495532525868e+00
0.000000000000000000e+00 1.631419999999999962e-03 4.148987589760853467e+00
3.125000000000000173e-03 4.494019999999999612e-03 4.538620406097547466e+00
1.562500000000000000e-02 9.360749999999999627e-02 3.042691166126693103e-01
0.000000000000000000e+00 1.108540000000000090e-03 7.786185339077600354e-02
0.000000000000000000e+00 3.986559999999999995e-04 4.312443585775994848e+00
0.000000000000000000e+00 8.045309999999999961e-03 4.780232763413011510e-01
0.000000000000000000e+00 7.101850000000000046e-04 3.690795762478211284e+00
0.000000000000000000e+00 9.986199999999999764e-04 1.928036339495586393e+00
6.250000000000000347e-03 1.728809999999999895e-03 4.189680570409447746e+00
0.000000000000000000e+00 2.309839999999999894e-05 2.038905774427297590e+00
3.125000000000000173e-03 1.284989999999999917e-02 3.262346044815245261e+00
0.000000000000000000e+00 1.079490000000000007e-03 3.170621574867749093e-01
0.000000000000000000e+00 4.002559999999999842e-04 1.350059695956772998e+00
0.000000000000000000e+00 1.159869999999999911e-03 3.325549528306225078e+00
2.500000000000000139e-02 9.255549999999999541e-03 4.533866383932507738e+00
2.187499999999999861e-02 2.142209999999999861e-03 1.353478421579779045e-01
0.000000000000000000e+00 1.035520000000000006e-04 2.884776148861087908e+00
6.562500000000000278e-02 2.954139999999999891e-02 9.420875413821899746e-01
0.000000000000000000e+00 1.297090000000000092e-03 4.911456115120291344e+00
0.000000000000000000e+00 2.009410000000000102e-03 3.638259595381367451e+00
3.125000000000000173e-03 9.385469999999999924e-02 3.543687883175832276e+00
0.000000000000000000e+00 4.600970000000000233e-04 5.055453764207601397e-01
3.125000000000000000e-02 9.276170000000000249e-02 2.696425605704003914e+00
1.562500000000000000e-02 9.173040000000000360e-02 4.638642638058665391e+00
0.000000000000000000e+00 1.198339999999999995e-03 4.985467141138847147e+00
0.000000000000000000e+00 4.305989999999999883e-04 2.241440358968699309e-01
0.000000000000000000e+00 4.157440000000000094e-04 4.415022022672461688e+00
0.000000000000000000e+00 3.454850000000000195e-03 1.803229828069293772e+00
0.000000000000000000e+00 1.738230000000000127e-05 3.341799242948654047e+00
0.000000000000000000e+00 6.479359999999999981e-04 2.646414220638239279e+00
6.250000000000000347e-03 3.902210000000000140e-03 4.596686442528270078e+00
0.000000000000000000e+00 1.147900000000000092e-03 4.901915461440735200e+00
0.000000000000000000e+00 2.321150000000000123e-03 2.562176497509884854e+00
0.000000000000000000e+00 1.494459999999999972e-03 1.723820259532335974e+00
0.000000000000000000e+00 1.202109999999999941e-03 2.827200383115993532e+00
9.374999999999999653e-03 9.203840000000000632e-02 2.392998879865916972e+00
0.000000000000000000e+00 1.772219999999999915e-03 6.680361478888507953e-02
2.812500000000000069e-02 2.384900000000000127e-03 1.657585071208408367e+00
2.500000000000000139e-02 2.204419999999999904e-03 1.917723534776539784e+00
6.250000000000000347e-03 3.756670000000000148e-03 3.952100662777790596e+00
4.062500000000000139e-02 9.270939999999999737e-02 2.854353561919321436e+00
0.000000000000000000e+00 2.012859999999999996e-03 2.199241891537889737e-01
3.125000000000000000e-02 6.254790000000000350e-02 1.435136539085044571e+00
3.125000000000000173e-03 1.023229999999999973e-02 2.414458311995548723e+00
2.812500000000000069e-02 1.841090000000000088e-03 1.854375001164865200e+00
0.000000000000000000e+00 4.284189999999999787e-04 4.017271307609676434e+00
0.000000000000000000e+00 3.831679999999999743e-04 4.740864796178937191e+00
2.812500000000000069e-02 3.278259999999999855e-03 3.667501240968952914e+00
0.000000000000000000e+00 9.361919999999999704e-04 1.623406047756861259e+00
0.000000000000000000e+00 1.432759999999999867e-01 3.031661248574190726e+00
1.874999999999999931e-02 1.928510000000000033e-03 4.813960089197627523e-01
0.000000000000000000e+00 1.725629999999999916e-03 4.402503838464438601e+00
2.500000000000000139e-02 9.478889999999999538e-02 3.734040532023599201e+00
0.000000000000000000e+00 9.815679999999999371e-04 2.947885406683282916e+00
0.000000000000000000e+00 1.163009999999999912e-03 3.851566490281689958e+00
1.562500000000000000e-02 1.573179999999999978e-03 2.557886580216410799e+00
0.000000000000000000e+00 2.267870000000000023e-05 1.338842059642858517e-01
0.000000000000000000e+00 3.921469999999999817e-03 3.396734980776922264e+00
0.000000000000000000e+00 6.922290000000000431e-04 3.965034371308289618e+00
0.000000000000000000e+00 1.156990000000000102e-03 3.036127047585036820e+00
5.937499999999999722e-02 9.345240000000000491e-02 2.322060884767613409e+00
2.187499999999999861e-02 6.701900000000000218e-03 2.374071864619653471e+00
0.000000000000000000e+00 0.000000000000000000e+00 4.129331230259153385e-01
0.000000000000000000e+00 2.090879999999999876e-04 2.504461952635595345e+00
3.125000000000000173e-03 1.428439999999999918e-02 1.123318219276603358e+00
0.000000000000000000e+00 1.566720000000000070e-04 4.674946204859971033e+00
0.000000000000000000e+00 2.292800000000000138e-05 1.264640995201714579e+00
1.874999999999999931e-02 2.162909999999999833e-02 5.447870149665678952e-01
0.000000000000000000e+00 3.236480000000000021e-04 3.212872531105794405e+00
2.500000000000000139e-02 1.645250000000000011e-03 3.301307604862850020e+00
2.500000000000000139e-02 2.725249999999999808e-03 4.274835764511795588e+00
9.374999999999999653e-03 5.290369999999999968e-03 3.218409300919217175e-01
0.000000000000000000e+00 0.000000000000000000e+00 4.561499457531479784e+00
0.000000000000000000e+00 1.177600000000000001e-03 4.580134480755142512e+00
2.187499999999999861e-02 2.286980000000000089e-03 1.969102908298446142e+00
0.000000000000000000e+00 2.766080000000000188e-04 4.209627849754075335e+00
0.000000000000000000e+00 7.318399999999999862e-04 4.879078363693071019e+00
0.000000000000000000e+00 7.018480000000000335e-04 2.342344862709011544e-01
0.000000000000000000e+00 1.020109999999999940e-02 5.345452761160734978e-01
6.250000000000000347e-03 3.620690000000000193e-03 2.657253570650662144e+00
2.812500000000000069e-02 1.962619999999999990e-03 3.204504728922609846e+00
3.125000000000000000e-02 9.228930000000000466e-02 2.711140862557189557e+00
0.000000000000000000e+00 1.104189999999999902e-03 7.433867504503804957e-01
2.500000000000000139e-02 2.613499999999999938e-03 4.550565953824144749e+00
0.000000000000000000e+00 1.039039999999999972e-03 4.067563743106952678e+00
0.000000000000000000e+00 6.789759999999999719e-04 3.641553089061995152e+00
0.000000000000000000e+00 3.191170000000000118e-03 4.537218751113361925e+00
3.125000000000000173e-03 4.075709999999999750e-03 4.149119160758970359e+00
0.000000000000000000e+00 1.098879999999999996e-03 4.152389839340774103e+00
0.000000000000000000e+00 6.650239999999999537e-04 1.465242462235074594e+00
0.000000000000000000e+00 1.325819999999999907e-03 1.198674168745945678e+00
9.374999999999999653e-03 1.861060000000000101e-03 8.910520482581524293e-01
0.000000000000000000e+00 9.475840000000000131e-04 3.059180033263483089e+00
1.250000000000000069e-02 1.150409999999999974e-02 6.514505217536037396e-01
4.374999999999999722e-02 9.301800000000000346e-02 2.892675310521688470e+00
0.000000000000000000e+00 7.615360000000000488e-04 2.668707224082798923e+00
2.500000000000000139e-02 1.577789999999999922e-03 3.825695625226215757e+00
0.000000000000000000e+00 2.103039999999999977e-04 8.875230515264653786e-01
0.000000000000000000e+00 6.579199999999999621e-05 4.575730524962536627e+00
0.000000000000000000e+00 4.021119999999999881e-04 4.767710273132481191e+00
0.000000000000000000e+00 0.000000000000000000e+00 6.102342154174100752e-01
3.749999999999999861e-02 1.068159999999999943e-01 1.370534978415260507e+00
1.562500000000000000e-02 2.516579999999999859e-02 1.479327905221500927e+00
6.250000000000000347e-03 1.053179999999999950e-01 6.398147839008855309e-01
1.562500000000000000e-02 1.642690000000000036e-03 4.178314510933292425e+00
2.500000000000000139e-02 2.270270000000000014e-03 1.742648719755068853e-01
2.500000000000000139e-02 2.758459999999999905e-03 2.124755369657744364e+00
3.125000000000000173e-03 5.425280000000000206e-04 4.704528711104529748e+00
3.125000000000000173e-03 6.333380000000000433e-03 2.481251880018221279e+00
1.562500000000000000e-02 1.829890000000000032e-03 2.459798032326010020e+00
1.250000000000000069e-02 9.991540000000000143e-02 1.631028540242601688e-01
2.812500000000000069e-02 3.030020000000000022e-03 2.679837823040888800e+00
3.125000000000000173e-03 2.401480000000000108e-03 4.335104322497326024e+00
0.000000000000000000e+00 3.117309999999999873e-03 3.136032228516934417e+00
0.000000000000000000e+00 1.861549999999999956e-04 9.860755580992897062e-01
0.000000000000000000e+00 1.314819999999999964e-03 4.407424037780137915e+00
0.000000000000000000e+00 4.074239999999999806e-04 1.728227179227166843e+00
0.000000000000000000e+00 4.450939999999999584e-03 1.945361030873211217e+00
0.000000000000000000e+00 7.209599999999999819e-04 4.649077396415747465e+00
0.000000000000000000e+00 0.000000000000000000e+00 3.403197020770796222e+00
0.000000000000000000e+00 8.891200000000000145e-03 3.161657945076634224e+00
0.000000000000000000e+00 6.481759999999999822e-04 2.151850709133981354e+00
0.000000000000000000e+00 1.556799999999999894e-03 4.498665155693768902e+00
0.000000000000000000e+00 6.399740000000000116e-03 4.697821509055255085e+00
1.562500000000000000e-02 1.855230000000000030e-03 1.427981034722491938e+00
2.500000000000000139e-02 1.061720000000000025e-01 4.153034847902125293e+00
9.374999999999999653e-03 1.775939999999999941e-03 3.336594650238082327e+00
3.437500000000000278e-02 9.688399999999999790e-02 3.956813569845381906e+00
0.000000000000000000e+00 6.543999999999999687e-04 7.161501303419087749e-01
0.000000000000000000e+00 4.026880000000000043e-04 4.600712750311014565e-01
0.000000000000000000e+00 3.497759999999999932e-03 1.555044688761892502e+00
1.250000000000000069e-02 1.443709999999999959e-03 1.145865936611322855e+00
0.000000000000000000e+00 1.095099999999999893e-03 2.013873292716433561e+00
1.250000000000000069e-02 9.280230000000000423e-02 8.059632271181416119e-01
2.187499999999999861e-02 2.760639999999999969e-03 1.668488941549583604e+00
3.125000000000000173e-03 2.269059999999999827e-03 2.019472874167421494e+00
2.187499999999999861e-02 3.539259999999999802e-03 2.449541912032456636e+00
0.000000000000000000e+00 1.142900000000000079e-03 2.816848655730295192e+00
0.000000000000000000e+00 4.338060000000000136e-04 4.435298106989404410e+00
0.000000000000000000e+00 6.330879999999999667e-04 4.433549913656534613e+00
6.250000000000000347e-03 1.156100000000000010e-02 1.576834975808185213e+00
0.000000000000000000e+00 2.268249999999999840e-05 2.729828398917605981e+00
0.000000000000000000e+00 2.322939999999999901e-03 3.139281903864536538e+00
0.000000000000000000e+00 6.748799999999999895e-04 2.617776253328835345e+00
0.000000000000000000e+00 3.122750000000000092e-03 3.583595455467715851e+00
0.000000000000000000e+00 2.305980000000000009e-03 4.015334110153066405e+00
0.000000000000000000e+00 1.413500000000000043e-03 8.249653672039558572e-01
0.000000000000000000e+00 4.045650000000000136e-04 3.073729395057520630e+00
0.000000000000000000e+00 2.261459999999999859e-05 2.053122964352857682e+00
1.250000000000000069e-02 9.534760000000000457e-02 3.496055075417057623e+00
2.187499999999999861e-02 2.269890000000000102e-03 4.728337180171006793e+00
1.250000000000000069e-02 2.209220000000000021e-03 1.975644410939776385e+00
0.000000000000000000e+00 0.000000000000000000e+00 1.930781808881234962e+00
1.562500000000000000e-02 5.717830000000000135e-03 1.051333542585752401e+00
0.000000000000000000e+00 1.862079999999999898e-03 1.294613598616403571e+00
0.000000000000000000e+00 1.781119999999999915e-04 1.351159422091563034e+00
3.125000000000000173e-03 8.774850000000000705e-03 4.890826693894501531e+00
3.125000000000000173e-03 1.933999999999999955e-02 2.192289635469368836e-01
0.000000000000000000e+00 3.769269999999999912e-04 2.574138655242981244e+00
0.000000000000000000e+00 3.240040000000000021e-03 4.877466230572124140e+00
0.000000000000000000e+00 1.051590000000000033e-03 8.398616360805793990e-01
2.500000000000000139e-02 2.175359999999999881e-03 5.083014271741070900e-02
0.000000000000000000e+00 4.059840000000000323e-03 2.608509513765275400e+00
6.250000000000000347e-03 1.416380000000000070e-02 2.226857515787552533e+00
2.812500000000000069e-02 3.986110000000000174e-03 2.183021204476882637e+00
0.000000000000000000e+00 7.324360000000000462e-04 1.267568402464354094e+00
0.000000000000000000e+00 4.166200000000000112e-03 4.775998644681163974e+00
0.000000000000000000e+00 1.253519999999999938e-03 2.915691916617642487e+00
0.000000000000000000e+00 6.679039999999999803e-04 2.524912820691453064e+00
1.250000000000000069e-02 1.715259999999999918e-03 8.181838473591901417e-01
0.000000000000000000e+00 3.551250000000000261e-04 4.310109327671580282e+00
2.187499999999999861e-02 9.262209999999999888e-02 4.092188649766264952e+00
3.125000000000000173e-03 1.698499999999999923e-03 1.493507302558823024e+00
3.125000000000000173e-03 2.062589999999999996e-03 2.241701139473173843e+00
3.125000000000000173e-03 1.184189999999999895e-03 4.500018758763061122e+00
0.000000000000000000e+00 1.148930000000000047e-03 4.455422864008593109e+00
1.250000000000000069e-02 1.936580000000000029e-03 3.207817065112430477e+00
3.125000000000000173e-03 1.938370000000000024e-03 4.522850824069716502e+00
