6.562500000000000278e-02 3.026710000000000164e-02 1.871249551759764262e+00
0.000000000000000000e+00 7.952000000000000301e-04 4.167359671105287156e+00
2.187499999999999861e-02 2.749119999999999862e-03 4.048648545053073811e+00
0.000000000000000000e+00 3.500159999999999990e-03 2.534978109447428629e+00
0.000000000000000000e+00 3.880959999999999922e-04 2.954692707554006148e+00
6.250000000000000347e-03 2.126980000000000103e-03 2.831864962267110819e+00
0.000000000000000000e+00 9.055089999999999797e-04 2.243681882273690142e+00
3.125000000000000173e-03 4.606400000000000078e-03 3.424604472407710265e+00
0.000000000000000000e+00 1.258199999999999900e-03 4.250861096563101960e+00
0.000000000000000000e+00 1.750459999999999907e-03 4.098247753353419398e+00
9.374999999999999653e-03 8.914880000000000027e-03 3.159311021158543564e+00
0.000000000000000000e+00 6.314240000000000044e-04 4.505406029168460336e+00
2.812500000000000069e-02 9.317659999999999831e-02 2.143960731498822270e+00
2.812500000000000069e-02 3.150650000000000065e-03 3.620477235425997087e+00
0.000000000000000000e+00 7.337179999999999570e-04 7.974586894467117215e-01
9.374999999999999653e-03 9.106279999999999930e-02 2.786886502215808914e+00
0.000000000000000000e+00 1.160259999999999981e-03 1.894057061548866550e+00
3.125000000000000173e-03 6.544640000000000006e-04 1.270424897675273446e+00
2.187499999999999861e-02 9.165779999999999761e-02 1.740677626412607371e+00
3.749999999999999861e-02 9.223249999999999504e-02 4.219452529662643947e+00
0.000000000000000000e+00 5.775490000000000311e-03 4.812534204181631914e+00
1.250000000000000069e-02 1.080200000000000049e-01 1.513588358375391740e+00
3.125000000000000000e-02 9.055040000000000311e-03 4.789767973875058260e+00
1.874999999999999931e-02 1.781760000000000071e-03 2.261744336200846028e+00
0.000000000000000000e+00 1.162300000000000008e-03 1.791864365370867240e+00
0.000000000000000000e+00 4.105600000000000265e-04 1.107376343848710532e+00
2.812500000000000069e-02 3.104700000000000168e-03 3.080488892736805262e+00
9.374999999999999653e-03 9.458039999999999503e-02 2.475807452868915348e+00
4.062500000000000139e-02 3.629070000000000212e-02 3.719060328143648952e+00
1.562500000000000000e-02 2.265339999999999802e-03 9.067499265299538980e-02
0.000000000000000000e+00 5.743360000000000522e-04 1.979928087339705156e-01
9.374999999999999653e-03 3.326850000000000120e-03 2.899247200246835021e-01
2.812500000000000069e-02 1.899330000000000072e-03 1.458450997293201823e+00
0.000000000000000000e+00 9.036800000000000214e-04 2.323116006383767029e+00
0.000000000000000000e+00 2.008139999999999838e-03 3.746665461088927174e+00
0.000000000000000000e+00 3.210239999999999947e-04 2.856222379935280387e+00
0.000000000000000000e+00 1.298919999999999936e-02 3.643938145336295120e-01
1.562500000000000000e-02 9.323829999999999618e-02 2.783786692739383284e+00
0.000000000000000000e+00 1.655360000000000035e-03 4.468841918486628373e+00
0.000000000000000000e+00 1.074239999999999961e-03 3.878292453301660281e+00
0.000000000000000000e+00 3.546760000000000039e-04 3.231010019015558843e+00
0.000000000000000000e+00 1.584239999999999954e-02 2.520044156044114025e+00
0.000000000000000000e+00 1.994870000000000096e-05 1.596781380555977181e+00
0.000000000000000000e+00 3.802880000000000019e-04 2.010250681780542781e+00
0.000000000000000000e+00 8.737280000000000480e-04 1.346980100473189612e+00
0.000000000000000000e+00 9.692799999999999897e-04 1.262517265987954662e+00
9.374999999999999653e-03 7.918719999999999969e-04 3.502592754957614130e+00
0.000000000000000000e+00 3.479420000000000104e-04 4.757725661488027669e+00
6.250000000000000347e-03 1.393860000000000021e-03 3.696146918234787471e+00
3.125000000000000173e-03 4.219070000000000112e-03 4.760265377753190030e+00
0.000000000000000000e+00 9.427199999999999729e-04 4.907544982649218568e+00
0.000000000000000000e+00 4.199620000000000263e-03 2.643463391755495717e+00
2.187499999999999861e-02 3.329359999999999958e-02 2.455310668358583914e+00
0.000000000000000000e+00 5.011139999999999865e-03 4.258915369126754058e+00
6.250000000000000347e-03 9.572269999999999390e-02 3.892401303270236479e+00
1.250000000000000069e-02 1.368639999999999961e-03 1.969923495155987858e+00
9.374999999999999653e-03 1.054989999999999956e-01 1.277721020183286704e+00
3.125000000000000173e-03 9.692159999999999578e-04 3.942119107459012728e+00
3.125000000000000173e-03 1.048299999999999926e-02 4.664548759567660463e-01
6.250000000000000347e-03 1.355400000000000008e-02 2.660959192706972676e+00
0.000000000000000000e+00 9.941760000000000441e-04 1.344265254218867778e+00
6.250000000000000347e-03 1.775550000000000088e-03 2.023434090212039571e-01
3.125000000000000173e-03 4.210619999999999988e-03 2.619049548088241863e+00
0.000000000000000000e+00 2.217859999999999884e-03 3.731579484020178583e+00
0.000000000000000000e+00 5.354239999999999477e-04 3.373675872020678757e+00
0.000000000000000000e+00 1.882730000000000167e-02 4.421389194169655035e+00
0.000000000000000000e+00 1.114240000000000065e-03 5.774211454237182517e-01
0.000000000000000000e+00 1.057409999999999947e-03 7.072192961207740547e-01
1.874999999999999931e-02 1.217409999999999933e-03 3.948272661884970613e+00
2.500000000000000139e-02 2.426499999999999838e-03 2.929303906370744892e-01
3.749999999999999861e-02 8.976319999999999438e-03 2.319514248000938306e+00
0.000000000000000000e+00 1.017090000000000008e-03 3.672891734320113510e+00
1.562500000000000000e-02 1.738179999999999977e-03 1.488767084653368045e+00
0.000000000000000000e+00 2.134909999999999846e-03 3.638072477933140814e+00
0.000000000000000000e+00 1.043780000000000012e-03 2.972234905930271065e-01
2.187499999999999861e-02 2.127410000000000134e-01 4.453966389478089205e+00
0.000000000000000000e+00 0.000000000000000000e+00 5.619573788489068411e-01
2.812500000000000069e-02 4.743999999999999953e-03 4.330494870638682769e+00
3.437500000000000278e-02 9.439089999999999980e-02 1.733889307234374177e+00
0.000000000000000000e+00 1.056330000000000073e-03 1.723581178464009156e+00
1.874999999999999931e-02 3.545599999999999880e-03 4.180159867063203194e+00
0.000000000000000000e+00 6.451419999999999377e-02 2.251872014881259432e+00
0.000000000000000000e+00 7.441060000000000209e-04 1.545072750143765106e+00
1.874999999999999931e-02 3.110980000000000169e-03 3.535323362669640535e+00
0.000000000000000000e+00 4.225200000000000136e-04 3.698477252077947419e-02
1.250000000000000069e-02 1.589499999999999984e-03 4.755227526292387985e+00
3.125000000000000173e-03 1.720219999999999952e-03 1.563061350999654930e+00
1.874999999999999931e-02 2.290110000000000149e-03 3.496222240379914581e+00
6.250000000000000347e-03 2.294140000000000068e-03 1.636434388877437973e+00
3.125000000000000173e-03 4.523069999999999695e-03 3.466887884202167314e+00
1.250000000000000069e-02 1.743490000000000100e-03 1.232914369324497050e+00
9.374999999999999653e-03 1.413060000000000054e-03 5.405008314939435676e-01
1.562500000000000000e-02 1.842110000000000102e-03 5.307302049242523800e-01
6.250000000000000347e-03 2.192959999999999875e-03 3.270416621063259477e+00
0.000000000000000000e+00 1.652529999999999971e-02 2.749361956722471856e+00
0.000000000000000000e+00 1.064510000000000066e-03 3.574332318720037094e+00
0.000000000000000000e+00 7.144809999999999920e-04 1.270966367326324953e+00
3.125000000000000173e-03 9.777089999999999392e-02 3.873714214654130572e+00
2.187499999999999861e-02 9.262729999999999575e-02 3.033666116737967489e+00
7.812500000000000000e-02 2.755209999999999951e-02 4.002984265029224664e-01
0.000000000000000000e+00 4.508419999999999962e-03 2.721398753519772562e+00
0.000000000000000000e+00 1.628160000000000078e-04 3.846986776043068712e+00
6.875000000000000555e-02 3.656260000000000066e-02 1.700175858924643624e+00
3.125000000000000173e-03 4.835840000000000104e-03 3.227566773058061944e+00
3.125000000000000173e-03 1.820100000000000060e-03 5.500177427123859042e-01
9.374999999999999653e-03 1.387760000000000035e-02 3.706816527356316726e+00
2.187499999999999861e-02 9.125740000000000240e-02 4.912590346496018334e+00
1.250000000000000069e-02 2.001450000000000104e-02 3.470198060710419696e+00
0.000000000000000000e+00 1.563200000000000050e-03 3.137746832467132485e+00
0.000000000000000000e+00 1.939900000000000044e-03 1.495470267408214760e+00
1.562500000000000000e-02 1.714370000000000000e-03 1.433769358344332279e+00
2.812500000000000069e-02 9.255850000000000188e-02 1.486846408498303074e+00
1.250000000000000069e-02 2.295170000000000023e-03 3.812400342024384603e+00
0.000000000000000000e+00 3.750030000000000008e-04 6.971500613082343145e-01
3.125000000000000173e-03 2.393150000000000138e-03 1.411646868368407581e+00
2.500000000000000139e-02 1.899780000000000002e-03 2.042612914815961744e+00
6.250000000000000347e-03 1.057339999999999929e-03 1.394184753235826468e+00
0.000000000000000000e+00 4.885500000000000259e-02 1.382594669268210730e+00
0.000000000000000000e+00 5.832699999999999690e-03 1.305301043605860967e-01
0.000000000000000000e+00 1.452610000000000012e-02 6.881922524878320013e-01
3.125000000000000173e-03 4.315710000000000379e-03 3.809129023818358384e-01
1.874999999999999931e-02 1.017109999999999959e-01 7.562973601562245074e-01
2.187499999999999861e-02 2.624000000000000030e-03 2.683515140696568047e+00
0.000000000000000000e+00 1.553279999999999982e-03 1.323738313687369939e+00
0.000000000000000000e+00 7.351289999999999474e-04 4.541163839784508660e+00
1.874999999999999931e-02 2.976320000000000181e-03 4.557296154286386347e+00
0.000000000000000000e+00 8.302259999999999892e-04 1.767640139924695486e+00
1.874999999999999931e-02 2.801090000000000003e-03 3.526765952208340771e+00
3.125000000000000173e-03 1.614589999999999949e-03 3.440750765346847651e+00
0.000000000000000000e+00 1.140799999999999974e-03 2.269562500556241869e+00
1.250000000000000069e-02 1.368639999999999961e-03 3.752215674456747863e+00
0.000000000000000000e+00 9.284480000000000120e-04 4.366190995566114452e+00
0.000000000000000000e+00 2.715949999999999961e-03 4.410742561480079926e-01
2.187499999999999861e-02 3.147520000000000005e-03 3.693903910463919082e+00
0.000000000000000000e+00 9.834880000000000271e-04 2.277084472510845892e+00
3.125000000000000173e-03 1.947139999999999982e-03 2.419978551527279809e+00
1.562500000000000000e-02 9.394460000000000310e-02 4.740100813660959034e+00
0.000000000000000000e+00 1.470600000000000032e-02 3.357925838111311734e+00
9.374999999999999653e-03 9.800330000000000152e-02 4.588553247716661510e+00
9.374999999999999653e-03 5.725820000000000388e-03 3.216225390130311723e+00
0.000000000000000000e+00 2.306560000000000088e-04 4.459240265293400896e+00
3.125000000000000173e-03 2.100990000000000062e-03 2.830335477551797485e+00
1.562500000000000000e-02 2.159490000000000021e-03 9.249339181210247673e-01
0.000000000000000000e+00 6.669950000000000011e-03 2.753788390289943599e+00
3.125000000000000173e-03 2.622020000000000080e-03 1.556811986318471508e+00
0.000000000000000000e+00 6.889599999999999631e-04 4.870481543216294895e+00
0.000000000000000000e+00 1.787650000000000003e-03 4.677436010743728723e+00
0.000000000000000000e+00 1.767679999999999989e-04 1.912373618858446145e+00
0.000000000000000000e+00 4.657919999999999747e-04 4.110162689043455941e+00
0.000000000000000000e+00 1.699580000000000014e-03 2.258260145233935035e+00
0.000000000000000000e+00 3.417870000000000261e-04 1.552713081408879647e-01
3.125000000000000173e-03 4.480579999999999632e-03 7.392172940168811879e-01
0.000000000000000000e+00 9.758720000000000241e-04 2.203935476084624590e+00
0.000000000000000000e+00 6.584349999999999665e-04 4.535086558744946927e+00
6.250000000000000347e-03 2.515690000000000114e-03 2.056298443398280051e-01
0.000000000000000000e+00 1.088699999999999954e-03 2.559321387077689192e+00
0.000000000000000000e+00 7.316659999999999570e-04 3.553123610969893154e+00
0.000000000000000000e+00 1.892859999999999899e-03 3.624262555148026088e+00
3.125000000000000173e-03 2.326709999999999889e-02 3.063219904949390671e+00
0.000000000000000000e+00 0.000000000000000000e+00 3.461979582112328480e+00
0.000000000000000000e+00 1.297060000000000053e-03 2.659716435838053616e+00
1.562500000000000000e-02 9.149799999999999600e-02 3.559051317690346661e+00
0.000000000000000000e+00 1.106299999999999948e-03 3.170004110936138098e+00
1.562500000000000000e-02 1.770239999999999965e-03 3.717976272770035617e+00
0.000000000000000000e+00 7.480820000000000004e-03 9.928451053152431705e-01
0.000000000000000000e+00 8.844569999999999516e-03 3.133509457396765896e+00
0.000000000000000000e+00 1.540860000000000016e-03 5.326696642413847327e-01
3.125000000000000173e-03 4.536700000000000281e-03 4.740026601209804014e+00
0.000000000000000000e+00 1.207420000000000064e-03 2.017619763681758993e+00
0.000000000000000000e+00 1.870919999999999875e-02 7.271021681759554101e-01
3.125000000000000000e-02 1.823139999999999830e-02 4.481075968570684687e+00
3.125000000000000173e-03 1.741060000000000003e-03 1.269751231697765492e+00
0.000000000000000000e+00 1.057729999999999998e-03 5.037850407798022401e-01
0.000000000000000000e+00 3.813760000000000023e-04 3.387336286731296164e-01
0.000000000000000000e+00 1.524030000000000003e-02 4.757911353681187450e+00
1.562500000000000000e-02 1.912000000000000071e-03 1.589104960315961268e+00
1.250000000000000069e-02 1.704839999999999828e-02 2.558029460420563339e-01
6.250000000000000347e-03 1.216770000000000048e-03 4.003178030271044463e+00
0.000000000000000000e+00 1.368630000000000020e-02 1.248391595577659885e+00
0.000000000000000000e+00 2.878270000000000047e-03 4.671850558400339359e+00
3.125000000000000173e-03 1.937469999999999947e-03 4.580114608878347759e+00
2.812500000000000069e-02 9.353090000000000015e-02 1.388107238885623484e+00
2.187499999999999861e-02 5.231300000000000359e-03 3.536515163802093298e+00
0.000000000000000000e+00 1.095419999999999944e-03 1.244886985625783371e+00
0.000000000000000000e+00 7.056960000000000142e-04 3.406201152859542169e+00
3.749999999999999861e-02 8.976319999999999438e-03 1.563019366869756732e+00
4.374999999999999722e-02 1.061840000000000006e-01 4.844526423376541047e+00
3.125000000000000173e-03 9.898479999999999779e-02 9.961043049582568587e-01
0.000000000000000000e+00 1.119420000000000094e-03 2.066119115791391625e+00
0.000000000000000000e+00 3.849600000000000005e-04 1.825429105925259199e+00
0.000000000000000000e+00 1.602820000000000026e-03 1.188247493297689417e-01
0.000000000000000000e+00 3.453180000000000138e-03 6.369407883913436041e-02
0.000000000000000000e+00 3.716680000000000201e-04 3.225522876929917793e+00
0.000000000000000000e+00 9.516890000000000072e-02 2.433781538735944050e+00
3.125000000000000173e-03 7.957340000000000246e-03 4.290177889711802806e+00
1.562500000000000000e-02 2.651140000000000180e-03 1.370866192061858779e+00
0.000000000000000000e+00 8.723199999999999422e-05 1.072323131172214783e-01
0.000000000000000000e+00 9.772800000000000757e-04 3.959498406422486738e+00
6.250000000000000347e-03 5.284669999999999992e-03 7.216759464736921537e-01
0.000000000000000000e+00 2.167039999999999906e-04 1.152043409575254085e+00
0.000000000000000000e+00 5.289029999999999470e-04 2.787773041378968308e+00
9.374999999999999653e-03 1.165440000000000009e-03 4.699951974790531395e+00
5.937499999999999722e-02 9.345520000000000216e-02 1.460141497317728909e+00
0.000000000000000000e+00 4.168770000000000136e-04 4.600812691341312544e+00
0.000000000000000000e+00 9.209599999999999644e-04 1.764209739661204868e+00
0.000000000000000000e+00 1.163970000000000065e-03 3.108291563698226234e+00
2.500000000000000139e-02 6.328190000000000030e-03 2.577447809479776808e+00
0.000000000000000000e+00 2.314339999999999936e-05 1.112980663025653794e+00
0.000000000000000000e+00 3.779529999999999912e-04 4.432366804093829771e+00
4.374999999999999722e-02 9.081699999999999495e-02 1.928141893578049881e+00
0.000000000000000000e+00 0.000000000000000000e+00 3.455943374702404647e+00
0.000000000000000000e+00 1.270459999999999949e-03 1.465772490834605257e+00
0.000000000000000000e+00 9.978879999999999435e-04 3.547668435420134880e+00
0.000000000000000000e+00 7.230739999999999824e-04 6.555332486042936280e-01
0.000000000000000000e+00 1.106500000000000062e-03 3.265025065777455548e+00
2.812500000000000069e-02 9.204859999999999431e-02 3.215875557611441060e+00
3.125000000000000173e-03 1.544449999999999946e-03 2.812787868448024531e-01
3.125000000000000173e-03 1.631169999999999929e-03 3.985588255003769120e-01
0.000000000000000000e+00 1.149440000000000054e-03 2.456439872736469354e+00
3.749999999999999861e-02 8.138619999999999188e-03 2.194415027662120821e+00
0.000000000000000000e+00 5.568390000000000145e-02 2.995469962979848244e+00
0.000000000000000000e+00 1.892459999999999976e-02 3.887249395043055777e+00
0.000000000000000000e+00 1.312080000000000017e-02 3.426815198527390471e+00
4.062500000000000139e-02 3.574019999999999975e-02 4.007151964201430161e+00
5.937499999999999722e-02 1.077560000000000046e-01 2.745643942572146390e+00
9.062499999999999722e-02 1.983750000000000097e-02 2.787454733444417521e+00
0.000000000000000000e+00 1.073149999999999929e-03 1.438109054606321990e+00
0.000000000000000000e+00 1.091839999999999955e-03 1.823511309180043227e+00
1.250000000000000069e-02 2.408580000000000009e-03 4.077904046543937788e+00
3.437500000000000278e-02 9.185580000000000134e-02 2.679967758127007826e+00
0.000000000000000000e+00 5.487359999999999721e-04 4.716808665794984812e+00
3.125000000000000173e-03 1.050149999999999972e-01 1.353327184280057605e+00
0.000000000000000000e+00 2.406710000000000099e-02 2.956684316497609766e-01
0.000000000000000000e+00 1.974400000000000070e-04 3.798521988123896520e+00
0.000000000000000000e+00 1.045439999999999911e-03 2.533732685265653650e+00
0.000000000000000000e+00 7.312170000000000432e-04 1.340110218099674899e+00
2.812500000000000069e-02 3.651010000000000106e-03 4.227809760898789015e+00
2.500000000000000139e-02 1.651459999999999994e-03 1.131789846431305868e+00
1.562500000000000000e-02 1.059680000000000066e-01 1.508376726050488337e+00
3.125000000000000173e-03 3.707440000000000041e-02 4.939175582909765438e+00
0.000000000000000000e+00 5.024319999999999654e-03 2.360116474669946562e+00
1.250000000000000069e-02 2.641860000000000215e-03 4.805480321633720520e-01
9.374999999999999653e-03 2.077250000000000103e-03 1.641193185527306531e-01
0.000000000000000000e+00 1.195069999999999986e-02 3.338310298770608586e+00
0.000000000000000000e+00 1.405059999999999990e-02 4.967521287158726651e+00
0.000000000000000000e+00 9.502720000000000524e-04 2.973188067877257978e+00
0.000000000000000000e+00 1.168130000000000080e-03 4.048239741427270388e+00
0.000000000000000000e+00 9.744639999999999726e-04 3.845749555082132343e+00
1.562500000000000000e-02 1.263000000000000060e-02 1.329255353046696175e+00
3.125000000000000000e-02 6.508029999999999718e-03 6.343264668019216179e-01
2.187499999999999861e-02 2.608699999999999821e-03 2.606046124100434902e+00
1.562500000000000000e-02 1.638399999999999926e-03 3.849633517793350279e+00
9.374999999999999653e-03 1.075210000000000055e-02 4.367565091941702171e+00
0.000000000000000000e+00 1.132159999999999894e-03 3.363569325412635536e+00
0.000000000000000000e+00 1.711419999999999955e-03 1.040972435321764200e+00
0.000000000000000000e+00 4.136060000000000105e-04 1.198332301297879265e+00
6.250000000000000347e-03 1.314939999999999902e-03 8.360909571093899650e-01
2.812500000000000069e-02 2.363120000000000151e-02 4.159819440537927626e+00
0.000000000000000000e+00 1.927679999999999975e-03 3.620995805079152863e+00
2.187499999999999861e-02 1.979330000000000065e-03 4.660247587497448940e+00
0.000000000000000000e+00 4.410449999999999787e-03 4.271659204283528410e+00
0.000000000000000000e+00 1.063939999999999981e-03 7.192942806204810635e-01
3.125000000000000000e-02 3.678089999999999832e-02 4.970398027119928841e+00
1.562500000000000000e-02 2.247100000000000139e-03 2.808699787878743415e-01
1.874999999999999931e-02 3.221500000000000058e-02 3.977614606683249621e-01
2.187499999999999861e-02 1.836670000000000099e-03 9.207985118078049203e-01
3.125000000000000173e-03 9.917379999999999945e-03 1.062143641659359261e+00
0.000000000000000000e+00 0.000000000000000000e+00 2.858768974252922312e+00
0.000000000000000000e+00 1.659519999999999995e-04 4.235710795329300282e+00
0.000000000000000000e+00 1.465919999999999897e-03 2.363643047192550917e+00
0.000000000000000000e+00 3.699840000000000138e-04 2.820702372537307046e+00
0.000000000000000000e+00 2.843519999999999772e-04 4.587753356760710943e+00
0.000000000000000000e+00 1.184769999999999920e-03 9.948431559373854816e-01
0.000000000000000000e+00 5.159500000000000457e-04 1.967369089421161510e+00
0.000000000000000000e+00 9.567360000000000230e-04 2.566499850608312538e+00
3.125000000000000173e-03 1.752000000000000085e-03 4.691987495780073125e+00
0.000000000000000000e+00 1.073919999999999909e-03 1.508664837198181896e+00
1.562500000000000000e-02 2.373119999999999830e-03 1.075546512492781659e+00
0.000000000000000000e+00 3.471740000000000069e-04 3.545850917348568387e+00
0.000000000000000000e+00 7.316659999999999570e-04 2.349437077243893057e+00
0.000000000000000000e+00 1.084029999999999933e-03 2.167374021829117758e+00
0.000000000000000000e+00 6.343409999999999327e-02 1.889672534064712472e+00
0.000000000000000000e+00 5.179520000000000174e-04 3.981896591693949272e+00
3.125000000000000173e-03 1.418619999999999994e-03 1.128681252333226137e+00
2.500000000000000139e-02 2.182340000000000061e-03 3.116970841231467837e+00
0.000000000000000000e+00 2.278649999999999944e-05 4.084145817378772136e+00
6.250000000000000347e-03 1.813060000000000019e-03 3.572418505924129128e+00
6.250000000000000347e-03 1.709379999999999927e-03 2.441421264935061508e+00
0.000000000000000000e+00 6.293630000000000058e-02 2.742302120584692027e+00
0.000000000000000000e+00 1.674499999999999990e-03 4.852281085437128105e+00
3.125000000000000000e-02 8.915809999999999708e-03 6.640746799397223565e-01
1.000000000000000056e-01 9.300210000000000421e-02 1.006603006196252093e+00
0.000000000000000000e+00 1.028990000000000026e-03 1.889995611101832340e+00
2.500000000000000139e-02 2.606590000000000209e-03 3.806775969589233366e+00
6.250000000000000347e-03 1.527939999999999984e-03 2.836919416253663062e+00
3.125000000000000173e-03 7.366399999999999944e-04 1.794518052372695127e+00
0.000000000000000000e+00 3.627519999999999855e-04 3.441810488428718173e+00
2.187499999999999861e-02 2.126159999999999994e-01 1.421633300491707441e+00
0.000000000000000000e+00 1.124479999999999967e-03 2.239466817616237559e+00
1.250000000000000069e-02 1.222559999999999966e-02 9.328725024944456434e-01
0.000000000000000000e+00 9.923200000000000943e-04 1.758211321953970341e+00
0.000000000000000000e+00 4.410449999999999787e-03 3.730171813338736264e+00
0.000000000000000000e+00 5.012649999999999788e-04 3.989625479008984676e+00
0.000000000000000000e+00 1.787460000000000047e-03 3.371523985316910554e+00
3.125000000000000173e-03 6.117380000000000387e-03 2.899650118465205040e+00
2.500000000000000139e-02 9.374540000000000650e-02 3.731299289138850561e+00
0.000000000000000000e+00 1.145790000000000046e-03 2.029699118243013967e+00
0.000000000000000000e+00 1.052989999999999959e-03 5.485256829032386650e-01
2.812500000000000069e-02 9.159849999999999937e-02 2.902751162127527707e+00
2.187499999999999861e-02 2.527489999999999858e-03 2.372034822041084290e+00
2.187499999999999861e-02 2.591229999999999922e-03 3.901672197496036887e+00
0.000000000000000000e+00 2.568589999999999936e-03 4.800419687226884946e+00
6.250000000000000347e-03 5.499780000000000120e-03 3.013309606232424720e+00
0.000000000000000000e+00 1.089340000000000057e-03 6.427419304916004439e-01
1.874999999999999931e-02 2.340539999999999895e-03 3.714623185773251013e+00
1.874999999999999931e-02 1.784640000000000098e-03 4.035745890043679340e-01
3.125000000000000173e-03 4.233729999999999785e-03 4.451097271284533363e+00
2.187499999999999861e-02 5.343040000000000289e-03 7.746528131779834014e-01
0.000000000000000000e+00 1.165290000000000076e-02 4.765109129314409664e+00
0.000000000000000000e+00 6.821029999999999845e-04 4.785743741046931454e+00
0.000000000000000000e+00 4.240000000000000062e-04 3.739637361556420014e+00
4.062500000000000139e-02 1.070310000000000011e-01 5.673885799650085771e-01
2.500000000000000139e-02 2.485310000000000123e-03 1.022729645049397229e-01
0.000000000000000000e+00 1.449190000000000027e-02 2.785386652330799517e+00
0.000000000000000000e+00 2.092159999999999972e-04 2.192998291007164369e+00
3.125000000000000173e-03 5.017279999999999830e-03 9.951278935986201946e-01
0.000000000000000000e+00 8.984960000000000386e-04 4.200006965014702054e-01
1.562500000000000000e-02 2.135170000000000037e-03 3.983741391396893317e+00
1.562500000000000000e-02 1.693819999999999961e-03 4.639821552864942689e+00
0.000000000000000000e+00 6.435520000000000129e-03 4.555403146594947827e+00
9.374999999999999653e-03 9.960249999999999659e-02 1.306453675555356853e+00
0.000000000000000000e+00 4.439040000000000108e-04 6.672515203845430509e-01
0.000000000000000000e+00 4.787570000000000107e-04 5.417120625037535886e-01
0.000000000000000000e+00 0.000000000000000000e+00 1.886265280706044267e+00
1.874999999999999931e-02 1.834429999999999958e-03 3.764297806363027021e+00
3.125000000000000173e-03 4.186180000000000283e-03 4.897182362707509284e+00
0.000000000000000000e+00 1.807409999999999919e-02 3.618933153281260306e+00
0.000000000000000000e+00 2.243069999999999786e-03 3.431246892512398006e+00
0.000000000000000000e+00 9.362560000000000023e-04 3.873592032691195897e+00
9.374999999999999653e-03 1.693700000000000023e-03 3.317021497686933440e+00
0.000000000000000000e+00 6.604230000000000430e-04 4.446451979474897342e+00
0.000000000000000000e+00 4.572110000000000106e-04 4.197039045513947464e+00
0.000000000000000000e+00 1.521599999999999906e-03 1.632932728682828794e-01
3.125000000000000173e-03 1.369609999999999925e-02 4.869776633014264000e+00
0.000000000000000000e+00 7.267289999999999601e-04 8.573276505942212244e-01
2.812500000000000069e-02 2.072699999999999803e-03 5.203374015242950845e-01
6.250000000000000347e-03 2.066489999999999994e-01 4.794467038686805793e+00
0.000000000000000000e+00 3.892480000000000245e-04 3.665648439052909602e+00
0.000000000000000000e+00 3.877759999999999953e-04 4.269234018809960673e+00
2.500000000000000139e-02 2.530109999999999911e-03 1.637141765710692365e-01
1.874999999999999931e-02 2.306050000000000027e-03 3.864784246091047315e+00
3.437500000000000278e-02 2.781609999999999985e-02 4.947117328728452890e+00
2.812500000000000069e-02 4.709010000000000279e-02 1.357498739471232785e+00
0.000000000000000000e+00 4.867089999999999915e-04 1.777606523349697376e+00
0.000000000000000000e+00 9.852800000000000533e-04 1.481169410742526615e+00
2.500000000000000139e-02 2.904260000000000088e-03 4.662544827699944605e+00
0.000000000000000000e+00 2.853629999999999795e-03 2.793453043717669004e+00
6.250000000000000347e-03 1.192529999999999979e-02 4.480930681184891462e-01
3.125000000000000173e-03 1.880900000000000020e-03 4.152342021816381568e+00
3.125000000000000173e-03 2.241410000000000104e-03 4.513859879858816981e-01
0.000000000000000000e+00 4.300160000000000245e-04 1.405974948977917194e-01
0.000000000000000000e+00 3.189439999999999983e-03 3.013040208146511301e+00
0.000000000000000000e+00 4.292529999999999913e-04 4.736679234845711406e+00
0.000000000000000000e+00 9.191680000000000466e-04 3.351308608902660691e+00
0.000000000000000000e+00 1.059969999999999923e-03 3.278703345315665096e+00
3.125000000000000173e-03 3.736830000000000013e-03 3.852397653578455206e+00
6.250000000000000347e-03 2.069100000000000106e-01 3.030089592946704879e+00
0.000000000000000000e+00 1.389700000000000006e-03 4.042649886714400509e+00
2.187499999999999861e-02 1.734139999999999900e-03 2.266061851959316975e+00
1.562500000000000000e-02 9.239440000000000153e-02 4.397859654965547982e+00
0.000000000000000000e+00 2.998400000000000024e-04 4.739669188540563738e+00
3.125000000000000173e-03 1.862589999999999905e-03 6.891726367120892816e-01
0.000000000000000000e+00 1.506090000000000033e-02 1.053541838648169859e+00
0.000000000000000000e+00 4.143120000000000136e-04 5.930112015895161459e-01
0.000000000000000000e+00 1.979460000000000160e-03 5.096138791161497483e-02
1.874999999999999931e-02 2.033409999999999818e-03 1.550878161148439460e+00
3.125000000000000173e-03 7.942720000000000335e-03 1.640186923647718453e-01
0.000000000000000000e+00 4.133499999999999913e-04 2.600310737176829701e+00
0.000000000000000000e+00 3.738239999999999771e-04 2.677319454348736638e-01
0.000000000000000000e+00 3.857120000000000232e-04 3.025278869691845784e+00
0.000000000000000000e+00 9.813759999999999498e-04 7.287359600492437917e-01
0.000000000000000000e+00 7.274980000000000335e-04 2.992102178990235783e-01
1.874999999999999931e-02 2.120410000000000073e-01 5.081608088056388528e-01
6.250000000000000347e-03 9.440400000000000180e-02 2.430156730779653440e+00
2.500000000000000139e-02 3.986619999999999747e-03 2.022276216587627573e+00
1.562500000000000000e-02 2.500739999999999994e-03 1.376399684967835491e+00
3.125000000000000173e-03 4.020719999999999850e-02 1.392759480281851481e+00
2.500000000000000139e-02 2.712319999999999835e-03 1.810905642990545239e+00
0.000000000000000000e+00 1.029179999999999982e-03 3.527937596767099393e+00
0.000000000000000000e+00 1.040059999999999986e-03 1.290711339425954396e+00
0.000000000000000000e+00 1.510910000000000074e-03 2.534744373382880056e-01
9.374999999999999653e-03 2.507389999999999966e-03 4.845582015865491421e+00
9.374999999999999653e-03 1.866299999999999990e-03 4.330759492711828251e+00
0.000000000000000000e+00 3.778240000000000201e-04 1.251793077038200197e+00
7.812500000000000000e-02 1.814129999999999909e-02 8.001333944748578730e-01
0.000000000000000000e+00 1.042989999999999933e-03 3.345715187105627209e+00
0.000000000000000000e+00 2.293410000000000121e-05 5.891418386224706039e-01
3.125000000000000173e-03 1.491710000000000041e-03 1.458218616716016047e+00
0.000000000000000000e+00 9.890560000000000931e-04 2.938588766710826139e+00
2.812500000000000069e-02 9.327199999999999380e-02 2.311043133066819522e+00
0.000000000000000000e+00 2.081340000000000100e-03 4.397653033572678005e+00
0.000000000000000000e+00 1.560259999999999946e-03 1.789007944035738262e+00
0.000000000000000000e+00 8.588260000000000338e-04 2.537081835677847952e+00
0.000000000000000000e+00 2.508219999999999807e-03 4.021800847718091099e+00
0.000000000000000000e+00 1.228930000000000040e-03 2.140398830141192477e+00
0.000000000000000000e+00 4.943400000000000138e-04 2.266772957822958290e+00
1.874999999999999931e-02 1.159169999999999949e-03 3.615037224277277250e+00
0.000000000000000000e+00 1.432989999999999958e-02 3.782390012410718594e+00
0.000000000000000000e+00 3.521759999999999973e-04 3.292660785119977618e+00
0.000000000000000000e+00 4.323840000000000127e-04 6.254008825322027176e-01
3.437500000000000278e-02 9.153999999999999637e-02 3.894189920850799069e+00
0.000000000000000000e+00 4.951040000000000085e-04 1.175808354919847698e+00
0.000000000000000000e+00 1.180480000000000028e-03 3.352213271004362838e+00
2.187499999999999861e-02 2.912319999999999926e-03 2.183179202687192788e+00
0.000000000000000000e+00 1.345599999999999965e-03 4.395008968965456120e+00
2.812500000000000069e-02 9.243160000000000265e-02 3.252669115874887051e+00
3.125000000000000173e-03 9.144959999999999938e-04 3.407541609208077471e+00
6.250000000000000347e-03 1.015939999999999899e-03 2.736445472601864104e+00
0.000000000000000000e+00 1.026769999999999983e-03 2.964966077041294668e+00
0.000000000000000000e+00 1.052289999999999996e-03 1.238213634738752900e+00
4.374999999999999722e-02 9.367530000000000301e-02 5.619995283581485923e-01
0.000000000000000000e+00 1.018559999999999952e-03 2.292859821457686742e+00
3.749999999999999861e-02 9.297779999999999934e-02 4.336247265939540796e+00
0.000000000000000000e+00 1.445119999999999879e-04 5.442285653980200033e-01
2.500000000000000139e-02 2.882430000000000062e-03 3.042391998470584280e+00
0.000000000000000000e+00 8.956800000000000438e-04 4.776713718660909436e+00
0.000000000000000000e+00 9.957970000000000883e-04 2.266797274016049801e+00
3.125000000000000173e-03 4.155840000000000055e-03 1.556299052572138297e+00
0.000000000000000000e+00 1.083460000000000065e-03 1.437156943237174911e+00
0.000000000000000000e+00 2.341760000000000022e-03 2.776341921806259716e+00
9.374999999999999653e-03 4.309949999999999892e-03 4.138165955606782020e+00
9.374999999999999653e-03 2.491010000000000099e-03 1.956667373318164316e+00
2.812500000000000069e-02 7.564799999999999996e-03 1.629753780251958606e+00
1.874999999999999931e-02 1.733439999999999937e-03 2.437639705346692498e+00
0.000000000000000000e+00 1.385090000000000062e-03 2.869774829557558693e-01
0.000000000000000000e+00 2.273849999999999922e-05 1.924019503979963464e+00
0.000000000000000000e+00 9.986839999999998999e-04 5.753378476067633196e-01
1.250000000000000069e-02 1.858499999999999909e-03 8.837155940076024674e-01
2.187499999999999861e-02 2.888640000000000044e-03 3.921471280159378292e+00
0.000000000000000000e+00 4.939709999999999934e-03 2.954040597846934180e+00
0.000000000000000000e+00 1.084480000000000079e-03 1.052534648085381441e+00
3.125000000000000173e-03 9.799940000000000040e-02 6.113977888074306755e-01
2.500000000000000139e-02 3.010500000000000155e-03 6.964354105014386453e-01
0.000000000000000000e+00 1.667570000000000028e-05 1.041029234357627731e+00
0.000000000000000000e+00 2.387220000000000159e-05 2.205836108187148037e-01
1.250000000000000069e-02 4.837059999999999797e-03 3.441794152535948115e+00
0.000000000000000000e+00 8.372170000000000176e-04 1.642281628543870164e+00
3.125000000000000173e-03 9.833479999999999999e-02 4.809500411434865619e+00
0.000000000000000000e+00 4.142470000000000202e-04 3.999350069918528483e+00
1.562500000000000000e-02 2.574460000000000203e-03 3.183671553335982285e+00
0.000000000000000000e+00 2.641600000000000024e-03 4.168021713613816459e+00
2.187499999999999861e-02 4.703969999999999679e-02 3.905852357240763295e-01
0.000000000000000000e+00 1.092370000000000060e-03 1.209682750619236025e+00
0.000000000000000000e+00 7.366680000000000016e-04 3.977078193042826726e+00
1.562500000000000000e-02 2.562050000000000178e-03 1.061993060023422419e+00
1.250000000000000069e-02 1.076170000000000078e-02 3.844945982527008255e+00
1.250000000000000069e-02 2.265979999999999904e-03 4.647371686503513288e+00
0.000000000000000000e+00 1.072189999999999992e-03 4.114611675771290500e+00
0.000000000000000000e+00 2.286160000000000148e-05 3.537544897763227780e+00
1.250000000000000069e-02 1.503870000000000033e-03 7.571276633894269414e-01
0.000000000000000000e+00 5.057660000000000280e-03 4.194160394313993123e+00
2.812500000000000069e-02 1.091119999999999937e-02 8.302727626923650517e-01
6.250000000000000347e-03 1.595540000000000153e-02 2.845503560373818353e+00
9.374999999999999653e-03 2.567620000000000059e-03 4.287830050604487298e+00
3.125000000000000173e-03 4.517949999999999744e-03 3.538072229248161005e+00
1.562500000000000000e-02 1.155420000000000058e-02 1.560433933255414019e+00
1.562500000000000000e-02 2.766779999999999934e-03 4.500072353345802023e-01
2.500000000000000139e-02 8.980649999999999744e-02 3.675668987605464899e+00
0.000000000000000000e+00 1.183709999999999971e-02 1.925203556166674712e+00
0.000000000000000000e+00 9.727359999999999783e-04 2.135895240270301088e+00
0.000000000000000000e+00 1.111549999999999995e-03 3.579894827507156929e+00
0.000000000000000000e+00 2.015939999999999920e-03 4.742376677026341802e+00
6.250000000000000347e-03 1.051740000000000036e-01 6.317847468174370151e-01
3.125000000000000173e-03 1.742459999999999929e-03 7.793123994843764724e-01
0.000000000000000000e+00 2.491329999999999933e-03 2.678784205648357286e+00
3.125000000000000000e-02 8.968830000000000552e-03 8.748997235319999621e-01
0.000000000000000000e+00 3.868799999999999822e-04 3.750705671492370996e+00
0.000000000000000000e+00 6.025829999999999598e-04 3.286738634530082415e+00
2.187499999999999861e-02 4.691759999999999681e-02 4.290726464621989145e+00
3.125000000000000000e-02 9.584789999999999976e-02 1.799121098959577392e+00
0.000000000000000000e+00 2.285060000000000108e-05 2.283495920188703288e+00
0.000000000000000000e+00 2.307809999999999847e-05 4.593490206510258966e-01
0.000000000000000000e+00 1.072059999999999897e-03 2.368461281962521703e+00
0.000000000000000000e+00 2.988030000000000026e-03 3.585325836369013697e+00
9.374999999999999653e-03 1.124219999999999994e-03 3.162164491058895521e+00
1.874999999999999931e-02 1.692989999999999903e-03 4.415048292860314305e+00
4.687500000000000000e-02 2.360620000000000079e-02 2.700049977468844009e+00
1.562500000000000000e-02 1.904190000000000049e-03 2.755423528207151529e-01
6.250000000000000347e-03 2.224059999999999926e-03 4.190554204102315161e+00
2.500000000000000139e-02 4.319869999999999960e-03 2.553294496916317158e+00
0.000000000000000000e+00 1.058300000000000083e-03 4.731604635009886373e+00
0.000000000000000000e+00 3.970560000000000148e-04 1.662238033866341613e+00
2.812500000000000069e-02 5.799099999999999741e-03 4.515823458118207512e+00
0.000000000000000000e+00 1.701759999999999916e-04 4.451883343440740326e+00
0.000000000000000000e+00 3.897600000000000088e-04 1.752494107125388556e+00
6.250000000000000347e-03 1.002230000000000065e-01 2.808730965246061473e+00
0.000000000000000000e+00 6.938320000000000208e-04 3.074522639273613578e+00
0.000000000000000000e+00 4.252130000000000232e-04 1.800530645422299125e+00
6.875000000000000555e-02 3.662909999999999777e-02 4.408636685520788134e+00
0.000000000000000000e+00 1.172529999999999926e-02 3.743618586916653612e+00
0.000000000000000000e+00 1.391300000000000045e-03 3.728413165683340136e+00
0.000000000000000000e+00 4.812160000000000222e-04 1.314911929430364612e+00
0.000000000000000000e+00 6.226540000000000460e-04 1.857158630082416551e+00
3.125000000000000173e-03 9.562270000000000492e-02 2.281560286747459809e+00
0.000000000000000000e+00 1.841409999999999922e-03 4.068452591996512879e+00
2.812500000000000069e-02 1.204420000000000100e-03 3.799673980888562674e-01
0.000000000000000000e+00 1.510779999999999979e-03 9.948931236082836360e-01
9.374999999999999653e-03 5.216900000000000009e-03 4.524317517436149849e+00
6.250000000000000347e-03 1.934270000000000087e-03 2.139559222458196519e+00
0.000000000000000000e+00 1.145860000000000064e-03 3.688514097695028582e+00
2.500000000000000139e-02 4.332800000000000366e-03 2.642734588077846336e+00
0.000000000000000000e+00 1.008819999999999899e-03 3.878226338150314589e-01
0.000000000000000000e+00 6.168319999999999923e-04 3.636476976861588550e+00
0.000000000000000000e+00 1.334829999999999958e-03 3.777136153674115704e+00
0.000000000000000000e+00 1.209280000000000077e-03 1.347104567607686931e+00
0.000000000000000000e+00 1.076469999999999944e-03 1.480132144164555408e+00
0.000000000000000000e+00 3.913340000000000395e-03 4.886845846210067457e+00
1.874999999999999931e-02 1.754850000000000160e-02 4.797711806375949628e+00
9.374999999999999653e-03 2.725179999999999790e-03 2.173001809523837480e+00
0.000000000000000000e+00 4.273929999999999787e-04 3.552788402254069666e+00
1.874999999999999931e-02 2.275709999999999799e-03 4.932901796327141319e+00
0.000000000000000000e+00 1.901430000000000134e-02 2.592432672713462338e+00
0.000000000000000000e+00 9.509120000000000463e-04 2.916500833887060828e+00
0.000000000000000000e+00 8.094079999999999591e-04 2.351912171820861097e+00
0.000000000000000000e+00 4.063149999999999748e-03 3.850604601976021613e+00
0.000000000000000000e+00 1.764100000000000000e-03 1.728006691076089396e-01
9.374999999999999653e-03 2.966020000000000201e-03 4.101791906865744686e+00
0.000000000000000000e+00 1.264509999999999940e-03 1.902680619142902874e+00
0.000000000000000000e+00 1.067489999999999932e-03 2.414844783042014331e+00
1.250000000000000069e-02 2.781249999999999868e-03 2.348092780161582738e+00
0.000000000000000000e+00 1.590660000000000034e-03 4.598640401015718027e+00
6.250000000000000347e-03 9.557219999999999605e-02 2.279058533262707353e+00
9.374999999999999653e-03 1.006650000000000045e-01 7.330454656196477847e-01
3.125000000000000173e-03 1.473090000000000033e-03 2.647452654458579691e+00
3.125000000000000173e-03 6.967100000000000376e-03 4.427284195282268797e+00
1.874999999999999931e-02 1.760899999999999922e-03 1.746646390351058731e-01
2.812500000000000069e-02 3.059899999999999946e-03 2.310386163241033408e+00
6.250000000000000347e-03 1.240379999999999911e-03 4.613014192718328799e-01
2.500000000000000139e-02 3.513019999999999945e-03 1.102424365675848117e+00
3.125000000000000173e-03 1.031699999999999978e-02 3.014058067967559040e+00
9.374999999999999653e-03 1.376449999999999983e-03 4.312300735466426005e+00
0.000000000000000000e+00 7.292299999999999824e-04 4.624597512139144051e+00
0.000000000000000000e+00 4.116820000000000201e-04 3.365222059409979760e+00
0.000000000000000000e+00 0.000000000000000000e+00 4.742810209658653520e+00
1.874999999999999931e-02 9.651319999999999344e-02 1.735986832854534256e+00
0.000000000000000000e+00 1.213380000000000014e-03 2.460432429238927465e+00
3.125000000000000173e-03 3.560579999999999821e-03 1.212470225680160052e+00
1.874999999999999931e-02 6.884419999999999602e-03 8.741187217335033566e-01
3.125000000000000173e-03 4.220989999999999985e-03 5.314332690158379835e-01
3.125000000000000173e-03 8.388610000000000511e-02 3.583075474576247199e+00
0.000000000000000000e+00 1.245819999999999914e-03 3.170094141714612235e+00
0.000000000000000000e+00 2.118909999999999891e-03 2.560386257989599734e-01
0.000000000000000000e+00 2.047300000000000161e-03 2.262060060995231936e+00
0.000000000000000000e+00 4.243790000000000106e-04 3.798689681791483252e+00
0.000000000000000000e+00 1.500450000000000048e-02 2.717159704778687068e+00
3.125000000000000173e-03 2.513410000000000210e-03 1.683558247359191462e+00
0.000000000000000000e+00 4.023330000000000309e-03 2.705694160485183630e-01
0.000000000000000000e+00 9.059839999999999777e-04 3.113334145992814328e+00
9.374999999999999653e-03 9.168700000000000461e-02 1.433490437572490617e+00
6.250000000000000347e-03 1.893120000000000089e-03 2.074317041631035252e+00
0.000000000000000000e+00 1.136000000000000074e-03 4.845108293130040433e-01
0.000000000000000000e+00 1.129470000000000040e-03 9.863505484380685751e-01
2.812500000000000069e-02 2.503679999999999881e-03 2.046817311246206472e+00
3.125000000000000173e-03 2.036350000000000139e-03 2.538891504422186696e+00
2.500000000000000139e-02 1.774849999999999909e-03 3.462613307051457312e+00
0.000000000000000000e+00 1.080769999999999995e-03 4.455519069219676664e-01
0.000000000000000000e+00 1.821570000000000003e-03 1.445052223804776492e+00
1.874999999999999931e-02 3.331329999999999968e-03 2.315800284243845653e+00
0.000000000000000000e+00 1.205759999999999948e-03 3.652542156117202232e+00
5.625000000000000139e-02 8.965759999999999702e-03 4.655817630473931601e+00
6.250000000000000347e-03 1.557309999999999901e-03 1.072987773075595896e+00
0.000000000000000000e+00 3.567999999999999991e-04 3.131879852124034080e+00
0.000000000000000000e+00 3.709540000000000060e-02 1.891489654009179233e+00
6.250000000000000347e-03 9.725899999999999823e-02 1.632751069397487154e+00
0.000000000000000000e+00 3.759999999999999779e-04 7.369688891799902608e-01
9.374999999999999653e-03 9.920899999999999858e-03 5.623585765149607951e-01
9.374999999999999653e-03 9.233180000000000553e-02 2.156839982188832217e+00
2.187499999999999861e-02 4.495490000000000423e-03 3.794022879579497687e+00
3.125000000000000173e-03 9.078400000000000358e-04 4.913977876242975107e+00
0.000000000000000000e+00 3.182519999999999880e-04 3.680311826188138014e+00
1.562500000000000000e-02 1.340429999999999920e-02 3.652927399629406935e+00
0.000000000000000000e+00 3.068930000000000095e-03 4.289610894260684759e+00
0.000000000000000000e+00 1.829650000000000026e-02 3.960816187182883308e+00
0.000000000000000000e+00 3.112960000000000033e-02 7.225119937028429140e-01
0.000000000000000000e+00 9.821439999999998990e-04 4.096969023576796154e+00
3.125000000000000173e-03 4.972159999999999774e-03 7.983508187640236953e-01
0.000000000000000000e+00 2.125569999999999803e-03 2.562856434341440615e+00
3.125000000000000173e-03 4.195320000000000299e-02 1.444060831702614900e+00
1.562500000000000000e-02 3.266820000000000140e-03 9.151300058727274145e-01
6.250000000000000347e-03 9.691959999999999464e-02 4.288885124154225181e+00
0.000000000000000000e+00 4.949699999999999586e-03 3.233724817072583413e+00
0.000000000000000000e+00 1.149760000000000105e-03 2.250799264800076749e+00
1.250000000000000069e-02 9.637690000000000146e-02 4.981940051694885518e+00
0.000000000000000000e+00 7.075550000000000112e-04 3.040326719454168547e+00
3.125000000000000173e-03 4.290880000000000388e-03 1.238581091881595375e+00
3.437500000000000278e-02 2.348070000000000018e-02 4.451216403568277968e+00
3.125000000000000173e-03 1.052690000000000015e-01 4.608906823636127470e-02
0.000000000000000000e+00 1.711229999999999999e-03 1.541765165801933790e-01
3.125000000000000173e-03 1.797719999999999874e-02 4.735443304978337764e+00
2.187499999999999861e-02 2.984189999999999846e-03 1.430143184501157627e+00
0.000000000000000000e+00 1.090110000000000037e-03 3.762514201654893142e+00
0.000000000000000000e+00 1.143039999999999898e-03 1.793177303808024092e+00
1.874999999999999931e-02 1.490369999999999976e-03 8.925749519006753729e-01
1.874999999999999931e-02 1.886080000000000048e-03 3.231725824362827293e+00
5.625000000000000139e-02 9.219009999999999705e-03 1.525465859142354663e+00
0.000000000000000000e+00 1.142589999999999969e-03 3.143888750185810377e+00
0.000000000000000000e+00 2.428410000000000204e-03 2.448368740072902838e+00
3.125000000000000173e-03 4.267199999999999639e-03 1.686417242541562445e+00
0.000000000000000000e+00 4.459829999999999697e-03 3.347746672696958026e+00
0.000000000000000000e+00 3.741759999999999791e-03 1.011968868358121831e+00
0.000000000000000000e+00 1.685240000000000148e-05 4.922379836465297309e+00
1.874999999999999931e-02 9.445879999999999554e-02 3.562825039705073138e+00
0.000000000000000000e+00 2.572489999999999846e-02 1.836042226284039902e+00
0.000000000000000000e+00 4.599040000000000203e-04 5.054039984761438120e-01
0.000000000000000000e+00 1.156539999999999955e-03 1.080039271375677901e+00
0.000000000000000000e+00 0.000000000000000000e+00 8.591357006829059006e-02
1.562500000000000000e-02 2.029309999999999881e-03 2.270135613653077034e+00
0.000000000000000000e+00 5.694769999999999688e-05 4.716045503650272863e+00
0.000000000000000000e+00 2.075710000000000142e-03 4.879705986459019762e+00
0.000000000000000000e+00 5.115249999999999788e-04 2.610271019646923207e+00
0.000000000000000000e+00 1.112769999999999905e-03 3.335534834792823311e+00
9.374999999999999653e-03 1.073790000000000031e-03 1.895170981216846684e+00
3.125000000000000000e-02 1.052400000000000002e-01 1.632766405936059595e+00
9.374999999999999653e-03 4.383900000000000297e-02 1.147484988404963158e+00
6.250000000000000347e-03 1.661520000000000011e-02 8.082957068642931953e-01
3.125000000000000173e-03 4.931839999999999835e-03 3.418817777433749594e+00
3.125000000000000173e-03 1.375169999999999995e-03 1.773420047635821284e+00
0.000000000000000000e+00 2.294589999999999998e-05 2.547080569262540894e+00
0.000000000000000000e+00 1.130560000000000072e-03 4.773897559084464781e+00
0.000000000000000000e+00 1.182660000000000091e-03 4.501617404925419841e+00
0.000000000000000000e+00 5.129279999999999951e-03 4.308539751598543077e+00
0.000000000000000000e+00 2.052360000000000116e-05 4.537675491466918842e+00
6.250000000000000347e-03 1.131949999999999970e-02 2.341956963075648268e+00
3.125000000000000173e-03 7.650559999999999609e-04 1.037407860303515950e+00
2.500000000000000139e-02 3.339780000000000092e-03 2.153351221287547190e-01
3.125000000000000173e-03 4.369599999999999873e-02 1.334569402604526722e+00
0.000000000000000000e+00 6.218880000000000198e-04 2.001160128918390235e+00
3.125000000000000173e-03 4.478720000000000270e-03 1.744335100731690513e+00
0.000000000000000000e+00 0.000000000000000000e+00 1.912315343447123617e+00
1.562500000000000000e-02 1.326719999999999983e-03 2.162127675503944246e-01
