0.000000000000000000e+00 6.856830000000000390e-03 2.089555876715991634e+00
0.000000000000000000e+00 3.891750000000000135e-04 2.883373004477587820e+00
9.062499999999999722e-02 4.286330000000000001e-02 4.748454816454708904e+00
0.000000000000000000e+00 1.098269999999999932e-03 3.053157213970930428e+00
0.000000000000000000e+00 1.126719999999999892e-03 4.766325055708253267e+00
0.000000000000000000e+00 6.729919999999999696e-04 4.393025647080665230e+00
0.000000000000000000e+00 1.067870000000000060e-03 3.792664897313946515e-02
3.125000000000000173e-03 9.777279999999999738e-04 3.044400949333935458e+00
3.125000000000000173e-03 3.876410000000000272e-02 2.561234539441701763e+00
0.000000000000000000e+00 1.432759999999999867e-01 3.311791519355964386e+00
3.125000000000000173e-03 7.394559999999999892e-04 1.145909469971214012e+00
0.000000000000000000e+00 1.148539999999999978e-03 1.649206543440961958e-01
0.000000000000000000e+00 9.350400000000000465e-04 2.145502711589375888e+00
0.000000000000000000e+00 9.650820000000000275e-04 3.438835225770105808e+00
3.125000000000000173e-03 4.464899999999999945e-03 8.266576314285906113e-01
6.250000000000000347e-03 9.631399999999999684e-02 1.467947308373310777e+00
1.250000000000000069e-02 4.022269999999999665e-03 3.766600064496933964e+00
0.000000000000000000e+00 4.471229999999999649e-03 3.371853587873446578e+00
0.000000000000000000e+00 1.124100000000000056e-03 5.566684799406429462e-01
3.125000000000000173e-03 8.781439999999999732e-04 8.776776706996619604e-01
1.250000000000000069e-02 3.037499999999999836e-03 3.022129290034861526e+00
3.125000000000000173e-03 9.597859999999999725e-02 1.258445699744637380e+00
2.187499999999999861e-02 2.232829999999999884e-03 2.363972726725533935e+00
0.000000000000000000e+00 1.577860000000000026e-02 1.718299890097978899e+00
0.000000000000000000e+00 6.469890000000000363e-02 1.211022422279741662e+00
0.000000000000000000e+00 4.000639999999999969e-04 5.772760056832726416e-01
0.000000000000000000e+00 2.511129999999999873e-03 3.910004498996777045e+00
0.000000000000000000e+00 5.633279999999999841e-04 1.348351219112617461e+00
0.000000000000000000e+00 7.308969999999999920e-04 1.906460026821784615e+00
0.000000000000000000e+00 5.872450000000000413e-03 4.373206057637043287e+00
0.000000000000000000e+00 4.329080000000000233e-04 4.778334740659603952e+00
3.125000000000000173e-03 1.749700000000000083e-03 1.838799331574430429e+00
3.125000000000000173e-03 6.599680000000000346e-04 4.419446562135254108e-01
0.000000000000000000e+00 5.641469999999999992e-03 4.863400741576865194e+00
0.000000000000000000e+00 6.468290000000000237e-04 3.650668129022326625e+00
2.812500000000000069e-02 4.040379999999999666e-03 3.330222016249640760e+00
6.250000000000000347e-03 1.991549999999999918e-03 4.234099173566176155e+00
9.374999999999999653e-03 9.651360000000000494e-02 1.140152403538857051e+00
0.000000000000000000e+00 9.942589999999999414e-04 1.499396357014832315e+00
0.000000000000000000e+00 2.290659999999999851e-05 1.496527315122662127e+00
2.187499999999999861e-02 1.546180000000000080e-03 1.092382383719011640e+00
2.187499999999999861e-02 2.910659999999999810e-03 1.995858970904085261e+00
3.125000000000000173e-03 1.578879999999999954e-03 4.139164837873055447e+00
0.000000000000000000e+00 2.978179999999999977e-03 1.754599335624538181e+00
1.562500000000000000e-02 2.469630000000000002e-03 4.476002873200988219e+00
0.000000000000000000e+00 9.266059999999999575e-04 1.480414314464464365e+00
0.000000000000000000e+00 4.216700000000000309e-03 2.586453314464979059e+00
3.125000000000000173e-03 1.282240000000000029e-03 1.179971756449039733e+00
1.874999999999999931e-02 6.748989999999999850e-03 2.112226361601825086e+00
0.000000000000000000e+00 3.927679999999999908e-04 3.091704475134277708e+00
0.000000000000000000e+00 4.582659999999999685e-03 1.049571123320662380e+00
3.125000000000000173e-03 1.681599999999999892e-03 1.574324190784462951e+00
0.000000000000000000e+00 6.173630000000000263e-03 3.227213291434981812e+00
0.000000000000000000e+00 1.054980000000000067e-03 2.955408993564494935e+00
0.000000000000000000e+00 2.874880000000000230e-04 4.677012720358524334e+00
3.125000000000000173e-03 7.935530000000000361e-02 2.401090808063512938e+00
3.125000000000000173e-03 5.253700000000000037e-03 2.131710303273300688e+00
0.000000000000000000e+00 3.542279999999999973e-04 1.060586812101873111e+00
0.000000000000000000e+00 6.495360000000000369e-04 4.559676320173256414e+00
2.187499999999999861e-02 5.360900000000000040e-03 2.040975959645377369e+00
0.000000000000000000e+00 1.189570000000000037e-03 1.198122656209524184e+00
0.000000000000000000e+00 1.076920000000000091e-03 3.303682458043603720e+00
0.000000000000000000e+00 5.794329999999999663e-04 4.176583912510022145e+00
2.187499999999999861e-02 3.056699999999999869e-03 4.986298522614392326e+00
0.000000000000000000e+00 5.026559999999999796e-04 4.736147907218970943e+00
0.000000000000000000e+00 1.095059999999999914e-03 3.267799333733090172e-01
0.000000000000000000e+00 7.350009999999999920e-04 3.110174281388829343e+00
0.000000000000000000e+00 1.101820000000000100e-03 1.583213691540606316e+00
0.000000000000000000e+00 6.043519999999999491e-04 3.092566297102524064e+00
0.000000000000000000e+00 3.915519999999999808e-04 4.422366129324084127e+00
0.000000000000000000e+00 1.586879999999999931e-03 2.558393975351337168e+00
3.125000000000000173e-03 1.011269999999999947e-01 1.820535168111570457e+00
0.000000000000000000e+00 8.572799999999999778e-04 2.884861922070601103e+00
0.000000000000000000e+00 1.473600000000000040e-03 2.535007563650981677e-01
0.000000000000000000e+00 2.387199999999999912e-04 1.994561844395581485e+00
0.000000000000000000e+00 3.021570000000000007e-04 6.735545256131714176e-01
0.000000000000000000e+00 4.883760000000000011e-04 3.236877818499837023e+00
0.000000000000000000e+00 1.705840000000000134e-02 4.557243155485152242e-01
5.937499999999999722e-02 3.879280000000000228e-02 3.681696828992164328e+00
0.000000000000000000e+00 1.245540000000000015e-02 4.156550885198878609e-01
3.125000000000000173e-03 2.502079999999999842e-03 4.939180823268332965e+00
0.000000000000000000e+00 4.402819999999999998e-03 3.036089934382521616e+00
0.000000000000000000e+00 9.425920000000000175e-04 3.260546980484097634e+00
2.187499999999999861e-02 6.593540000000000165e-03 2.627860253233849086e+00
0.000000000000000000e+00 2.691260000000000006e-03 3.119770551873512598e+00
0.000000000000000000e+00 3.493120000000000057e-04 3.571958273923809823e+00
0.000000000000000000e+00 9.601920000000000116e-04 4.688114545458929250e+00
1.874999999999999931e-02 2.140609999999999822e-03 1.528484556165895514e+00
0.000000000000000000e+00 3.394230000000000164e-02 4.772175775343295845e-01
1.250000000000000069e-02 2.513220000000000037e-03 1.096927108719772281e+00
3.125000000000000173e-03 6.608640000000000478e-04 1.747519347293591263e+00
0.000000000000000000e+00 4.003919999999999702e-02 1.006597996346175750e+00
3.437500000000000278e-02 9.185580000000000134e-02 1.167414988101626694e+00
0.000000000000000000e+00 6.631039999999999721e-04 1.885066699597168771e+00
2.500000000000000139e-02 6.374140000000000361e-02 4.951315657671929493e+00
0.000000000000000000e+00 1.371519999999999987e-03 3.711593552651011318e+00
3.437500000000000278e-02 9.370090000000000363e-02 2.107529480291623791e+00
1.250000000000000069e-02 3.080110000000000139e-02 3.270054462469842438e+00
0.000000000000000000e+00 1.218389999999999924e-02 4.791914212010994767e+00
0.000000000000000000e+00 7.385280000000000143e-04 1.032992930533674913e+00
3.125000000000000173e-03 9.424290000000000445e-02 2.313671332199021435e+00
0.000000000000000000e+00 6.295040000000000227e-04 9.833480587990722777e-01
0.000000000000000000e+00 9.586560000000000047e-04 2.034027917326392654e+00
3.125000000000000173e-03 1.812349999999999899e-03 2.457199407902451505e+00
0.000000000000000000e+00 4.560380000000000163e-03 4.093014498373193089e-01
0.000000000000000000e+00 4.677760000000000425e-03 8.813645363466454663e-01
0.000000000000000000e+00 7.304479999999999697e-04 2.626610020624236874e+00
0.000000000000000000e+00 8.628480000000000438e-04 2.114305291477571291e+00
0.000000000000000000e+00 2.641469999999999929e-03 2.099842039625064327e+00
6.875000000000000555e-02 9.334180000000000255e-02 4.602813208876385787e+00
3.125000000000000173e-03 1.752639999999999970e-03 2.157523573090697866e+00
0.000000000000000000e+00 1.744059999999999968e-03 3.808057443834089728e-01
0.000000000000000000e+00 1.491690000000000030e-02 3.170565632995363536e+00
1.874999999999999931e-02 2.048130000000000003e-03 3.388967536674605263e+00
0.000000000000000000e+00 4.214290000000000202e-04 2.695889141734821415e+00
1.562500000000000000e-02 1.976320000000000160e-03 4.548924260974095191e+00
3.125000000000000173e-03 1.248189999999999933e-03 1.503342907595728306e+00
3.437500000000000278e-02 7.833599999999999591e-03 3.064339027084765466e+00
2.812500000000000069e-02 2.674300000000000115e-03 2.199703252892807548e+00
0.000000000000000000e+00 2.428800000000000056e-04 7.540218473816356903e-01
0.000000000000000000e+00 2.029439999999999868e-04 4.547618096398510446e+00
0.000000000000000000e+00 4.703040000000000345e-03 4.772943555196162979e-01
5.625000000000000139e-02 3.056990000000000055e-02 4.364399219992287193e+00
0.000000000000000000e+00 2.290580000000000014e-05 2.171460676277787272e+00
0.000000000000000000e+00 9.111679999999999606e-04 4.120242023608737369e+00
2.187499999999999861e-02 1.901439999999999901e-03 1.461865254576196760e+00
6.250000000000000347e-03 1.167720000000000043e-02 2.984469770932097532e+00
3.125000000000000173e-03 5.306820000000000287e-03 9.981626211142424765e-01
0.000000000000000000e+00 1.478139999999999966e-03 4.379223325378259979e+00
1.562500000000000000e-02 9.221609999999999530e-02 3.653924359997410942e+00
3.125000000000000173e-03 5.155970000000000171e-03 4.091257856937036141e-01
1.562500000000000000e-02 2.516579999999999859e-02 9.244687893703401604e-01
0.000000000000000000e+00 1.201339999999999960e-03 3.142476806053069893e+00
0.000000000000000000e+00 1.424190000000000091e-03 3.122194903365394403e+00
1.874999999999999931e-02 1.795780000000000076e-03 1.880126203282021624e+00
0.000000000000000000e+00 5.025280000000000242e-04 1.728868430805022838e+00
0.000000000000000000e+00 1.672960000000000029e-03 1.607102298708913413e+00
2.500000000000000139e-02 3.290050000000000092e-03 7.765426854348828067e-01
0.000000000000000000e+00 7.387840000000000336e-04 4.435193657598590633e-01
0.000000000000000000e+00 1.758080000000000081e-04 2.601132420362929132e+00
3.125000000000000173e-03 8.654950000000000143e-02 4.752561311019826151e-01
3.125000000000000173e-03 1.014309999999999934e-01 1.790059021305119735e+00
6.250000000000000347e-03 1.057480000000000052e-02 3.627061681325188580e+00
6.250000000000000347e-03 1.435139999999999897e-03 9.204712816347543347e-01
0.000000000000000000e+00 6.149760000000000426e-04 1.023731780411905046e+00
0.000000000000000000e+00 1.040960000000000062e-03 4.599291071785419405e+00
0.000000000000000000e+00 4.150809999999999786e-04 1.374659294900191675e+00
4.687500000000000000e-02 4.149529999999999885e-02 3.820240456501474036e+00
0.000000000000000000e+00 4.163640000000000136e-04 1.541087549662081280e+00
3.125000000000000173e-03 1.837890000000000010e-03 3.744245134662088637e-01
0.000000000000000000e+00 4.153380000000000136e-04 7.979649884285650030e-01
0.000000000000000000e+00 1.863169999999999930e-03 2.593283390357119966e+00
2.500000000000000139e-02 2.332419999999999979e-03 1.351539871093996314e+00
2.187499999999999861e-02 1.390839999999999958e-02 1.697239740501617078e+00
3.125000000000000173e-03 3.205249999999999766e-02 3.257077813153959944e+00
0.000000000000000000e+00 1.538560000000000123e-04 1.432292931465549035e+00
0.000000000000000000e+00 5.523069999999999716e-03 1.099099665068720144e+00
0.000000000000000000e+00 1.695359999999999977e-04 1.327770105200859474e+00
0.000000000000000000e+00 9.866880000000001049e-04 2.867723470323994661e+00
0.000000000000000000e+00 1.193730000000000051e-03 3.793703200546334919e+00
0.000000000000000000e+00 1.232290000000000035e-03 4.068785380809479157e+00
9.374999999999999653e-03 3.675840000000000097e-03 4.187444306655221382e+00
0.000000000000000000e+00 1.481599999999999909e-04 2.814859589009735430e+00
5.312499999999999861e-02 9.306910000000000183e-02 2.973497050644557937e-01
2.500000000000000139e-02 2.711739999999999810e-03 2.442314608767308659e+00
2.500000000000000139e-02 2.476030000000000158e-03 1.100078135391577394e+00
0.000000000000000000e+00 1.840640000000000050e-04 3.359639782458312851e+00
0.000000000000000000e+00 3.581389999999999942e-04 3.452346231545307287e+00
3.125000000000000173e-03 6.525119999999999705e-03 3.238585372738751467e+00
0.000000000000000000e+00 3.505080000000000261e-04 7.019505114369661847e-02
0.000000000000000000e+00 9.251840000000000107e-04 2.200076577563355062e+00
6.875000000000000555e-02 3.243660000000000293e-02 1.099321594884575815e+00
2.812500000000000069e-02 2.119549999999999993e-03 3.000949774339259246e+00
0.000000000000000000e+00 2.309800000000000145e-05 4.497339032507178480e+00
9.374999999999999653e-03 9.224609999999999754e-02 1.191821994082467029e+00
0.000000000000000000e+00 9.735040000000000360e-04 3.546814365074585362e-01
0.000000000000000000e+00 2.277589999999999991e-05 2.295497266810076376e+00
0.000000000000000000e+00 7.372159999999999564e-04 1.837379571618810159e+00
0.000000000000000000e+00 4.716670000000000064e-03 1.316665181587918898e+00
6.250000000000000347e-03 2.475709999999999890e-03 4.501871219860126283e-01
9.374999999999999653e-03 5.881090000000000276e-03 2.580565038696194691e+00
8.437500000000000555e-02 9.353930000000000577e-02 4.589448151053288960e+00
1.562500000000000000e-02 2.659900000000000198e-03 3.132634051507082740e-01
0.000000000000000000e+00 1.163490000000000010e-02 4.577924156851561399e+00
0.000000000000000000e+00 1.673280000000000080e-03 4.383546785845950922e+00
4.062500000000000139e-02 9.258370000000000488e-02 3.571724992650735508e+00
3.125000000000000173e-03 1.378610000000000078e-02 1.398933132390479672e+00
0.000000000000000000e+00 9.669989999999999836e-03 4.567471643800832481e+00
0.000000000000000000e+00 6.523369999999999690e-03 3.998343728210526749e+00
0.000000000000000000e+00 1.343039999999999989e-03 2.758676710440455260e+00
0.000000000000000000e+00 1.068860000000000036e-03 4.700055815552726557e+00
0.000000000000000000e+00 6.511890000000000430e-04 4.686750666851932756e+00
0.000000000000000000e+00 5.796159999999999854e-03 2.363194181969172192e+00
1.562500000000000000e-02 2.452100000000000026e-03 2.090136989087809649e-01
0.000000000000000000e+00 3.731429999999999881e-04 5.133460797443600843e-01
9.374999999999999653e-03 9.827410000000000312e-02 7.058434690365117392e-01
0.000000000000000000e+00 1.744840000000000052e-04 2.260076883920242308e-01
6.250000000000000347e-03 9.453569999999999682e-03 4.527230456478880782e+00
1.562500000000000000e-02 1.821179999999999934e-03 2.587303465199097374e+00
1.874999999999999931e-02 1.760770000000000043e-03 2.222426407051020014e+00
0.000000000000000000e+00 1.844029999999999975e-03 1.455899688925870183e+00
0.000000000000000000e+00 1.181439999999999964e-03 3.284668094587225973e+00
6.875000000000000555e-02 9.377539999999999487e-02 6.402952464198852223e-01
3.125000000000000000e-02 9.154829999999999912e-02 4.057410603669467264e+00
3.125000000000000000e-02 9.661710000000000437e-03 1.883867568577461959e+00
6.250000000000000347e-03 9.484990000000000088e-02 4.689670415847558615e+00
6.250000000000000347e-03 6.120259999999999763e-03 7.417547616383024511e-01
6.250000000000000347e-03 2.568190000000000143e-03 3.491470177809674613e-01
6.250000000000000347e-03 9.907370000000000065e-02 3.205916757506166448e-01
2.187499999999999861e-02 9.587410000000000376e-02 4.846354033020682017e+00
0.000000000000000000e+00 1.783550000000000066e-03 2.542894473673510625e+00
0.000000000000000000e+00 1.013180000000000027e-03 4.018854091300092968e+00
2.500000000000000139e-02 2.480580000000000025e-03 3.241742113466000719e-01
1.125000000000000028e-01 7.907430000000000014e-02 5.191431102964216837e-02
1.562500000000000000e-02 1.937660000000000077e-02 1.571186153877877523e+00
0.000000000000000000e+00 4.096060000000000326e-03 1.515221258723971509e+00
3.125000000000000173e-03 4.915199999999999778e-03 1.309860277996699907e+00
0.000000000000000000e+00 3.915470000000000105e-04 3.780591040106904277e+00
6.250000000000000347e-03 1.804419999999999939e-03 2.771730081409753854e+00
1.874999999999999931e-02 1.551810000000000038e-03 4.294959552106762501e+00
0.000000000000000000e+00 3.566719999999999895e-04 1.832873958942355941e+00
0.000000000000000000e+00 4.369149999999999597e-03 1.863592214954490345e-01
2.500000000000000139e-02 9.526140000000000649e-03 4.790636350141339150e+00
0.000000000000000000e+00 1.053510000000000002e-01 2.903736611927580036e+00
0.000000000000000000e+00 9.256960000000000492e-04 4.352627173259008053e+00
0.000000000000000000e+00 1.507009999999999947e-02 1.032808958425895263e+00
0.000000000000000000e+00 1.039659999999999977e-03 4.847110909279889190e-01
0.000000000000000000e+00 2.287060000000000088e-05 1.482718622828119059e+00
0.000000000000000000e+00 7.983999999999999994e-04 1.728729936054729244e+00
0.000000000000000000e+00 3.597729999999999938e-03 1.169938506834394820e+00
0.000000000000000000e+00 9.089919999999999597e-04 4.101420478360444655e+00
0.000000000000000000e+00 4.986360000000000011e-04 3.781543070968048426e+00
6.250000000000000347e-03 2.040059999999999790e-03 1.261568053881055196e+00
3.125000000000000173e-03 9.577650000000000052e-03 7.370633657704594999e-01
3.125000000000000173e-03 4.067069999999999887e-03 1.314554364401084197e+00
0.000000000000000000e+00 1.811010000000000050e-03 2.819876010519145604e-01
0.000000000000000000e+00 5.127040000000000026e-04 3.967732179702227135e+00
9.374999999999999653e-03 6.868120000000000128e-03 3.766558162330410298e+00
1.874999999999999931e-02 1.773700000000000016e-03 3.137663345593024289e+00
3.125000000000000173e-03 1.941820000000000004e-02 1.051772948249466433e+00
1.250000000000000069e-02 3.122240000000000085e-03 3.957568143526875026e+00
0.000000000000000000e+00 4.273920000000000171e-04 3.239363936695067725e+00
1.874999999999999931e-02 2.963139999999999958e-03 1.799584493389336792e+00
0.000000000000000000e+00 8.693120000000000144e-04 2.806466748733326355e+00
0.000000000000000000e+00 3.058560000000000207e-04 3.444675137702819079e+00
6.875000000000000555e-02 9.186360000000000359e-02 3.272926760884491859e+00
2.187499999999999861e-02 1.856510000000000018e-03 1.261442090351656553e+00
0.000000000000000000e+00 3.799410000000000135e-04 3.005526393909756067e+00
0.000000000000000000e+00 1.655679999999999977e-04 1.164974714184067173e+00
2.812500000000000069e-02 2.649219999999999874e-03 4.951433780365743331e+00
1.874999999999999931e-02 2.587840000000000105e-03 1.383334660158320739e+00
4.374999999999999722e-02 1.000759999999999983e-01 2.628816900731405948e+00
0.000000000000000000e+00 1.108739999999999986e-03 1.258465616365835427e+00
2.812500000000000069e-02 9.343600000000000516e-02 8.725860075088198720e-01
3.125000000000000173e-03 1.826109999999999929e-03 1.701799841040578354e+00
0.000000000000000000e+00 1.384449999999999960e-03 2.439575163346296094e+00
0.000000000000000000e+00 1.996639999999999911e-05 3.686735539585698440e+00
3.125000000000000173e-03 2.100859999999999967e-03 2.260505627458350375e+00
3.125000000000000173e-03 6.813439999999999601e-04 2.072432303806831522e-01
2.187499999999999861e-02 1.689369999999999934e-03 4.947084019518955600e+00
2.500000000000000139e-02 2.132890000000000064e-01 4.911703168816279330e+00
0.000000000000000000e+00 3.226239999999999794e-04 3.523420532685991091e+00
0.000000000000000000e+00 1.075839999999999999e-03 4.989034599818364057e+00
0.000000000000000000e+00 1.060739999999999903e-03 2.784217881843302322e+00
1.874999999999999931e-02 1.062109999999999999e-01 4.159117551637048216e-01
0.000000000000000000e+00 1.616320000000000083e-03 1.815057342901725823e+00
3.125000000000000173e-03 8.394239999999999645e-04 2.350278655847715559e+00
0.000000000000000000e+00 2.309999999999999906e-05 4.387067066066210330e+00
1.874999999999999931e-02 2.840259999999999833e-03 2.561531335544815491e+00
1.874999999999999931e-02 2.534339999999999943e-03 6.028627206989878307e-01
1.250000000000000069e-02 2.494660000000000107e-03 4.326213279264860212e+00
1.562500000000000000e-02 9.520059999999999634e-02 3.489315142377433787e+00
0.000000000000000000e+00 1.064319999999999893e-03 2.370202092507657898e+00
6.250000000000000347e-03 1.721560000000000017e-03 3.419036844378166684e+00
3.125000000000000173e-03 3.204049999999999954e-02 1.890624371025378947e+00
0.000000000000000000e+00 4.847210000000000234e-04 8.388099724819730874e-01
0.000000000000000000e+00 4.955069999999999787e-03 4.396506092695823265e-01
1.250000000000000069e-02 2.369659999999999996e-03 2.389228720763406422e+00
3.125000000000000173e-03 3.791839999999999881e-03 3.969851248126939236e+00
0.000000000000000000e+00 1.188610000000000100e-03 1.483450129215303503e+00
1.562500000000000000e-02 2.089730000000000146e-03 1.116716993588477536e+00
0.000000000000000000e+00 4.255330000000000202e-04 3.195996914502126085e+00
0.000000000000000000e+00 2.294040000000000147e-05 1.970986739559690726e+00
2.500000000000000139e-02 9.121849999999999403e-02 3.972115549337922324e+00
3.125000000000000173e-03 4.951810000000000066e-03 9.513007261444356155e-01
1.562500000000000000e-02 2.089220000000000139e-03 6.996534498690581971e-01
1.250000000000000069e-02 6.712639999999999753e-03 1.050368162370763248e+00
0.000000000000000000e+00 6.322559999999999856e-04 3.437778600192475054e+00
3.125000000000000173e-03 5.951360000000000157e-04 8.458380805260207191e-01
1.562500000000000000e-02 7.936880000000000324e-03 5.552430755026444009e-01
0.000000000000000000e+00 1.889279999999999909e-04 2.606214981831288746e+00
2.187499999999999861e-02 2.075009999999999962e-03 3.228806931798211100e+00
3.125000000000000173e-03 1.492079999999999969e-02 6.232974193168816512e-02
0.000000000000000000e+00 3.861890000000000201e-03 1.782917937821765220e+00
6.250000000000000347e-03 1.677950000000000101e-03 1.401495890594032900e+00
1.562500000000000000e-02 1.658619999999999973e-03 1.970998052279999690e+00
0.000000000000000000e+00 1.145020000000000066e-03 3.165440375153016905e+00
0.000000000000000000e+00 4.626559999999999831e-04 2.818680427838723190e+00
2.812500000000000069e-02 2.561980000000000160e-03 2.457999516870457146e+00
5.625000000000000139e-02 9.264529999999999987e-02 1.033728089121907612e+00
0.000000000000000000e+00 1.667570000000000028e-05 4.434810680238275182e+00
0.000000000000000000e+00 4.125159999999999786e-04 4.741346242307271197e+00
1.874999999999999931e-02 1.053479999999999972e-01 2.125941459302904679e+00
2.187499999999999861e-02 2.985279999999999878e-03 2.486639405686052573e+00
1.874999999999999931e-02 3.888490000000000002e-02 2.648455206439323639e+00
3.125000000000000173e-03 1.055129999999999957e-01 7.297240012709121926e-01
4.062500000000000139e-02 3.964009999999999756e-02 2.264567637670251710e+00
1.874999999999999931e-02 1.985220000000000214e-03 2.211346448555936206e+00
0.000000000000000000e+00 1.150140000000000017e-03 4.107112458786131626e+00
6.250000000000000347e-03 2.910849999999999983e-03 9.575245095742535018e-02
0.000000000000000000e+00 2.245760000000000128e-04 2.481895820935220431e-01
4.062500000000000139e-02 9.067520000000000788e-03 1.133881955792853669e+00
0.000000000000000000e+00 0.000000000000000000e+00 1.667557656333277238e+00
2.500000000000000139e-02 1.812540000000000071e-03 2.601104814611806759e+00
0.000000000000000000e+00 1.079810000000000058e-03 1.908022472151707394e+00
0.000000000000000000e+00 7.259589999999999793e-04 1.533177537151382275e+00
4.062500000000000139e-02 3.070200000000000012e-02 3.024093441720923536e+00
6.250000000000000347e-03 3.878850000000000093e-03 1.340375955063157765e+00
3.125000000000000173e-03 9.679580000000000128e-02 3.512760473737746914e+00
3.125000000000000173e-03 1.693119999999999998e-03 3.383845941708191862e+00
0.000000000000000000e+00 7.534720000000000393e-04 3.084713069457495349e-01
2.500000000000000139e-02 3.280379999999999841e-03 3.894469316069844922e+00
0.000000000000000000e+00 3.763199999999999748e-04 2.381848073969399682e+00
3.125000000000000173e-03 9.561340000000000117e-02 2.619146156020875527e+00
1.874999999999999931e-02 2.899010000000000042e-03 1.871168864061512060e-01
0.000000000000000000e+00 1.604029999999999996e-03 4.203999800725274127e+00
0.000000000000000000e+00 1.691779999999999933e-03 4.213085238267000321e+00
0.000000000000000000e+00 1.888650000000000051e-02 3.505334974365857725e+00
0.000000000000000000e+00 9.439119999999999455e-02 1.289535493761347906e+00
3.125000000000000173e-03 4.444349999999999690e-03 3.086500901241212347e+00
0.000000000000000000e+00 2.764159999999999773e-04 2.929009704124099223e+00
3.749999999999999861e-02 4.155670000000000197e-02 2.095851318802672836e+00
0.000000000000000000e+00 9.927189999999999799e-04 3.413018668124512267e-01
2.812500000000000069e-02 1.998849999999999932e-03 8.246417187249605041e-01
1.562500000000000000e-02 1.374589999999999970e-03 3.201507377554170919e+00
3.125000000000000173e-03 9.542979999999999519e-02 9.307565638023085342e-01
0.000000000000000000e+00 1.863489999999999982e-03 2.189371956887146808e+00
1.874999999999999931e-02 2.095810000000000034e-03 1.801631441273544576e+00
3.125000000000000173e-03 7.410560000000000281e-04 4.764099697436813940e+00
0.000000000000000000e+00 4.432829999999999583e-03 2.004151464943266348e+00
0.000000000000000000e+00 1.137709999999999893e-03 3.774165062169985596e+00
3.125000000000000173e-03 4.610180000000000181e-03 1.524143420945225369e+00
3.125000000000000173e-03 4.470459999999999885e-03 5.575200191122448024e-01
3.125000000000000173e-03 6.985599999999999796e-04 4.859111807996464805e+00
0.000000000000000000e+00 1.118789999999999932e-03 1.305857352606172750e+00
0.000000000000000000e+00 1.370919999999999951e-02 2.510123089957039255e+00
1.250000000000000069e-02 9.565790000000000404e-02 3.124182408045170334e+00
1.874999999999999931e-02 1.269349999999999992e-02 2.438611655512728404e+00
0.000000000000000000e+00 2.348250000000000090e-05 8.488114475484226373e-01
1.250000000000000069e-02 2.426240000000000081e-03 1.760754523472285449e-01
0.000000000000000000e+00 4.433340000000000024e-03 5.992422941345970644e-01
0.000000000000000000e+00 1.875839999999999929e-03 2.053620499966139601e+00
3.125000000000000173e-03 1.625419999999999990e-02 2.402033922287008849e+00
0.000000000000000000e+00 7.795690000000000302e-04 3.860034249872166701e+00
0.000000000000000000e+00 1.339069999999999930e-03 1.864001750193299278e+00
0.000000000000000000e+00 4.685309999999999822e-03 4.851216774845430457e+00
0.000000000000000000e+00 5.413819999999999744e-03 2.015125131570755457e+00
1.250000000000000069e-02 2.830759999999999874e-02 2.061616168157620166e+00
0.000000000000000000e+00 9.628380000000000402e-04 8.702723249966737296e-02
1.250000000000000069e-02 6.556799999999999564e-04 3.660727368982535923e-01
9.374999999999999653e-03 3.580349999999999939e-03 2.631876203406438464e+00
3.125000000000000173e-03 1.835580000000000067e-03 2.617574348822971242e+00
0.000000000000000000e+00 4.202109999999999786e-04 2.538742856620782362e+00
0.000000000000000000e+00 3.846400000000000036e-04 1.571375705027069802e+00
0.000000000000000000e+00 4.281630000000000136e-04 3.484145208095019264e+00
1.562500000000000000e-02 2.878780000000000054e-03 1.558335507780754359e+00
2.187499999999999861e-02 2.965909999999999987e-03 3.080009079491057733e+00
2.187499999999999861e-02 2.465660000000000161e-03 1.001643267840158780e+00
0.000000000000000000e+00 5.985429999999999917e-04 4.226648967430181258e+00
0.000000000000000000e+00 6.448089999999999378e-02 3.841548339579911708e+00
6.250000000000000347e-03 5.167360000000000182e-03 3.636632704785415893e+00
2.187499999999999861e-02 2.340609999999999913e-03 1.101776481669456409e+00
2.187499999999999861e-02 3.230279999999999957e-02 1.647043779035827216e+00
0.000000000000000000e+00 4.954239999999999512e-04 1.571991497485365930e+00
1.874999999999999931e-02 2.126639999999999919e-01 1.768292356330614101e-01
0.000000000000000000e+00 7.333329999999999666e-04 4.452750285676649433e+00
0.000000000000000000e+00 8.754360000000000527e-04 2.495084330350143986e+00
0.000000000000000000e+00 3.583959999999999750e-04 3.462248789700538509e+00
0.000000000000000000e+00 1.865600000000000027e-04 3.420894093544377235e+00
1.250000000000000069e-02 1.419970000000000000e-03 2.851882571066386429e+00
3.125000000000000173e-03 9.887010000000000243e-02 1.585488170015164622e+00
0.000000000000000000e+00 2.614769999999999942e-02 4.606507027440387425e-01
7.187499999999999445e-02 3.961880000000000263e-02 2.167236808250951441e+00
1.562500000000000000e-02 5.487299999999999643e-03 8.513267420293901822e-02
3.125000000000000173e-03 1.290610000000000021e-02 1.696785841190686650e+00
0.000000000000000000e+00 1.664000000000000060e-04 1.495399294299486925e+00
0.000000000000000000e+00 1.553919999999999922e-04 2.109883959498443096e-01
0.000000000000000000e+00 1.372559999999999926e-02 2.384509210525558309e+00
2.187499999999999861e-02 2.737980000000000101e-03 4.798014722071472171e+00
2.187499999999999861e-02 7.517379999999999722e-03 1.853174902937781532e+00
0.000000000000000000e+00 3.550609999999999942e-04 1.500782029383452176e+00
0.000000000000000000e+00 9.726719999999999464e-04 6.214842926678015855e-01
6.250000000000000347e-03 3.654849999999999852e-03 4.575013680349230505e+00
2.187499999999999861e-02 2.675460000000000164e-03 2.063113443488312271e+00
2.187499999999999861e-02 3.419520000000000112e-03 3.300081780554097843e+00
3.125000000000000173e-03 2.077630000000000015e-03 1.021650937991402941e-01
0.000000000000000000e+00 1.402480000000000046e-02 2.074578657165064843e+00
3.125000000000000173e-03 9.610920000000000574e-02 1.486127311108049742e+00
3.125000000000000000e-02 9.123850000000000016e-02 1.253553416173855517e+00
0.000000000000000000e+00 2.257830000000000031e-05 2.199111152991037876e+00
0.000000000000000000e+00 2.113340000000000010e-03 1.412701813792224259e+00
3.125000000000000173e-03 9.618019999999999348e-02 1.020605820086590398e+00
6.250000000000000347e-03 1.873410000000000049e-03 3.218250894010249219e+00
0.000000000000000000e+00 6.216320000000000005e-04 9.771141510168085409e-01
0.000000000000000000e+00 2.110020000000000211e-03 1.794365521957803189e+00
0.000000000000000000e+00 4.184960000000000264e-04 4.930741179605687030e+00
0.000000000000000000e+00 2.352449999999999854e-03 2.826375647603334151e+00
3.125000000000000173e-03 1.721050000000000010e-03 4.287874641773815831e+00
0.000000000000000000e+00 4.898689999999999815e-03 2.514069163976989429e+00
5.312499999999999861e-02 9.746819999999999790e-03 3.463613617346067208e+00
1.250000000000000069e-02 5.644419999999999819e-03 1.913904646831458667e+00
2.500000000000000139e-02 9.153269999999999462e-02 2.854691022631032471e+00
0.000000000000000000e+00 1.313350000000000021e-03 8.328693961726030270e-01
0.000000000000000000e+00 3.933440000000000070e-04 4.572063262315603893e+00
1.874999999999999931e-02 2.046140000000000111e-03 1.435329413780153551e+00
0.000000000000000000e+00 4.532669999999999928e-03 3.830837188761229140e+00
0.000000000000000000e+00 1.073769999999999933e-03 1.295905517566522391e+00
9.374999999999999653e-03 2.577429999999999999e-02 1.099156699540601023e+00
1.562500000000000000e-02 3.051200000000000006e-03 4.121195591870296049e+00
3.125000000000000000e-02 1.310719999999999941e-02 9.614836536563259317e-01
0.000000000000000000e+00 1.731329999999999892e-03 1.227827622345378789e+00
1.874999999999999931e-02 2.553600000000000054e-03 4.520259351042971829e+00
3.125000000000000173e-03 9.622529999999999972e-02 3.114894867924429267e+00
0.000000000000000000e+00 3.792350000000000105e-04 3.033334780710963408e+00
0.000000000000000000e+00 1.030660000000000083e-03 3.221941289361533567e+00
2.500000000000000139e-02 9.253709999999999714e-02 1.903153940011672152e+00
0.000000000000000000e+00 9.828479999999999248e-04 4.923972012149349098e+00
0.000000000000000000e+00 4.814589999999999669e-03 5.483679371947774994e-01
0.000000000000000000e+00 1.978469999999999882e-02 2.415487247786779257e+00
4.062500000000000139e-02 3.053720000000000045e-02 3.227539502730103038e+00
3.125000000000000173e-03 4.207810000000000196e-03 4.869697934198729428e+00
0.000000000000000000e+00 2.811970000000000008e-03 3.443031147071467402e+00
1.562500000000000000e-02 2.299010000000000203e-03 4.531280867383159716e+00
2.812500000000000069e-02 2.386300000000000053e-03 2.331411911654615920e+00
0.000000000000000000e+00 4.282879999999999760e-04 3.347633378957763028e+00
0.000000000000000000e+00 9.536050000000000082e-02 1.662742289196863954e+00
0.000000000000000000e+00 2.540479999999999908e-03 3.824429027135956005e-01
0.000000000000000000e+00 1.058499999999999979e-03 8.364824753627225773e-01
7.812500000000000000e-02 9.347560000000000591e-02 2.922245918888143557e+00
0.000000000000000000e+00 2.279450000000000004e-05 3.208941551194610664e+00
9.374999999999999653e-03 1.772930000000000035e-03 6.053843495906319205e-02
0.000000000000000000e+00 7.351680000000000194e-04 3.296583316721120038e+00
0.000000000000000000e+00 1.785219999999999906e-03 3.942527714659294080e-01
0.000000000000000000e+00 5.059199999999999808e-04 1.324462123634675415e+00
1.250000000000000069e-02 2.833919999999999842e-02 9.628940192714763313e-01
3.125000000000000173e-03 1.178099999999999981e-02 4.497893467923300470e+00
2.187499999999999861e-02 2.651329999999999919e-03 1.854895102245803784e+00
9.375000000000000000e-02 1.011830000000000021e-02 2.708764785027553579e+00
1.250000000000000069e-02 5.754429999999999615e-03 6.258945958740730342e-01
0.000000000000000000e+00 1.309569999999999918e-03 4.340853136401035428e+00
6.250000000000000347e-03 4.913469999999999643e-03 1.018695384854162889e+00
0.000000000000000000e+00 1.176820000000000080e-03 4.975248142827547682e+00
0.000000000000000000e+00 1.169019999999999998e-03 3.000101355184572327e+00
0.000000000000000000e+00 1.903619999999999965e-03 2.655571347425098150e+00
3.125000000000000000e-02 9.343070000000000541e-02 1.183054128095937685e+00
0.000000000000000000e+00 1.784699999999999958e-03 4.952080329607217557e+00
0.000000000000000000e+00 2.037119999999999903e-04 1.487819417932187527e+00
0.000000000000000000e+00 1.670399999999999999e-04 3.669600103858052798e+00
0.000000000000000000e+00 1.201540000000000073e-03 3.287347788009059579e-01
1.562500000000000000e-02 1.936959999999999940e-03 3.522630492085967013e+00
0.000000000000000000e+00 1.747520000000000020e-03 3.998744892752725377e+00
0.000000000000000000e+00 4.975999999999999521e-04 2.569286727319915364e+00
3.125000000000000173e-03 1.735479999999999965e-03 3.113996725411745548e+00
0.000000000000000000e+00 5.289029999999999470e-04 3.680321067337791074e+00
1.562500000000000000e-02 2.966850000000000043e-03 2.753887700651013848e+00
1.874999999999999931e-02 1.985220000000000214e-03 1.452151317111627371e-01
9.374999999999999653e-03 1.012480000000000047e-01 2.241162691459638090e+00
3.125000000000000173e-03 6.555580000000000088e-03 9.308880887447090746e-01
0.000000000000000000e+00 5.022269999999999469e-04 4.871688200020098058e+00
0.000000000000000000e+00 7.143679999999999475e-04 9.686243879013556324e-01
3.125000000000000173e-03 9.480679999999999663e-02 3.085583692174497905e+00
0.000000000000000000e+00 4.532289999999999583e-03 3.920932750053998994e+00
0.000000000000000000e+00 3.824000000000000250e-04 4.568715983503606637e+00
0.000000000000000000e+00 2.280519999999999978e-05 2.102212307825384485e+00
0.000000000000000000e+00 9.251840000000000107e-04 4.189762422133664899e+00
2.500000000000000139e-02 3.174909999999999972e-03 2.881398953279709296e+00
1.562500000000000000e-02 1.800769999999999932e-03 3.647355168691714500e+00
1.874999999999999931e-02 3.399419999999999786e-03 5.020133255604836142e-01
6.250000000000000347e-03 4.348160000000000219e-03 1.557857961331261976e+00
3.125000000000000173e-03 1.852740000000000073e-03 1.278040333962164432e+00
0.000000000000000000e+00 7.080679999999999570e-04 2.633075803512470170e+00
3.125000000000000173e-03 6.107519999999999963e-04 5.177901264160067463e-02
0.000000000000000000e+00 2.616550000000000126e-02 4.245480647699212406e-01
0.000000000000000000e+00 4.083199999999999937e-04 1.676317505236416538e+00
1.874999999999999931e-02 1.679039999999999916e-03 2.485747045782927156e+00
9.374999999999999653e-03 1.912960000000000008e-03 3.842789451564690317e+00
0.000000000000000000e+00 4.427200000000000059e-03 4.168317196775596756e+00
2.187499999999999861e-02 2.118019999999999972e-03 3.234360676002667301e+00
2.187499999999999861e-02 3.054089999999999930e-02 4.086850391553925599e-01
0.000000000000000000e+00 1.344640000000000028e-03 3.862463967680623611e+00
2.187499999999999861e-02 9.192939999999999445e-02 3.898031547906136929e+00
0.000000000000000000e+00 9.858560000000000153e-04 2.972818434468324611e+00
0.000000000000000000e+00 2.425019999999999953e-03 1.675125888397354101e+00
3.437500000000000278e-02 2.798849999999999949e-02 2.705089400518099207e+00
2.812500000000000069e-02 9.149509999999999588e-02 4.165536427607193559e+00
0.000000000000000000e+00 1.122750000000000050e-03 3.926906205672542338e+00
2.500000000000000139e-02 2.363899999999999942e-03 9.854230789756335263e-02
0.000000000000000000e+00 1.539900000000000080e-03 3.927690522234929649e+00
3.125000000000000173e-03 2.080770000000000015e-03 3.815565930807598427e+00
0.000000000000000000e+00 1.488849999999999896e-03 2.685413223782749270e+00
4.687500000000000000e-02 9.225590000000000179e-02 1.718485057117716819e+00
1.250000000000000069e-02 1.922429999999999929e-03 6.524395832497104086e-01
4.374999999999999722e-02 9.221150000000000180e-02 1.054490225765138955e+00
1.250000000000000069e-02 2.006459999999999841e-03 3.054781203848697224e+00
2.187499999999999861e-02 2.099199999999999851e-03 2.098335828820074855e-02
9.374999999999999653e-03 9.784320000000000517e-02 2.053278476805312280e+00
0.000000000000000000e+00 1.328000000000000025e-04 1.439425940974658591e+00
1.874999999999999931e-02 2.623620000000000119e-03 4.201589409406876641e+00
0.000000000000000000e+00 4.433020000000000189e-03 3.072022398121652564e+00
0.000000000000000000e+00 4.423729999999999850e-03 2.596160443097721426e+00
3.125000000000000173e-03 2.297659999999999980e-03 1.897980767639285693e+00
3.125000000000000173e-03 1.003779999999999950e-01 2.365427121129175969e+00
1.250000000000000069e-02 4.391940000000000427e-03 4.722204379425792853e-01
3.125000000000000173e-03 1.901949999999999908e-03 3.451592266784709651e+00
0.000000000000000000e+00 2.807040000000000013e-04 1.663058905591738412e+00
1.250000000000000069e-02 1.075799999999999951e-01 4.600732460501425258e+00
3.125000000000000173e-03 1.006780000000000001e-02 2.050990450942364873e+00
6.250000000000000347e-03 2.195069999999999921e-03 2.797374953314110790e+00
0.000000000000000000e+00 7.084529999999999474e-04 1.657727999793817020e+00
6.250000000000000347e-03 9.525569999999999871e-02 1.236282705214498012e+00
1.562500000000000000e-02 1.803139999999999951e-03 3.886942544185512105e+00
0.000000000000000000e+00 2.241500000000000138e-05 3.109328976348828988e+00
0.000000000000000000e+00 8.715240000000000400e-04 2.391526183806067074e+00
2.187499999999999861e-02 5.147579999999999691e-03 8.790605953239916115e-01
1.874999999999999931e-02 9.214319999999999455e-02 4.013643200081046247e-01
1.562500000000000000e-02 2.907069999999999880e-03 4.628432076105609028e+00
3.749999999999999861e-02 8.031869999999999982e-03 6.087430503233076662e-01
3.125000000000000173e-03 1.769149999999999933e-03 2.829212060180619215e-01
0.000000000000000000e+00 1.675969999999999934e-03 1.439265709317945063e+00
0.000000000000000000e+00 9.505919999999999951e-04 4.919711047169791129e+00
2.187499999999999861e-02 3.309110000000000090e-03 3.254096850261833485e+00
0.000000000000000000e+00 3.707520000000000173e-04 6.762131533997123300e-01
3.125000000000000000e-02 2.775649999999999992e-02 4.668121075044670221e+00
0.000000000000000000e+00 1.830400000000000093e-04 3.872168078784096856e+00
0.000000000000000000e+00 2.220640000000000138e-05 2.470216761332684197e+00
0.000000000000000000e+00 0.000000000000000000e+00 4.196968054216109856e+00
6.562500000000000278e-02 1.071690000000000004e-01 3.486240292589895873e+00
0.000000000000000000e+00 9.505629999999999635e-02 7.878036932640214429e-01
3.125000000000000173e-03 6.620159999999999717e-04 2.870454549767512020e+00
0.000000000000000000e+00 1.049980000000000054e-03 1.595426737467490197e+00
0.000000000000000000e+00 3.586049999999999915e-03 2.552046476152526111e+00
0.000000000000000000e+00 1.218109999999999896e-03 4.055389626304199524e+00
1.562500000000000000e-02 2.067139999999999863e-03 1.018891860028003915e-01
1.874999999999999931e-02 2.140609999999999822e-03 1.401481717732931953e+00
0.000000000000000000e+00 1.160130000000000102e-03 1.262125341919877908e+00
0.000000000000000000e+00 4.328450000000000179e-03 2.437222829171638683e+00
0.000000000000000000e+00 6.743390000000000365e-04 8.220598750735408355e-01
6.250000000000000347e-03 9.273869999999999336e-02 2.998270175975583651e+00
2.500000000000000139e-02 9.279170000000000473e-02 2.137192471887620293e+00
1.562500000000000000e-02 1.678460000000000108e-03 5.399944238475418157e-01
0.000000000000000000e+00 9.944520000000000529e-04 1.532848744512594230e+00
0.000000000000000000e+00 4.039679999999999920e-04 4.345077657492693923e+00
3.125000000000000173e-03 4.436159999999999756e-03 1.838083764147691479e+00
0.000000000000000000e+00 1.205499999999999974e-03 4.270379673658146302e+00
0.000000000000000000e+00 2.247809999999999826e-03 3.288768193662940043e+00
1.874999999999999931e-02 2.517310000000000034e-03 3.269375997875699547e+00
2.187499999999999861e-02 1.759549999999999916e-03 1.387958656620913445e+00
0.000000000000000000e+00 1.182019999999999989e-03 4.035574025822513455e+00
0.000000000000000000e+00 2.278599999999999834e-05 3.677633678669669504e+00
0.000000000000000000e+00 3.855360000000000167e-04 1.199528027818667075e+00
1.250000000000000069e-02 1.771519999999999952e-03 3.394411724299492672e+00
0.000000000000000000e+00 3.087359999999999931e-04 2.744053575489697749e+00
0.000000000000000000e+00 4.041979999999999705e-03 1.583631419419885944e+00
4.687500000000000000e-02 9.734080000000000857e-03 4.103480190870481437e+00
6.250000000000000347e-03 9.832240000000000424e-02 1.188965958208387796e-02
2.500000000000000139e-02 2.680899999999999950e-03 2.186622636068377812e+00
3.125000000000000173e-03 2.944060000000000080e-03 2.179284722191849433e+00
0.000000000000000000e+00 3.761149999999999997e-03 2.433677035647225928e+00
9.374999999999999653e-03 3.176319999999999838e-03 3.382181115096233093e+00
3.125000000000000173e-03 1.895329999999999931e-02 3.682728154615716454e-01
3.125000000000000173e-03 6.401920000000000397e-04 2.330846554181787322e+00
0.000000000000000000e+00 1.150980000000000015e-03 3.576889764491220536e+00
0.000000000000000000e+00 4.464830000000000361e-03 4.541940607522862550e+00
0.000000000000000000e+00 1.858670000000000114e-02 4.620832233117226018e+00
0.000000000000000000e+00 3.515980000000000038e-04 4.475086627324442290e+00
0.000000000000000000e+00 1.175919999999999917e-02 4.604433465704094175e-01
0.000000000000000000e+00 1.597950000000000108e-03 9.757338629051509615e-01
1.562500000000000000e-02 2.523580000000000094e-03 1.561460157657904579e+00
6.250000000000000347e-03 9.657000000000000306e-02 8.718292500846452908e-01
3.125000000000000173e-03 1.099579999999999958e-03 3.121229681316321614e+00
0.000000000000000000e+00 2.288659999999999870e-05 3.934409437160058864e+00
2.500000000000000139e-02 2.455489999999999843e-03 2.148174898354649365e+00
1.874999999999999931e-02 9.372610000000000663e-02 3.897060384496342955e+00
0.000000000000000000e+00 2.285500000000000056e-05 4.554284215297927041e+00
3.125000000000000173e-03 1.476399999999999935e-02 2.647132790947674952e+00
3.125000000000000173e-03 1.025129999999999965e-02 1.830372477197899528e+00
0.000000000000000000e+00 7.255739999999999889e-04 1.078991414383099645e+00
0.000000000000000000e+00 2.260589999999999984e-05 1.327884020049763691e+00
0.000000000000000000e+00 1.717540000000000161e-05 6.130988798870579126e-01
0.000000000000000000e+00 4.477850000000000233e-04 3.274385264053694122e+00
0.000000000000000000e+00 8.216340000000000145e-04 3.548676297676126801e+00
0.000000000000000000e+00 1.843650000000000063e-03 1.580256809197677637e-01
0.000000000000000000e+00 4.262390000000000232e-04 1.954194344422842677e+00
0.000000000000000000e+00 9.452160000000000249e-04 2.451981585319842338e+00
0.000000000000000000e+00 4.189929999999999913e-04 4.242264458685660600e+00
3.125000000000000173e-03 9.553010000000000668e-02 4.784168688404040637e+00
2.187499999999999861e-02 5.889219999999999698e-03 4.360817513277408963e+00
3.125000000000000173e-03 6.486400000000000238e-04 3.731824246070107431e+00
3.125000000000000173e-03 2.660159999999999955e-03 2.268817498673016964e+00
3.125000000000000173e-03 4.857410000000000373e-03 2.582280189947229410e+00
0.000000000000000000e+00 5.769279999999999894e-03 3.375830044591933365e+00
0.000000000000000000e+00 6.508160000000000247e-04 2.616694526889320027e+00
2.187499999999999861e-02 2.578110000000000211e-03 1.968923782201826178e+00
1.562500000000000000e-02 9.771280000000000243e-02 1.346956715965296203e+00
0.000000000000000000e+00 3.951359999999999790e-04 7.727688924727110775e-01
0.000000000000000000e+00 2.190200000000000133e-02 4.866541960547754453e-02
3.125000000000000173e-03 1.770180000000000104e-03 5.770743597381966516e-01
5.000000000000000278e-02 9.685120000000000187e-03 2.949702282011705812e+00
0.000000000000000000e+00 1.085060000000000104e-03 1.161025282664374103e+00
3.125000000000000173e-03 9.690849999999999465e-02 9.413226751798048353e-01
2.187499999999999861e-02 2.791810000000000038e-03 1.469621163502861538e+00
0.000000000000000000e+00 7.435939999999999824e-04 3.008442970947178274e+00
0.000000000000000000e+00 9.089919999999999597e-04 7.029649139559224214e-02
6.250000000000000347e-03 6.793340000000000142e-03 2.617694974175069245e+00
0.000000000000000000e+00 9.893120000000000039e-04 9.143281917004880688e-01
0.000000000000000000e+00 4.986749999999999863e-03 1.406650746558623100e+00
6.250000000000000347e-03 2.534719999999999855e-03 1.852882339719594817e+00
0.000000000000000000e+00 3.553820000000000069e-04 1.751459789528071465e+00
6.250000000000000347e-03 9.547300000000000231e-02 4.086411411311886788e+00
0.000000000000000000e+00 9.028480000000000403e-04 2.182539401504035581e+00
9.374999999999999653e-03 9.577130000000000365e-02 2.219338050235996285e+00
0.000000000000000000e+00 2.608929999999999930e-02 4.330465280417251428e+00
4.687500000000000000e-02 8.983040000000000469e-02 2.064333185708433938e+00
6.250000000000000347e-03 2.466820000000000210e-03 3.258824900319185147e+00
0.000000000000000000e+00 4.946560000000000019e-04 1.146587039660656338e+00
0.000000000000000000e+00 6.181759999999999686e-03 1.174748751526377699e+00
2.812500000000000069e-02 6.658429999999999904e-03 4.048869031978526323e+00
2.500000000000000139e-02 2.374779999999999947e-03 4.019161619697681154e+00
2.500000000000000139e-02 1.622849999999999900e-03 3.412904131567318089e-01
0.000000000000000000e+00 2.456059999999999927e-03 3.993097453432194577e+00
2.500000000000000139e-02 3.242559999999999800e-03 3.569886824044188334e-01
1.250000000000000069e-02 2.052480000000000190e-03 1.091437025107011571e+00
0.000000000000000000e+00 2.548410000000000085e-04 1.851069548616434801e+00
0.000000000000000000e+00 1.041679999999999967e-01 3.395592636861221258e+00
0.000000000000000000e+00 4.352000000000000074e-04 4.983024526143186250e+00
1.874999999999999931e-02 2.435200000000000212e-03 4.395567707811927960e+00
0.000000000000000000e+00 3.030099999999999981e-03 2.101021859107707446e+00
0.000000000000000000e+00 3.690880000000000007e-04 1.082034259202907522e-01
3.125000000000000173e-03 2.304449999999999988e-03 2.532573148874763369e+00
1.874999999999999931e-02 2.121409999999999789e-03 2.567272745876451268e+00
