9.374999999999999653e-03 1.722819999999999907e-03 4.402647869286951732e+00
0.000000000000000000e+00 6.148479999999999787e-04 1.474809086525393109e+00
2.812500000000000069e-02 2.620739999999999875e-03 4.102826758737841750e+00
3.125000000000000173e-03 2.146819999999999805e-03 4.026201341943698608e+00
4.687500000000000000e-02 4.032349999999999823e-02 1.147660708541873298e+00
3.125000000000000173e-03 1.940160000000000148e-02 2.761729508208651929e+00
0.000000000000000000e+00 5.661439999999999789e-04 3.648056997421153191e+00
1.562500000000000000e-02 1.899260000000000054e-03 2.920892636244141638e+00
3.125000000000000173e-03 1.868859999999999966e-03 1.098537748508030543e+00
0.000000000000000000e+00 3.592580000000000166e-03 3.893208997319365761e+00
0.000000000000000000e+00 9.580800000000000427e-04 2.123288888869819147e+00
1.250000000000000069e-02 2.567359999999999868e-03 2.066227689586126459e+00
1.250000000000000069e-02 2.201090000000000164e-03 1.043884116349551583e+00
1.874999999999999931e-02 7.564159999999999894e-04 7.601647726865057297e-01
3.125000000000000173e-03 4.205699999999999716e-03 8.801297180760414562e-01
3.125000000000000173e-03 2.176770000000000180e-03 3.841477682163724872e+00
0.000000000000000000e+00 6.294109999999999983e-02 1.607209065450320828e+00
3.125000000000000173e-03 1.728060000000000013e-03 3.030778093273619689e+00
0.000000000000000000e+00 1.055809999999999908e-03 1.690063194632272392e+00
0.000000000000000000e+00 4.335359999999999908e-04 1.841506945419951080e+00
2.187499999999999861e-02 1.892859999999999899e-03 2.574540461292627480e+00
0.000000000000000000e+00 9.249920000000000234e-04 8.217250888962623900e-01
0.000000000000000000e+00 1.111620000000000013e-03 2.418130784365978947e+00
0.000000000000000000e+00 4.164920000000000232e-04 8.183528381580928990e-02
0.000000000000000000e+00 6.483629999999999949e-02 1.789345721996260519e+00
3.125000000000000173e-03 3.155260000000000009e-03 1.049070159938738200e+00
6.250000000000000347e-03 1.716200000000000017e-02 1.177793757275574782e-01
1.250000000000000069e-02 2.433540000000000095e-03 3.298764936833072703e+00
2.812500000000000069e-02 2.904129999999999993e-03 1.253767848824525188e+00
0.000000000000000000e+00 3.065660000000000000e-03 1.011942554302099229e+00
1.250000000000000069e-02 2.243259999999999959e-03 5.686992825033815313e-01
0.000000000000000000e+00 7.358980000000000209e-04 3.572847770447278748e+00
0.000000000000000000e+00 5.013759999999999918e-04 4.558671607086076882e+00
0.000000000000000000e+00 1.502889999999999955e-02 3.804165682976880625e+00
0.000000000000000000e+00 3.476859999999999912e-04 3.446989304467956039e+00
2.500000000000000139e-02 2.545729999999999955e-03 2.373574702702158312e+00
1.874999999999999931e-02 1.813759999999999982e-03 1.739996872408044570e+00
3.125000000000000173e-03 3.902660000000000070e-03 1.580953958429696549e+00
3.125000000000000173e-03 4.654720000000000212e-03 1.037885487509687010e+00
0.000000000000000000e+00 1.068610000000000003e-03 1.696990307091624128e+00
0.000000000000000000e+00 1.262529999999999989e-03 4.099968709450643622e+00
1.250000000000000069e-02 1.026299999999999990e-01 2.304167750483299137e+00
0.000000000000000000e+00 6.192320000000000289e-03 2.601288030326658340e+00
0.000000000000000000e+00 1.147969999999999893e-03 4.028325221936618128e+00
0.000000000000000000e+00 1.397489999999999930e-04 2.279809732711707282e-01
1.250000000000000069e-02 3.815620000000000036e-03 9.978461661281512463e-01
0.000000000000000000e+00 7.315380000000000016e-04 1.441122474865277336e+00
4.062500000000000139e-02 1.060439999999999994e-01 3.103840475216534500e+00
0.000000000000000000e+00 7.193539999999999570e-04 3.589938377846939144e+00
6.250000000000000347e-03 1.059569999999999956e-01 4.921287557924642009e+00
1.874999999999999931e-02 2.314430000000000133e-03 2.716333263309642643e+00
0.000000000000000000e+00 5.623809999999999920e-03 3.769295554632469347e+00
0.000000000000000000e+00 8.991999999999999559e-04 3.410152345226614035e+00
0.000000000000000000e+00 1.117699999999999900e-03 4.177693726117998052e-01
0.000000000000000000e+00 4.531839999999999762e-04 1.937088156124371352e+00
0.000000000000000000e+00 1.098330000000000009e-03 6.170881032459107907e-02
0.000000000000000000e+00 1.530689999999999915e-03 2.861881859514192605e-02
4.687500000000000000e-02 9.277879999999999461e-02 2.041410937934143188e+00
2.812500000000000069e-02 2.511549999999999980e-03 3.552447240755587377e+00
0.000000000000000000e+00 1.148160000000000066e-03 2.261150320481207121e+00
0.000000000000000000e+00 4.379799999999999666e-03 4.708647523643906041e+00
0.000000000000000000e+00 4.187999999999999882e-04 2.846104901255263719e+00
0.000000000000000000e+00 2.168450000000000152e-03 4.492703175045027031e+00
3.125000000000000173e-03 1.958459999999999975e-03 1.474616384117930501e+00
0.000000000000000000e+00 3.175039999999999742e-04 1.371430632734609301e+00
0.000000000000000000e+00 5.520520000000000331e-04 4.670472847990410514e+00
6.250000000000000347e-03 6.291459999999999587e-03 3.221682889021489249e+00
0.000000000000000000e+00 1.117310000000000048e-03 1.742496498481682199e+00
0.000000000000000000e+00 3.936640000000000039e-04 1.231751452875062824e-01
0.000000000000000000e+00 3.426549999999999735e-02 7.200640606320979353e-01
0.000000000000000000e+00 1.652100000000000096e-03 3.700348360589861940e+00
2.812500000000000069e-02 2.810500000000000064e-03 1.047752599732971301e+00
0.000000000000000000e+00 5.334400000000000426e-03 1.445896832502424179e+00
0.000000000000000000e+00 2.926079999999999740e-04 4.139587723856293699e+00
0.000000000000000000e+00 2.280270000000000108e-05 1.614811905020626659e+00
0.000000000000000000e+00 7.029119999999999813e-04 5.191398192347917995e-01
0.000000000000000000e+00 1.186629999999999933e-03 2.227845642804852755e+00
2.500000000000000139e-02 3.065220000000000011e-03 4.407066639891434434e+00
2.187499999999999861e-02 3.340740000000000029e-03 6.340232927642414085e-01
4.374999999999999722e-02 1.061590000000000034e-01 2.293453510194605638e+00
9.374999999999999653e-03 2.454979999999999836e-03 2.905646071473901859e+00
0.000000000000000000e+00 2.945539999999999964e-02 4.032262005583739040e+00
3.125000000000000000e-02 1.112110000000000008e-02 3.950083598315794031e+00
0.000000000000000000e+00 9.766620000000000162e-03 1.300164285102653583e+00
5.625000000000000139e-02 8.371329999999999744e-03 2.262860971363118701e+00
2.500000000000000139e-02 2.550849999999999906e-03 4.539903207840878530e+00
0.000000000000000000e+00 1.066239999999999983e-03 8.834712431976821101e-01
0.000000000000000000e+00 1.171579999999999974e-03 4.123738193197302948e+00
0.000000000000000000e+00 2.916670000000000113e-03 4.746379713521198696e+00
6.250000000000000347e-03 2.110980000000000148e-03 2.007164467656674223e+00
4.062500000000000139e-02 3.175710000000000338e-02 2.374340954465349984e+00
5.000000000000000278e-02 1.909950000000000103e-03 3.442325804138526735e+00
1.874999999999999931e-02 9.426779999999999882e-02 2.419478411775685345e+00
0.000000000000000000e+00 1.077309999999999943e-03 3.171966098855700800e+00
0.000000000000000000e+00 1.920430000000000054e-02 2.427531794822241018e+00
1.562500000000000000e-02 1.882559999999999919e-03 7.815958813185264198e-01
0.000000000000000000e+00 3.060260000000000064e-02 1.885395557203853212e+00
2.500000000000000139e-02 2.917250000000000138e-03 3.735297852939782448e+00
3.125000000000000173e-03 2.363520000000000031e-03 4.094840677143897878e+00
1.874999999999999931e-02 3.765179999999999916e-03 4.473576022189126533e+00
1.874999999999999931e-02 9.273460000000000036e-02 4.204704834193111473e+00
6.250000000000000347e-03 3.624730000000000053e-03 1.794612016014957012e-01
0.000000000000000000e+00 3.288960000000000169e-04 3.077217841085317929e+00
1.250000000000000069e-02 2.239769999999999955e-02 3.496989547712070046e+00
0.000000000000000000e+00 8.705920000000000021e-04 3.271835716098637103e+00
1.250000000000000069e-02 3.688579999999999897e-03 8.310213178864289674e-01
1.874999999999999931e-02 1.703099999999999926e-03 2.358575149351946454e+00
0.000000000000000000e+00 5.819519999999999468e-04 1.298014163485846639e+00
2.812500000000000069e-02 4.703829999999999817e-02 4.495958643953380296e+00
0.000000000000000000e+00 4.282910000000000232e-04 2.405081406962134682e+00
0.000000000000000000e+00 4.414429999999999570e-03 4.999915362468490443e+00
0.000000000000000000e+00 1.806079999999999893e-04 4.074179940911140108e+00
0.000000000000000000e+00 3.939200000000000232e-04 4.223438005230237380e+00
0.000000000000000000e+00 1.036349999999999901e-03 2.906078046803228787e+00
0.000000000000000000e+00 1.320650000000000036e-03 2.127756780662814151e+00
0.000000000000000000e+00 1.108739999999999986e-03 5.318130125237352512e-01
0.000000000000000000e+00 4.110590000000000077e-02 1.227442553088464727e-01
0.000000000000000000e+00 2.536899999999999919e-03 1.843857444859448025e+00
2.812500000000000069e-02 3.009860000000000053e-03 3.545673463237464240e+00
2.500000000000000139e-02 3.324479999999999883e-03 3.044559741107282669e+00
1.250000000000000069e-02 3.342400000000000145e-03 7.996765312878334475e-01
0.000000000000000000e+00 1.601279999999999956e-04 2.217595255378945751e+00
0.000000000000000000e+00 9.240960000000000103e-04 3.726532624590269904e+00
9.374999999999999653e-03 2.364610000000000063e-03 7.292679807823054805e-02
0.000000000000000000e+00 2.890880000000000077e-04 1.707513577645720204e+00
0.000000000000000000e+00 1.925379999999999973e-03 2.069666213661228937e+00
6.250000000000000347e-03 9.939699999999999924e-02 3.347951849121062473e+00
0.000000000000000000e+00 5.430080000000000323e-03 3.913277736783106864e+00
0.000000000000000000e+00 4.593269999999999883e-04 3.698565715714087432e+00
3.125000000000000000e-02 4.752319999999999982e-03 2.540999595130970068e+00
0.000000000000000000e+00 3.923199999999999843e-04 1.993676028198478445e+00
2.500000000000000139e-02 3.718980000000000202e-03 3.966202644240767405e+00
3.125000000000000173e-03 4.570300000000000230e-03 4.718021845333479014e+00
1.562500000000000000e-02 9.130230000000000290e-02 4.733754933469407788e+00
9.374999999999999653e-03 9.720810000000000561e-02 2.195016353455889302e+00
0.000000000000000000e+00 1.716099999999999917e-03 7.135703364584161656e-01
6.250000000000000347e-03 2.860099999999999969e-03 3.780966156358334107e-01
3.125000000000000173e-03 5.093499999999999937e-03 1.391351249981124916e+00
2.500000000000000139e-02 3.144580000000000118e-03 3.186692139699686788e+00
0.000000000000000000e+00 1.877629999999999924e-03 8.541125853655856526e-01
3.125000000000000173e-03 1.683070000000000052e-03 1.653051328401967002e+00
3.125000000000000173e-03 2.012589999999999865e-02 5.118789852197302981e-01
0.000000000000000000e+00 2.899899999999999960e-03 7.314903107972109408e-01
3.125000000000000173e-03 1.268520000000000064e-02 2.316413887262769311e-01
3.125000000000000173e-03 1.972160000000000146e-03 4.563235617438131442e+00
1.874999999999999931e-02 2.391170000000000188e-03 5.171435361957288368e-01
6.250000000000000347e-03 6.291459999999999587e-03 1.663478789743362274e+00
3.749999999999999861e-02 9.249570000000000014e-02 3.361871962400814873e+00
0.000000000000000000e+00 1.494209999999999939e-03 4.669750364087386529e+00
0.000000000000000000e+00 4.265599999999999817e-04 1.252353446972354067e+00
1.250000000000000069e-02 9.253469999999999751e-02 1.993867839852188517e+00
1.874999999999999931e-02 3.173889999999999958e-03 2.422912548958260359e+00
0.000000000000000000e+00 3.820090000000000291e-02 2.701804747910649951e+00
1.874999999999999931e-02 4.141889999999999634e-03 6.343890789387995888e-01
5.000000000000000278e-02 3.999010000000000065e-02 1.907647693251447452e+00
1.250000000000000069e-02 1.631999999999999987e-03 3.650248880416545605e-01
2.500000000000000139e-02 3.835319999999999702e-02 4.668438656750613980e+00
0.000000000000000000e+00 6.035440000000000206e-04 2.176301426424159802e-01
3.125000000000000173e-03 1.924029999999999968e-03 2.291816772101832989e+00
0.000000000000000000e+00 1.709060000000000093e-03 4.045567852044837487e+00
0.000000000000000000e+00 1.784319999999999884e-04 3.345997332370152400e+00
0.000000000000000000e+00 7.308329999999999601e-04 7.354908137335097740e-01
0.000000000000000000e+00 5.826559999999999725e-03 3.266092668230375917e+00
0.000000000000000000e+00 1.036859999999999908e-03 2.352997442916349158e+00
5.312499999999999861e-02 9.368510000000000032e-03 3.665942867253599413e+00
6.250000000000000347e-03 9.818509999999999738e-02 3.932705727324325995e+00
0.000000000000000000e+00 9.324799999999999625e-04 4.734383399614249477e+00
0.000000000000000000e+00 1.173570000000000082e-03 1.304149696999210573e+00
3.125000000000000173e-03 1.022389999999999931e-02 2.719997621478569272e+00
1.562500000000000000e-02 1.662269999999999980e-03 2.506694505219027924e+00
1.250000000000000069e-02 2.773380000000000203e-03 1.363138508106059854e+00
0.000000000000000000e+00 1.848959999999999970e-03 4.061972794340110937e+00
6.250000000000000347e-03 4.688900000000000186e-03 2.880705461809313084e-01
0.000000000000000000e+00 6.022399999999999802e-04 4.415645264105577894e+00
0.000000000000000000e+00 4.255330000000000202e-04 3.175491589215580390e+00
0.000000000000000000e+00 6.122880000000000033e-04 8.480800811664263028e-01
2.500000000000000139e-02 3.610239999999999803e-03 3.845399411265316036e+00
3.125000000000000173e-03 5.230779999999999978e-03 2.821361176864281006e+00
6.250000000000000347e-03 1.795549999999999924e-02 4.520962140209771718e+00
3.125000000000000173e-03 9.543329999999999869e-02 2.582236495306007296e+00
1.874999999999999931e-02 2.126919999999999922e-01 3.847405773642323723e+00
6.250000000000000347e-03 1.838400000000000017e-03 1.840001300518463001e+00
0.000000000000000000e+00 2.911019999999999840e-03 2.976134379671151908e+00
3.125000000000000173e-03 7.657279999999999816e-03 3.725345940543911549e-01
3.125000000000000173e-03 4.423100000000000122e-03 4.403799383710174986e+00
0.000000000000000000e+00 3.150019999999999903e-03 2.757085602495974896e+00
0.000000000000000000e+00 9.949649999999999987e-04 1.299559792483030440e+00
0.000000000000000000e+00 0.000000000000000000e+00 4.014213307781462348e+00
0.000000000000000000e+00 6.316800000000000236e-04 2.689447462167820824e+00
0.000000000000000000e+00 2.287139999999999925e-05 2.928780074301378100e+00
0.000000000000000000e+00 1.304580000000000062e-03 7.141341327851624676e-01
2.812500000000000069e-02 2.473860000000000035e-03 3.023780968984946416e+00
9.374999999999999653e-03 5.432059999999999840e-03 4.055852187956366706e+00
3.125000000000000173e-03 7.183229999999999650e-03 3.098920307112484451e+00
0.000000000000000000e+00 7.641599999999999478e-04 2.567215801560577049e+00
0.000000000000000000e+00 3.358230000000000134e-04 3.036308469992334391e+00
0.000000000000000000e+00 1.334420000000000051e-02 4.049013684664519275e+00
6.250000000000000347e-03 7.958780000000000368e-03 4.625025397510934333e+00
0.000000000000000000e+00 2.271750000000000061e-05 1.436405396530364253e+00
0.000000000000000000e+00 5.544180000000000115e-03 1.279749955176516796e+00
0.000000000000000000e+00 1.047100000000000027e-03 1.410572381103025741e-01
0.000000000000000000e+00 8.365440000000000462e-04 4.612835142763150209e+00
3.125000000000000000e-02 9.720450000000000271e-03 4.005336583465878952e+00
0.000000000000000000e+00 4.648319999999999839e-04 4.823403912461212251e+00
2.500000000000000139e-02 4.760400000000000048e-02 1.299326323944675066e+00
1.874999999999999931e-02 2.443970000000000170e-03 2.853692091359877558e+00
1.250000000000000069e-02 2.821440000000000146e-03 4.574675118270904450e-01
0.000000000000000000e+00 1.042940000000000013e-03 3.642913688810955453e+00
0.000000000000000000e+00 1.121470000000000062e-03 1.865724641585667642e+00
5.000000000000000278e-02 3.360409999999999786e-02 2.603870173955086242e-01
0.000000000000000000e+00 6.109439999999999836e-04 4.458785291229951930e+00
0.000000000000000000e+00 6.683300000000000352e-02 4.307226217954340797e+00
4.374999999999999722e-02 9.193320000000000658e-02 4.383870324779714167e+00
0.000000000000000000e+00 9.612800000000000121e-04 1.222897120068897614e+00
3.125000000000000173e-03 1.025520000000000077e-02 2.899150412197464277e+00
0.000000000000000000e+00 4.528000000000000015e-04 4.667553668377672160e+00
3.125000000000000173e-03 2.326589999999999908e-03 1.686065290184150633e+00
0.000000000000000000e+00 3.471999999999999826e-04 1.329828165308807986e+00
2.500000000000000139e-02 3.814669999999999866e-02 3.335628651697511771e+00
3.125000000000000173e-03 1.155570000000000035e-02 4.305140224302936858e+00
2.812500000000000069e-02 4.891460000000000252e-03 3.935275315618956604e+00
1.562500000000000000e-02 2.119999999999999923e-03 2.176238997686086307e+00
0.000000000000000000e+00 1.127100000000000020e-03 2.828484835705173950e+00
3.125000000000000173e-03 1.945010000000000142e-02 5.522588329373773197e-01
0.000000000000000000e+00 9.637759999999999556e-04 4.587594354266919083e+00
3.125000000000000173e-03 1.024830000000000012e-02 1.221680407357272902e-01
6.875000000000000555e-02 2.450590000000000060e-02 2.151076472933979744e+00
8.125000000000000278e-02 4.056450000000000333e-02 1.545660720324701920e+00
3.125000000000000173e-03 1.303740000000000064e-03 2.643990641143991738e+00
0.000000000000000000e+00 1.339139999999999948e-03 9.986925675837016181e-01
9.374999999999999653e-03 3.717469999999999802e-02 2.065876206481213728e+00
2.187499999999999861e-02 9.233629999999999616e-02 2.831171398771619607e+00
0.000000000000000000e+00 1.700609999999999969e-02 4.285809689418023538e+00
1.874999999999999931e-02 9.350229999999999653e-02 3.808289987806995569e+00
2.500000000000000139e-02 2.789439999999999802e-03 7.152683704837775602e-01
0.000000000000000000e+00 1.051779999999999989e-03 4.023418891862937663e+00
1.874999999999999931e-02 2.865729999999999927e-03 1.919708566558599561e+00
6.250000000000000347e-03 6.291459999999999587e-03 3.173318893404150742e+00
0.000000000000000000e+00 5.017140000000000011e-04 1.315236754924078877e+00
0.000000000000000000e+00 9.267840000000000496e-04 4.834259099122928394e-01
2.500000000000000139e-02 2.888770000000000140e-03 1.184148765148954618e+00
0.000000000000000000e+00 2.986880000000000242e-04 3.948730172021945428e+00
0.000000000000000000e+00 8.647680000000000254e-04 2.855220593813980301e+00
3.125000000000000173e-03 2.068990000000000152e-03 4.612619548120332702e+00
0.000000000000000000e+00 1.387019999999999876e-04 2.530142646050020261e+00
0.000000000000000000e+00 1.780240000000000086e-05 2.892097520885669404e+00
0.000000000000000000e+00 1.098500000000000084e-03 4.452756655521529439e+00
0.000000000000000000e+00 8.181710000000000241e-04 3.175925715452853737e+00
3.125000000000000173e-03 1.909249999999999836e-02 1.583651877126027063e+00
3.125000000000000173e-03 5.056449999999999660e-03 1.526077376993931090e+00
0.000000000000000000e+00 1.134589999999999991e-03 1.787480663033098605e+00
3.125000000000000173e-03 5.339779999999999700e-03 2.202714491459809576e+00
3.749999999999999861e-02 3.980979999999999935e-02 4.582780595276029878e+00
0.000000000000000000e+00 7.299200000000000046e-04 3.862820062376209895e-01
4.687500000000000000e-02 8.256710000000000438e-02 1.792177026856944799e-01
1.874999999999999931e-02 2.924260000000000054e-02 4.857488409955018405e+00
0.000000000000000000e+00 4.135419999999999786e-04 2.058906762672119140e+00
0.000000000000000000e+00 1.598849999999999924e-02 4.163054196748653624e+00
0.000000000000000000e+00 1.380050000000000027e-02 1.135941674009384172e+00
3.125000000000000173e-03 4.272129999999999851e-03 2.253586988008082326e+00
1.874999999999999931e-02 3.615489999999999850e-03 2.327250852563205630e+00
0.000000000000000000e+00 1.780030000000000154e-02 5.798312384841808331e-01
9.374999999999999653e-03 4.389060000000000183e-03 4.503993388939064868e-01
1.874999999999999931e-02 2.873979999999999937e-03 1.204413619305760186e+00
6.250000000000000347e-03 6.291459999999999587e-03 3.222535521320464724e+00
3.125000000000000173e-03 4.740610000000000136e-03 1.859804606719446696e+00
0.000000000000000000e+00 4.282910000000000232e-04 2.082312246656601307e+00
0.000000000000000000e+00 4.220070000000000136e-04 3.917463914252374391e+00
1.250000000000000069e-02 1.866049999999999957e-03 4.321490987183331356e+00
1.874999999999999931e-02 2.823040000000000185e-03 3.870885961275150056e+00
3.125000000000000173e-03 9.822970000000000312e-02 4.942012387921415950e+00
3.125000000000000173e-03 4.446780000000000004e-03 9.179314616669786986e-01
3.125000000000000173e-03 9.618669999999999998e-02 1.811360602361684169e+00
1.250000000000000069e-02 1.901380000000000041e-03 3.482162136418822218e+00
0.000000000000000000e+00 1.441980000000000041e-03 1.480867115155964919e+00
9.374999999999999653e-03 9.206559999999999744e-02 3.187779451853248958e+00
3.125000000000000173e-03 7.937649999999999220e-03 1.978950541186597079e-01
1.874999999999999931e-02 2.030339999999999836e-03 1.451025170591218494e+00
0.000000000000000000e+00 0.000000000000000000e+00 3.965955005972043868e+00
1.874999999999999931e-02 2.699009999999999951e-03 3.771633841891457450e+00
2.500000000000000139e-02 2.285699999999999885e-03 8.545322749367695314e-01
1.250000000000000069e-02 1.049520000000000036e-01 2.869410071410051444e+00
0.000000000000000000e+00 1.131520000000000008e-03 3.411403225626317148e+00
0.000000000000000000e+00 2.334160000000000054e-02 8.062099865552008193e-01
0.000000000000000000e+00 1.654399999999999881e-04 4.767504729121878171e+00
3.125000000000000173e-03 9.710879999999999512e-02 3.576540961916812478e+00
1.874999999999999931e-02 2.452670000000000110e-03 6.989979994184208900e-01
0.000000000000000000e+00 3.807740000000000105e-04 2.184149478506315134e+00
0.000000000000000000e+00 3.381390000000000090e-02 3.899024348008526708e+00
0.000000000000000000e+00 1.128000000000000096e-03 3.046693431822882658e+00
9.374999999999999653e-03 4.815169999999999693e-03 3.020488804070285305e+00
1.562500000000000000e-02 3.377470000000000038e-03 3.740814096983435810e+00
2.812500000000000069e-02 8.262459999999999249e-03 1.496952411447912690e+00
6.250000000000000347e-03 1.994179999999999911e-03 2.586225741410567824e+00
3.125000000000000173e-03 1.064939999999999984e-02 4.363981431646630327e+00
0.000000000000000000e+00 7.126850000000000112e-04 8.450592388688255019e-01
0.000000000000000000e+00 1.081850000000000086e-03 1.852875494153988889e+00
2.500000000000000139e-02 4.895619999999999833e-03 6.445073550831303955e-01
5.625000000000000139e-02 9.477889999999999232e-03 4.591888517444125739e+00
5.000000000000000278e-02 3.843490000000000101e-02 4.576098132266753771e-01
0.000000000000000000e+00 2.315960000000000100e-05 2.989316268827107992e-01
1.562500000000000000e-02 2.065219999999999990e-03 4.409214578476348123e+00
2.187499999999999861e-02 2.870080000000000114e-03 7.333955438751588174e-01
0.000000000000000000e+00 7.331409999999999793e-04 1.735477823459569136e-01
0.000000000000000000e+00 9.577599999999999916e-04 2.603997315548316038e+00
0.000000000000000000e+00 4.056959999999999863e-04 3.036434492942211349e+00
3.125000000000000173e-03 7.638109999999999344e-02 2.222764942425130563e+00
0.000000000000000000e+00 2.518340000000000162e-02 2.025396396697598522e-01
6.250000000000000347e-03 4.165249999999999682e-03 4.367667255320102804e+00
1.250000000000000069e-02 3.162180000000000112e-03 5.679931423443229654e-01
3.125000000000000173e-03 7.929699999999999596e-03 3.102885567060764238e+00
6.250000000000000347e-03 1.297479999999999987e-02 6.234085965909108573e-01
2.187499999999999861e-02 6.741819999999999931e-03 4.340182896899187348e+00
3.125000000000000173e-03 4.333949999999999608e-03 4.410333681547843554e+00
3.125000000000000173e-03 9.684289999999999565e-02 2.175395813818860713e+00
3.125000000000000000e-02 3.892799999999999733e-02 3.454496109904874324e+00
0.000000000000000000e+00 1.251780000000000080e-02 3.259435154531358236e+00
0.000000000000000000e+00 1.698559999999999946e-04 6.522068477707088086e-01
0.000000000000000000e+00 0.000000000000000000e+00 2.017860417423288588e+00
0.000000000000000000e+00 1.189119999999999934e-02 4.414432450297933741e+00
0.000000000000000000e+00 6.924220000000000461e-04 4.552258903192790696e-01
0.000000000000000000e+00 3.933440000000000070e-04 3.665079225288330189e+00
1.562500000000000000e-02 9.647379999999999844e-02 3.275019258473237382e+00
2.187499999999999861e-02 2.861629999999999990e-03 4.285112065234714107e-01
0.000000000000000000e+00 1.532719999999999916e-02 4.561529358378136223e+00
9.374999999999999653e-03 4.082429999999999740e-03 1.369033802688814916e+00
0.000000000000000000e+00 9.940030000000000306e-04 3.613013058457478444e+00
1.562500000000000000e-02 2.854980000000000018e-03 2.344523224180810494e+00
6.250000000000000347e-03 9.498139999999999361e-02 3.967794357650003434e+00
0.000000000000000000e+00 5.076129999999999661e-04 3.234412689711801958e-01
3.125000000000000173e-03 2.001020000000000056e-03 3.427788069204663834e+00
0.000000000000000000e+00 9.185919999999999763e-04 4.998970358158238980e-01
0.000000000000000000e+00 2.292109999999999981e-05 1.731419494405118664e+00
6.250000000000000347e-03 9.920510000000000439e-03 3.213891530120833728e+00
0.000000000000000000e+00 1.985920000000000122e-04 2.008338065529778227e+00
0.000000000000000000e+00 1.704320000000000108e-04 3.927749672963907202e+00
0.000000000000000000e+00 3.994339999999999696e-02 3.737545304471454610e+00
0.000000000000000000e+00 7.335259999999999697e-04 4.198724219086278353e+00
1.874999999999999931e-02 1.508289999999999978e-02 3.710222161035248600e+00
6.250000000000000347e-03 6.291459999999999587e-03 9.028250501558698904e-02
0.000000000000000000e+00 1.001759999999999977e-03 4.747141698967865864e+00
1.874999999999999931e-02 2.476610000000000183e-03 7.895627569159069381e-02
2.500000000000000139e-02 9.194589999999999708e-02 1.024274825259776200e+00
0.000000000000000000e+00 7.355779999999999697e-04 1.996201207784392695e+00
1.562500000000000000e-02 2.551490000000000008e-02 2.666580308825259760e+00
5.000000000000000278e-02 9.133890000000000411e-03 1.016040244057780484e+00
3.125000000000000173e-03 1.912379999999999983e-03 3.857231101138650864e+00
6.250000000000000347e-03 1.800189999999999907e-03 1.780046110684963434e+00
0.000000000000000000e+00 7.312170000000000432e-04 1.315216800353397053e-01
1.562500000000000000e-02 1.410620000000000016e-03 4.092811094862006449e+00
3.125000000000000173e-03 5.115619999999999890e-02 4.110414345775212475e+00
0.000000000000000000e+00 9.725439999999999910e-04 4.195183430881953335e+00
0.000000000000000000e+00 6.515440000000000120e-02 1.672405001145507164e+00
2.500000000000000139e-02 9.203880000000000394e-02 4.459385727970206048e+00
0.000000000000000000e+00 2.230990000000000132e-05 2.356512862346515913e-01
1.250000000000000069e-02 2.779709999999999907e-03 3.271343638856234470e+00
0.000000000000000000e+00 2.421739999999999917e-03 3.793689535334112239e+00
0.000000000000000000e+00 1.055619999999999952e-03 4.553484994192718460e+00
1.874999999999999931e-02 2.511039999999999973e-03 3.346713925473854268e-01
0.000000000000000000e+00 5.242359999999999728e-03 3.746855811030715522e+00
0.000000000000000000e+00 1.940580000000000083e-02 1.019665238333880009e+00
0.000000000000000000e+00 1.034049999999999900e-03 4.013492530895328869e+00
0.000000000000000000e+00 6.663729999999999654e-02 3.959243671912777263e+00
1.874999999999999931e-02 1.740860000000000107e-03 1.603876241287445659e+00
2.500000000000000139e-02 2.485629999999999958e-03 4.805145254949451328e+00
0.000000000000000000e+00 9.742519999999999956e-04 4.823655461928533228e-03
0.000000000000000000e+00 3.523029999999999912e-04 4.523614443025005372e+00
3.125000000000000173e-03 4.834620000000000410e-03 4.652219165507508691e+00
0.000000000000000000e+00 1.072510000000000043e-03 4.088870079936159918e+00
0.000000000000000000e+00 4.222720000000000119e-04 7.225370343193598943e-01
9.374999999999999653e-03 9.607330000000000036e-02 2.062479681392741959e+00
0.000000000000000000e+00 3.014530000000000074e-03 3.935109036015098649e+00
2.500000000000000139e-02 2.025859999999999987e-03 1.249603003111984911e+00
1.562500000000000000e-02 1.239269999999999955e-02 4.733416638722879100e+00
3.125000000000000173e-03 4.678339999999999582e-03 2.638593489962453909e+00
2.500000000000000139e-02 3.911229999999999915e-03 1.070930903975011894e+00
4.374999999999999722e-02 9.397289999999999810e-02 1.188489138410853130e-02
2.187499999999999861e-02 4.735820000000000307e-02 2.640358404059362840e+00
3.125000000000000173e-03 1.894250000000000100e-02 4.389126349848091024e+00
1.874999999999999931e-02 2.195710000000000023e-03 4.093301601719997684e+00
0.000000000000000000e+00 1.121859999999999915e-03 3.366814621545742181e+00
3.125000000000000173e-03 5.327039999999999900e-03 2.095906411030710181e+00
3.125000000000000173e-03 9.222640000000000005e-02 3.268224513620513250e+00
2.500000000000000139e-02 1.920059999999999909e-03 3.412513056244992349e+00
3.125000000000000173e-03 1.235179999999999959e-02 2.116737776725696740e+00
6.250000000000000347e-03 2.098109999999999819e-03 3.830224373059718523e+00
0.000000000000000000e+00 2.852860000000000031e-03 1.000801713983212604e+00
3.125000000000000000e-02 9.729750000000000551e-03 9.326409631516985321e-02
0.000000000000000000e+00 8.813440000000000510e-04 1.623797359907605653e+00
3.125000000000000173e-03 1.850499999999999931e-03 3.110570618888649719e+00
0.000000000000000000e+00 9.301119999999999744e-04 1.332547552319807149e+00
0.000000000000000000e+00 4.199550000000000136e-04 2.339339290523132497e+00
1.562500000000000000e-02 3.798250000000000237e-02 2.466515143630030327e+00
0.000000000000000000e+00 1.303980000000000070e-02 1.205384217508768785e+00
0.000000000000000000e+00 1.072379999999999948e-03 2.517729831397696572e+00
2.187499999999999861e-02 3.280260000000000120e-03 4.252547141673810316e+00
0.000000000000000000e+00 1.076469999999999944e-03 3.967866616767370846e+00
0.000000000000000000e+00 8.795520000000000248e-04 3.143534849303196488e+00
0.000000000000000000e+00 3.712769999999999786e-03 3.852872003608122764e+00
1.187499999999999944e-01 8.106080000000000230e-02 2.293145071038562133e+00
0.000000000000000000e+00 1.086850000000000099e-03 2.258135644343792325e+00
0.000000000000000000e+00 1.167799999999999915e-02 2.474653829858086240e+00
1.562500000000000000e-02 2.124369999999999870e-01 3.027039227933985721e+00
3.125000000000000173e-03 2.616879999999999814e-03 3.781326073381862773e+00
6.250000000000000347e-03 9.979380000000000195e-02 9.019426127135760085e-01
0.000000000000000000e+00 1.805949999999999960e-03 3.432503661863970379e+00
0.000000000000000000e+00 2.164029999999999947e-03 1.517294682585825782e+00
1.562500000000000000e-02 2.065219999999999990e-03 1.999357480930934461e+00
0.000000000000000000e+00 8.361599999999999632e-04 3.312357295447904137e-01
0.000000000000000000e+00 9.475199999999999812e-04 4.904736327294259901e+00
0.000000000000000000e+00 1.057219999999999991e-03 4.115457741826958227e+00
0.000000000000000000e+00 3.446400000000000071e-04 2.514534565837971414e+00
3.125000000000000173e-03 2.525120000000000055e-03 3.174162121949087201e+00
2.500000000000000139e-02 2.981109999999999923e-03 2.551692224884524851e+00
0.000000000000000000e+00 6.907249999999999501e-02 4.297298066325019761e+00
0.000000000000000000e+00 1.101889999999999901e-03 2.936222362097212102e+00
3.125000000000000173e-03 2.420219999999999837e-03 4.836006873188440025e+00
1.250000000000000069e-02 9.245490000000000652e-02 3.313879258031404706e-01
1.125000000000000028e-01 9.483329999999999538e-02 1.152632998171472689e+00
0.000000000000000000e+00 1.062980000000000045e-03 3.735927729800635255e+00
1.250000000000000069e-02 2.325949999999999806e-03 4.882585528904751726e+00
0.000000000000000000e+00 7.793919999999999538e-04 3.258848203222411755e+00
0.000000000000000000e+00 9.263360000000000431e-04 3.983964923290876481e+00
0.000000000000000000e+00 1.087300000000000029e-03 2.938897972210530174e-02
0.000000000000000000e+00 1.092160000000000006e-03 1.701595617963270080e+00
0.000000000000000000e+00 5.225600000000000384e-04 4.222588739962616522e+00
1.562500000000000000e-02 1.570819999999999899e-03 3.463692179881511457e+00
3.125000000000000173e-03 1.017840000000000064e-02 4.167474519419991807e+00
1.874999999999999931e-02 9.405750000000000222e-02 2.869539537036652765e-01
6.250000000000000347e-03 1.094590000000000103e-03 4.542629040657300443e+00
1.250000000000000069e-02 2.468479999999999893e-03 1.144361088489191491e+00
0.000000000000000000e+00 2.294320000000000083e-05 3.947224933739584829e-01
0.000000000000000000e+00 2.075459999999999892e-03 1.605693057999115769e+00
0.000000000000000000e+00 2.853950000000000063e-03 9.527858784946235948e-01
0.000000000000000000e+00 6.311039999999999532e-04 3.397416574054267002e+00
0.000000000000000000e+00 7.206369999999999920e-04 4.077771009318448492e+00
0.000000000000000000e+00 5.096649999999999662e-04 3.223322691975893495e+00
0.000000000000000000e+00 4.440659999999999920e-03 1.905829126196190160e-01
0.000000000000000000e+00 5.494399999999999978e-04 1.048021879904286635e+00
3.125000000000000173e-03 5.288189999999999905e-03 4.559127627862455512e+00
3.125000000000000000e-02 7.972929999999999601e-03 3.042493528204767816e+00
0.000000000000000000e+00 2.023039999999999929e-04 4.638004969362991226e+00
0.000000000000000000e+00 1.657600000000000122e-04 1.770051009506313777e+00
9.687500000000000278e-02 7.145310000000000550e-02 1.536711050250381572e+00
0.000000000000000000e+00 1.200829999999999953e-03 4.889715193335248067e+00
0.000000000000000000e+00 1.002660000000000053e-03 3.948712828223280624e+00
0.000000000000000000e+00 4.235460000000000136e-04 2.823574835470704869e+00
6.250000000000000347e-03 3.165059999999999922e-03 4.967188994124293266e+00
1.874999999999999931e-02 2.900670000000000158e-03 1.748444936066440469e+00
3.125000000000000173e-03 1.010020000000000015e-02 2.283428945999790738e+00
1.562500000000000000e-02 2.528579999999999890e-03 3.981261396784763207e-01
0.000000000000000000e+00 4.886400000000000379e-04 1.887568837248105424e+00
2.500000000000000139e-02 2.008579999999999827e-03 4.492264908806774315e+00
0.000000000000000000e+00 1.788799999999999895e-03 1.727548057251691027e+00
0.000000000000000000e+00 5.603010000000000282e-03 4.083776923196419384e-01
3.125000000000000173e-03 4.841340000000000400e-03 4.508778566488664374e+00
0.000000000000000000e+00 4.222629999999999786e-04 3.880912620076604203e-01
6.250000000000000347e-03 4.668349999999999930e-03 1.997456928369285567e+00
0.000000000000000000e+00 3.545479999999999942e-04 4.890100711774900688e+00
0.000000000000000000e+00 1.086979999999999977e-03 1.608280005971462590e+00
0.000000000000000000e+00 4.126439999999999882e-04 2.617251824545976380e+00
6.250000000000000347e-03 1.514560000000000082e-03 4.610140759252931097e+00
6.250000000000000347e-03 1.509700000000000104e-03 4.633157230805251103e+00
3.125000000000000173e-03 5.300990000000000216e-03 4.206718758394764279e+00
0.000000000000000000e+00 1.200700000000000075e-03 3.932845407834578699e-01
0.000000000000000000e+00 1.194090000000000082e-02 5.159888271811052807e-01
1.562500000000000000e-02 2.016379999999999909e-03 4.404237593036691045e+00
5.937499999999999722e-02 1.088579999999999964e-01 1.497987628409519489e-01
0.000000000000000000e+00 1.001790000000000016e-03 2.550807634655212208e+00
3.125000000000000173e-03 1.797060000000000064e-03 4.316121547281415172e-01
9.374999999999999653e-03 2.373179999999999908e-03 4.594430871667549710e+00
6.250000000000000347e-03 9.685839999999999728e-02 1.119627991601193084e+00
0.000000000000000000e+00 1.023819999999999938e-03 1.665120609237148441e+00
0.000000000000000000e+00 5.374079999999999612e-04 2.825707710800946959e+00
1.874999999999999931e-02 2.713020000000000015e-03 2.728628040459105009e+00
9.374999999999999653e-03 1.278409999999999963e-02 6.652753121323706775e-01
6.250000000000000347e-03 1.776329999999999923e-02 2.217018842197648887e-01
3.125000000000000173e-03 2.387049999999999936e-03 3.473214895360832610e+00
2.500000000000000139e-02 1.796929999999999968e-03 4.032822594465978128e+00
3.125000000000000173e-03 1.180550000000000002e-02 2.166430546221060904e+00
2.500000000000000139e-02 3.799680000000000158e-03 1.346506295735621084e+00
2.500000000000000139e-02 2.071359999999999955e-03 2.997822084562431932e+00
6.250000000000000347e-03 9.657789999999999431e-02 9.587109930842185879e-01
3.125000000000000173e-03 4.908159999999999953e-03 2.891632467475415691e+00
6.250000000000000347e-03 3.198270000000000019e-03 2.332657780237834544e-01
0.000000000000000000e+00 4.139270000000000232e-04 1.423934301060619134e+00
2.187499999999999861e-02 1.937149999999999896e-03 8.771156012330577623e-01
0.000000000000000000e+00 1.164349999999999977e-03 4.553412946764560765e+00
0.000000000000000000e+00 4.270079999999999883e-04 2.086323147338843498e+00
0.000000000000000000e+00 5.498719999999999693e-04 2.987386633453585461e+00
3.125000000000000173e-03 9.574699999999999878e-02 6.896395871647814646e-01
3.125000000000000173e-03 4.352960000000000336e-03 1.570139452540336045e+00
6.250000000000000347e-03 1.028519999999999955e-02 3.550290571783965010e+00
1.874999999999999931e-02 1.872449999999999896e-03 1.115059477420045742e+00
0.000000000000000000e+00 1.102719999999999959e-03 2.493369897236354049e+00
9.374999999999999653e-03 1.858300000000000013e-03 2.543492206974042880e+00
1.562500000000000000e-02 2.460480000000000132e-03 1.544565382370697737e+00
0.000000000000000000e+00 1.065860000000000071e-03 1.349969832140932580e+00
9.374999999999999653e-03 5.252539999999999987e-03 1.447611976060633854e+00
0.000000000000000000e+00 1.740669999999999934e-03 2.164715286766618618e+00
0.000000000000000000e+00 4.940189999999999469e-04 1.928270286223010554e+00
0.000000000000000000e+00 3.836159999999999809e-04 3.690829914353856545e+00
0.000000000000000000e+00 5.465539999999999635e-03 1.316818506293076396e+00
9.374999999999999653e-03 3.093760000000000086e-03 1.115956159483936894e+00
0.000000000000000000e+00 8.257919999999999974e-04 1.087845985991239273e+00
6.250000000000000347e-03 1.559939999999999894e-03 4.453710955661289717e+00
0.000000000000000000e+00 7.287160000000000208e-04 3.454397520503811769e+00
0.000000000000000000e+00 3.994240000000000030e-04 1.826367001621046482e+00
0.000000000000000000e+00 2.419220000000000051e-02 3.116847644717366972e+00
1.250000000000000069e-02 2.567999999999999970e-03 4.305858421771040057e+00
1.874999999999999931e-02 2.760639999999999969e-03 3.649502177950049830e+00
0.000000000000000000e+00 7.194820000000000208e-04 4.641521326626535604e+00
0.000000000000000000e+00 1.158020000000000056e-03 3.626859496967357988e+00
0.000000000000000000e+00 1.820930000000000049e-01 3.967017134408874490e+00
2.812500000000000069e-02 1.805380000000000092e-03 1.655692634244958050e+00
0.000000000000000000e+00 2.122240000000000064e-04 1.998922968103952202e+00
6.250000000000000347e-03 1.930029999999999940e-02 3.153123995769452348e-01
0.000000000000000000e+00 6.082560000000000527e-04 3.209384679423392228e+00
6.250000000000000347e-03 4.911809999999999961e-03 2.590927982703344234e+00
0.000000000000000000e+00 3.810560000000000054e-04 6.658140904274528760e-01
1.562500000000000000e-02 2.005569999999999922e-03 2.443904531061529273e+00
0.000000000000000000e+00 1.034109999999999977e-03 4.207842115859027565e+00
0.000000000000000000e+00 1.551360000000000000e-04 2.120367077332185879e+00
1.250000000000000069e-02 3.862539999999999724e-02 1.431892814684651016e+00
0.000000000000000000e+00 1.657730000000000054e-03 1.705324416157125711e+00
0.000000000000000000e+00 1.422080000000000045e-04 1.975850842679407027e+00
1.874999999999999931e-02 1.841469999999999999e-03 1.439875588188296307e+00
0.000000000000000000e+00 2.282939999999999796e-03 2.395925154331064455e+00
0.000000000000000000e+00 3.820159999999999962e-04 2.836493882412712164e+00
2.500000000000000139e-02 3.503739999999999979e-03 1.362298924417600920e+00
2.500000000000000139e-02 2.745979999999999862e-03 4.823296285038820130e+00
0.000000000000000000e+00 1.802819999999999900e-03 9.235162921471046227e-01
0.000000000000000000e+00 4.529790000000000010e-04 2.260218757912885845e+00
1.874999999999999931e-02 2.111149999999999971e-01 2.472936833934169965e+00
0.000000000000000000e+00 4.502670000000000283e-02 3.119434816367755658e+00
0.000000000000000000e+00 7.898280000000000144e-04 2.921681451231966875e+00
2.500000000000000139e-02 2.961089999999999989e-03 4.224621438069870116e+00
5.312499999999999861e-02 9.510180000000000022e-02 3.220823781260299778e+00
0.000000000000000000e+00 1.049220000000000014e-03 1.433672590278262104e-01
0.000000000000000000e+00 4.118209999999999753e-03 2.670656782893393588e-01
0.000000000000000000e+00 4.323309999999999913e-04 1.879492246874779227e+00
0.000000000000000000e+00 1.363199999999999959e-04 8.095358494688231765e-01
1.874999999999999931e-02 2.616879999999999901e-02 3.279857498191446119e+00
0.000000000000000000e+00 1.828420000000000021e-05 2.534203038929466523e+00
2.500000000000000139e-02 2.494080000000000082e-03 3.867778930230936663e+00
2.500000000000000139e-02 1.879229999999999963e-03 4.368528495646041065e+00
2.187499999999999861e-02 2.189060000000000051e-03 3.547306814950884624e-01
1.874999999999999931e-02 1.287830000000000051e-02 4.190515008593730606e+00
0.000000000000000000e+00 1.164950000000000013e-02 4.061041659372099488e+00
1.562500000000000000e-02 2.455940000000000206e-03 1.270844115291478893e+00
0.000000000000000000e+00 2.282540000000000003e-05 1.590395438608290135e+00
0.000000000000000000e+00 4.104000000000000009e-04 2.869806284604164315e+00
2.187499999999999861e-02 2.456349999999999853e-02 2.076959412586926179e-01
2.812500000000000069e-02 1.882109999999999990e-03 1.414858835667137660e-01
6.250000000000000347e-03 1.030960000000000036e-02 9.241109036868910831e-01
3.125000000000000000e-02 9.216879999999999518e-02 3.223261261521516818e+00
1.874999999999999931e-02 1.821890000000000055e-03 1.913445467110960863e+00
0.000000000000000000e+00 1.121019999999999916e-03 3.915116376565630496e+00
6.250000000000000347e-03 9.296949999999999659e-02 4.715213781648751379e+00
3.749999999999999861e-02 9.313269999999999882e-02 3.269855210482919272e-01
0.000000000000000000e+00 1.988809999999999883e-02 4.191094372684169400e+00
0.000000000000000000e+00 9.160190000000000346e-03 2.443689572517726560e-04
3.125000000000000173e-03 1.546950000000000061e-02 4.117008627334407755e+00
5.312499999999999861e-02 8.016449999999999618e-03 3.906493712404235374e+00
2.500000000000000139e-02 3.552969999999999913e-03 2.266533143374240833e+00
0.000000000000000000e+00 9.271839999999999509e-04 1.399223341051814007e+00
5.312499999999999861e-02 4.019210000000000144e-02 1.422546966198585672e+00
2.500000000000000139e-02 9.262170000000000125e-02 8.376963040244939096e-01
0.000000000000000000e+00 1.109949999999999956e-03 2.944904098223686262e+00
1.250000000000000069e-02 3.509439999999999955e-03 2.808890003923931289e+00
2.187499999999999861e-02 2.392510000000000036e-03 1.345902195916710120e+00
3.125000000000000173e-03 9.055149999999999311e-02 1.551579685735652969e+00
2.500000000000000139e-02 3.343420000000000159e-03 2.767384253988203202e-01
0.000000000000000000e+00 6.349020000000000141e-04 1.001019595970931153e-01
3.125000000000000173e-03 1.412530000000000036e-02 2.512168480499792356e+00
0.000000000000000000e+00 6.308690000000000131e-02 3.310153641967958915e+00
2.812500000000000069e-02 1.840320000000000107e-03 3.067255866959386790e+00
0.000000000000000000e+00 8.960189999999999605e-04 4.298091775791998082e+00
0.000000000000000000e+00 3.675579999999999906e-03 4.161817035620314797e+00
0.000000000000000000e+00 4.957630000000000196e-03 2.205389030752080259e+00
0.000000000000000000e+00 1.135230000000000093e-03 9.496495779201624687e-01
0.000000000000000000e+00 1.604860000000000054e-03 4.911725186441285196e+00
3.125000000000000173e-03 1.884610000000000105e-03 3.920081183795422586e+00
3.125000000000000173e-03 2.837380000000000024e-03 4.910499881971636782e+00
0.000000000000000000e+00 5.794560000000000032e-04 4.575957996788814874e+00
0.000000000000000000e+00 7.333980000000000143e-04 4.086072140971937827e+00
0.000000000000000000e+00 1.479810000000000023e-03 1.237230704977880791e+00
0.000000000000000000e+00 4.730499999999999788e-04 1.456397398223563844e+00
1.874999999999999931e-02 3.092290000000000143e-03 8.016218350977827312e-01
0.000000000000000000e+00 3.792639999999999792e-04 2.675466802165982649e+00
0.000000000000000000e+00 1.468930000000000019e-03 3.061817062689257796e+00
0.000000000000000000e+00 3.391569999999999785e-04 3.422186161147063643e+00
3.125000000000000173e-03 4.619579999999999867e-03 4.292396841650986339e+00
0.000000000000000000e+00 2.898680000000000007e-02 3.915598571442219900e+00
0.000000000000000000e+00 3.019520000000000255e-04 3.672563186111756472e+00
0.000000000000000000e+00 2.599300000000000135e-03 1.760786100586940739e+00
6.250000000000000347e-03 6.291459999999999587e-03 4.275188366834490772e+00
0.000000000000000000e+00 1.059899999999999905e-03 3.724146627117511876e+00
9.374999999999999653e-03 1.645250000000000011e-03 2.622826970625656173e+00
3.125000000000000173e-03 2.012420000000000007e-03 1.122805513724466353e+00
0.000000000000000000e+00 1.144639999999999937e-03 6.224213915222620574e-01
3.437500000000000278e-02 3.992539999999999978e-02 9.402035311724071809e-01
0.000000000000000000e+00 3.950720000000000013e-04 4.120481532334210328e+00
0.000000000000000000e+00 1.863679999999999883e-04 9.354278787384762150e-01
3.125000000000000173e-03 1.414529999999999997e-03 3.579868791890581381e+00
0.000000000000000000e+00 6.497450000000000447e-02 4.785543308463219070e+00
0.000000000000000000e+00 7.704320000000000395e-04 4.706469364000691158e+00
0.000000000000000000e+00 1.353660000000000019e-03 4.543225635673410423e+00
0.000000000000000000e+00 4.886400000000000379e-04 2.366414375549388716e+00
0.000000000000000000e+00 2.486400000000000047e-04 2.961698357214066935e+00
0.000000000000000000e+00 1.286269999999999948e-03 1.311204267344414198e+00
0.000000000000000000e+00 3.036749999999999866e-02 4.611273758689226732e+00
3.437500000000000278e-02 2.774700000000000083e-02 9.632846410603401743e-01
0.000000000000000000e+00 5.275069999999999759e-03 7.025464934973341125e-01
0.000000000000000000e+00 4.056320000000000086e-04 2.089788556412305098e+00
0.000000000000000000e+00 2.287090000000000154e-05 1.692728439964142906e+00
0.000000000000000000e+00 2.471069999999999864e-02 1.624767433192574329e+00
3.125000000000000173e-03 4.981249999999999567e-03 4.864724685165104034e+00
3.125000000000000173e-03 4.848260000000000070e-03 3.587627610853147075e+00
3.125000000000000173e-03 9.129730000000000831e-03 2.629790516076238482e+00
0.000000000000000000e+00 1.704959999999999885e-04 3.156554260534992107e+00
1.874999999999999931e-02 2.566779999999999843e-03 4.050673880200040600e+00
0.000000000000000000e+00 6.543360000000000452e-04 2.138214529180335166e+00
9.374999999999999653e-03 1.546110000000000062e-03 4.732426413758511252e+00
1.250000000000000069e-02 2.456700000000000030e-03 7.316581806362171259e-01
2.500000000000000139e-02 1.071560000000000012e-01 2.704886694469519792e+00
0.000000000000000000e+00 4.236099999999999913e-04 3.683513181062840758e+00
0.000000000000000000e+00 1.543039999999999917e-04 1.443268882193177172e-01
0.000000000000000000e+00 2.549739999999999993e-02 2.172768974391164676e+00
0.000000000000000000e+00 5.415360000000000139e-04 4.159350163942546530e+00
3.125000000000000173e-03 4.592320000000000429e-03 4.985446583746796279e+00
1.562500000000000000e-02 2.119740000000000166e-03 2.445629117673198571e+00
3.437500000000000278e-02 9.474889999999999701e-02 2.807354222360232132e+00
0.000000000000000000e+00 7.504509999999999827e-03 2.391923765404463609e+00
3.125000000000000173e-03 4.528769999999999671e-03 7.526507236890783714e-01
0.000000000000000000e+00 1.883069999999999926e-03 1.255307800394498408e+00
2.500000000000000139e-02 4.563710000000000336e-03 6.461786960380505596e-01
1.250000000000000069e-02 2.095169999999999932e-03 4.472742482379956641e+00
0.000000000000000000e+00 1.061700000000000057e-03 4.140428080161173696e-01
0.000000000000000000e+00 1.129790000000000091e-03 5.365612127325214420e-01
