1.874999999999999931e-02 9.507809999999999873e-02 4.148576642941856463e+00
2.500000000000000139e-02 2.674619999999999949e-03 4.583361509251277610e+00
0.000000000000000000e+00 1.207739999999999899e-03 4.071900497952837483e+00
0.000000000000000000e+00 8.935040000000000430e-04 5.650579441652053836e-01
0.000000000000000000e+00 1.922309999999999991e-02 7.128083575440291586e-01
2.812500000000000069e-02 2.079870000000000156e-03 2.894703859237712784e-01
2.187499999999999861e-02 4.096319999999999649e-03 9.805062433129441146e-01
0.000000000000000000e+00 2.127940000000000040e-03 8.089008877736042491e-01
1.250000000000000069e-02 1.384819999999999975e-02 2.591954015194336769e+00
3.125000000000000000e-02 1.310719999999999941e-02 3.982430257419950603e+00
6.250000000000000347e-03 4.449019999999999711e-03 2.987930217053836657e+00
0.000000000000000000e+00 4.087329999999999913e-04 2.052652842299531155e+00
0.000000000000000000e+00 2.932740000000000086e-03 4.257224194836901177e+00
0.000000000000000000e+00 4.640000000000000027e-04 1.577496478738109165e+00
1.250000000000000069e-02 9.359080000000000177e-02 2.518415563681106750e+00
7.499999999999999722e-02 9.155140000000000500e-02 3.022168189001481764e+00
0.000000000000000000e+00 1.016699999999999939e-03 2.601068669141985090e+00
2.812500000000000069e-02 9.216510000000000674e-03 3.645025277184374524e+00
0.000000000000000000e+00 9.303039999999999617e-04 2.409312710229659871e+00
0.000000000000000000e+00 1.244099999999999937e-03 4.724903056420716396e+00
6.250000000000000347e-03 2.629569999999999911e-03 3.472106765346879342e+00
0.000000000000000000e+00 9.918080000000000559e-04 4.080165930207451552e+00
0.000000000000000000e+00 2.321339999999999862e-03 5.629789094452331000e-02
0.000000000000000000e+00 3.154310000000000230e-04 2.946938184418894213e+00
1.874999999999999931e-02 9.215650000000000230e-02 1.246464223651462255e+00
0.000000000000000000e+00 6.557439999999999884e-04 3.643638927126052529e+00
1.874999999999999931e-02 1.765059999999999936e-03 3.579470730054036487e+00
3.125000000000000173e-03 6.210569999999999979e-02 2.553693300331056459e+00
1.562500000000000000e-02 1.637699999999999963e-03 1.117912928434293685e+00
3.125000000000000173e-03 9.603589999999999349e-02 2.124375930144059232e+00
0.000000000000000000e+00 3.526889999999999973e-04 3.255365051375389562e+00
0.000000000000000000e+00 2.296859999999999893e-05 2.482228453879398167e-01
0.000000000000000000e+00 3.465969999999999750e-04 4.275385954836364633e+00
0.000000000000000000e+00 1.303300000000000075e-03 6.404161389876744659e-01
9.374999999999999653e-03 1.962250000000000105e-02 4.346497168680703460e+00
3.125000000000000173e-03 1.962180000000000001e-03 8.873901023853020265e-01
0.000000000000000000e+00 6.961860000000000270e-02 4.881117718767290725e+00
0.000000000000000000e+00 1.158530000000000063e-03 5.416187611324807527e-01
0.000000000000000000e+00 1.688319999999999990e-04 4.884674179495063218e-02
0.000000000000000000e+00 9.320699999999999472e-03 4.554649550473617303e+00
0.000000000000000000e+00 1.027659999999999962e-01 3.250088935681982427e+00
0.000000000000000000e+00 1.097820000000000002e-03 3.231561862121368200e+00
0.000000000000000000e+00 4.859900000000000331e-03 3.119584577990592855e+00
2.812500000000000069e-02 1.904129999999999972e-03 3.715223848503100168e+00
0.000000000000000000e+00 2.462410000000000163e-04 3.348114561979995685e+00
1.250000000000000069e-02 2.552510000000000022e-03 2.425159840649367293e+00
2.500000000000000139e-02 1.718270000000000040e-03 2.185763232818850987e+00
0.000000000000000000e+00 1.726089999999999916e-02 4.774714119485976127e+00
0.000000000000000000e+00 7.319870000000000239e-04 4.235322814671001801e+00
0.000000000000000000e+00 2.305239999999999972e-05 4.223349176415586825e+00
3.125000000000000173e-03 1.547339999999999913e-03 1.223490191226153545e+00
0.000000000000000000e+00 1.320130000000000088e-03 4.980257262583763556e+00
0.000000000000000000e+00 4.495690000000000103e-02 2.127847428529344498e+00
3.125000000000000173e-03 1.753280000000000073e-03 9.705209295679934067e-01
0.000000000000000000e+00 3.799410000000000135e-04 3.925087914470784867e+00
4.374999999999999722e-02 1.063670000000000032e-01 2.390887222083666774e+00
0.000000000000000000e+00 1.084670000000000035e-03 2.389478401242478789e+00
9.374999999999999653e-03 9.220530000000000392e-02 3.960008948367723658e+00
0.000000000000000000e+00 3.065920000000000190e-03 1.120073400128377417e+00
9.374999999999999653e-03 1.215300000000000104e-03 3.849961978267983920e+00
0.000000000000000000e+00 1.830880000000000007e-02 4.107472981486209207e+00
3.125000000000000173e-03 4.391619999999999725e-03 2.160514623344840679e+00
0.000000000000000000e+00 6.895279999999999465e-02 3.382307013984129807e+00
0.000000000000000000e+00 0.000000000000000000e+00 3.931766628161066812e+00
2.187499999999999861e-02 2.351680000000000090e-03 3.402856235308068911e+00
0.000000000000000000e+00 2.509379999999999857e-03 4.811400209411788254e+00
3.125000000000000173e-03 9.508610000000000673e-03 2.391930279187417518e+00
0.000000000000000000e+00 1.104579999999999972e-03 1.696706940269607333e+00
0.000000000000000000e+00 5.284480000000000254e-03 2.613659983253614705e+00
0.000000000000000000e+00 1.321410000000000076e-03 3.422917610595231253e+00
0.000000000000000000e+00 5.532160000000000376e-04 1.126445576299164752e+00
3.125000000000000173e-03 4.905020000000000387e-03 6.467005891326277345e-01
3.125000000000000173e-03 5.081089999999999912e-03 2.731502514257393432e+00
0.000000000000000000e+00 1.009340000000000064e-03 1.707194473173115234e+00
9.374999999999999653e-03 1.829059999999999974e-03 1.256128134041212707e+00
2.500000000000000139e-02 2.438019999999999944e-03 4.692379277012027394e+00
0.000000000000000000e+00 4.149530000000000232e-04 2.887298560702105110e+00
1.874999999999999931e-02 9.310290000000000232e-02 1.803635173972206296e+00
0.000000000000000000e+00 2.038399999999999999e-04 1.580121942634674648e+00
1.874999999999999931e-02 2.987459999999999942e-03 1.895998703007985009e+00
0.000000000000000000e+00 2.076220000000000149e-03 4.653285424825527983e+00
1.874999999999999931e-02 2.400259999999999980e-03 4.979031708531223011e+00
9.374999999999999653e-03 2.323459999999999848e-03 2.977606045222533915e+00
0.000000000000000000e+00 1.237309999999999929e-03 4.191214900265855192e+00
0.000000000000000000e+00 9.546240000000000541e-04 3.080224853706577282e+00
0.000000000000000000e+00 3.626880000000000078e-04 2.966695635296555444e+00
3.125000000000000173e-03 4.416319999999999621e-03 7.885724677410027583e-01
0.000000000000000000e+00 8.998459999999999792e-03 2.551567043043374561e+00
3.125000000000000173e-03 4.204290000000000284e-03 2.438537239597071693e+00
0.000000000000000000e+00 1.162749999999999938e-03 1.807105638186518703e+00
0.000000000000000000e+00 1.974559999999999879e-04 2.487413629300974538e+00
0.000000000000000000e+00 1.159679999999999956e-03 4.274391418838661139e+00
1.000000000000000056e-01 8.060829999999999385e-02 4.420508086727011232e+00
0.000000000000000000e+00 1.477500000000000081e-03 2.757855205648376273e+00
1.874999999999999931e-02 1.658439999999999914e-02 3.721788817239468639e-01
3.125000000000000173e-03 4.996989999999999765e-03 3.046012267889279812e+00
0.000000000000000000e+00 1.117630000000000099e-03 2.379421547371030066e-01
0.000000000000000000e+00 1.535999999999999930e-04 1.796371353250240777e+00
6.250000000000000347e-03 9.631049999999999334e-02 2.295794335019123000e+00
0.000000000000000000e+00 8.774399999999999474e-04 4.523663878099238644e+00
1.250000000000000069e-02 9.551160000000000205e-02 3.697057244375348439e+00
2.500000000000000139e-02 2.399230000000000026e-03 4.762584005783945251e+00
0.000000000000000000e+00 7.441280000000000420e-04 1.310846125982223054e+00
3.125000000000000173e-03 3.016000000000000018e-03 2.989115134994089207e+00
0.000000000000000000e+00 1.326719999999999928e-04 1.968882353091230275e+00
3.125000000000000173e-03 1.713859999999999993e-03 3.383225082363138903e+00
9.374999999999999653e-03 1.003820000000000059e-02 4.470447689130437219e+00
0.000000000000000000e+00 2.554240000000000265e-04 1.390366854611723824e+00
0.000000000000000000e+00 3.776639999999999945e-04 2.433614485030559660e+00
3.125000000000000173e-03 8.388610000000000511e-02 4.290682635023564728e+00
0.000000000000000000e+00 4.836950000000000234e-04 3.658898191541475775e+00
2.500000000000000139e-02 2.072319999999999891e-03 6.865744988394129056e-01
0.000000000000000000e+00 5.685319999999999567e-04 3.377394674811667219e+00
0.000000000000000000e+00 1.611969999999999896e-03 3.258430176903108322e+00
1.562500000000000000e-02 2.932419999999999818e-03 6.439744349322396033e-01
1.562500000000000000e-02 1.735420000000000105e-03 4.526352704131445748e+00
1.250000000000000069e-02 1.458370000000000066e-03 2.560683764394205308e+00
9.374999999999999653e-03 9.215650000000000230e-02 4.638288645101153129e+00
3.125000000000000173e-03 2.941309999999999931e-03 4.005931076309273919e+00
2.187499999999999861e-02 2.952189999999999936e-03 2.223973079698309707e+00
1.250000000000000069e-02 2.083839999999999998e-03 1.718758913379852427e+00
0.000000000000000000e+00 5.082879999999999690e-04 4.977861688715766064e+00
0.000000000000000000e+00 5.590400000000000143e-04 4.290861945990720017e+00
0.000000000000000000e+00 1.026640000000000105e-03 7.812560971989279679e-01
0.000000000000000000e+00 7.356420000000000016e-04 3.977777952479833345e+00
0.000000000000000000e+00 1.241600000000000039e-03 2.299658424492238673e+00
5.625000000000000139e-02 9.166130000000000111e-02 1.144721757366899961e+00
0.000000000000000000e+00 1.026299999999999955e-03 2.595732455393415350e+00
1.250000000000000069e-02 3.481970000000000204e-02 3.709817026888662106e+00
0.000000000000000000e+00 3.725439999999999893e-04 4.613019121091244124e-01
1.874999999999999931e-02 1.792060000000000050e-03 3.413864827301773985e+00
3.125000000000000173e-03 4.117179999999999798e-03 4.615040687098209915e+00
0.000000000000000000e+00 7.294219999999999697e-04 4.207604034335138410e-01
0.000000000000000000e+00 9.319680000000000325e-04 2.810271366179693864e+00
3.125000000000000173e-03 4.230659999999999803e-03 3.919911656339562622e+00
0.000000000000000000e+00 1.200319999999999946e-03 1.411138931232833293e+00
3.125000000000000173e-03 4.622020000000000121e-03 4.423896595135766496e+00
0.000000000000000000e+00 1.005500000000000100e-03 1.562448936438626257e-01
0.000000000000000000e+00 5.374780000000000009e-03 1.174460689036432859e-01
0.000000000000000000e+00 2.265790000000000165e-03 1.205042094770334415e+00
3.125000000000000173e-03 1.058810000000000029e-01 2.292588246618417536e+00
6.250000000000000347e-03 1.514429999999999986e-03 2.021059112894913135e+00
1.874999999999999931e-02 2.113539999999999863e-01 1.360499300443554382e+00
5.000000000000000278e-02 3.681639999999999913e-02 1.999547962688193348e+00
0.000000000000000000e+00 3.231100000000000205e-03 5.554205651182725356e-01
0.000000000000000000e+00 1.116419999999999912e-03 6.850766953648168567e-02
0.000000000000000000e+00 0.000000000000000000e+00 2.900655692508424810e-01
9.374999999999999653e-03 2.181180000000000011e-03 4.631851504140644060e+00
3.125000000000000173e-03 4.888510000000000424e-03 2.982530435737054120e+00
0.000000000000000000e+00 3.367620000000000335e-02 3.337200640540514573e+00
0.000000000000000000e+00 4.928130000000000184e-03 1.663123912146710737e+00
2.187499999999999861e-02 5.567810000000000294e-03 4.879953568298978972e+00
3.125000000000000173e-03 2.065729999999999997e-03 4.731683430118542866e+00
0.000000000000000000e+00 1.646080000000000069e-04 4.628562335028547636e+00
6.250000000000000347e-03 9.676269999999999316e-02 4.696634025023006309e+00
3.437500000000000278e-02 9.080489999999999395e-02 3.108262094843141643e+00
0.000000000000000000e+00 9.375359999999999900e-04 2.577782623052090827e+00
3.125000000000000173e-03 4.252220000000000132e-03 4.658477733640568275e+00
0.000000000000000000e+00 2.140420000000000083e-03 1.694239656875229372e+00
1.874999999999999931e-02 2.790340000000000095e-03 2.133343442127061174e+00
0.000000000000000000e+00 9.307579999999999326e-03 2.975549468619892446e-01
0.000000000000000000e+00 5.106270000000000427e-04 3.994702620461738629e+00
1.562500000000000000e-02 2.202110000000000178e-03 1.597212789438917646e+00
0.000000000000000000e+00 8.598339999999999456e-03 3.349150507785452202e+00
0.000000000000000000e+00 2.603470000000000090e-03 4.345176740168221752e-01
3.125000000000000173e-03 3.611259999999999817e-03 3.128548526533089902e+00
0.000000000000000000e+00 6.278399999999999519e-04 2.364146730053706680e-01
6.250000000000000347e-03 2.434690000000000205e-03 3.963796187575807650e+00
9.374999999999999653e-03 9.793280000000000041e-02 4.288360733891721566e+00
9.374999999999999653e-03 1.148219999999999926e-03 1.914125649738391832e+00
0.000000000000000000e+00 4.247299999999999860e-03 4.148360587640626207e+00
0.000000000000000000e+00 6.502279999999999822e-04 2.911665282128704568e+00
0.000000000000000000e+00 3.725660000000000104e-04 4.012611568191482014e+00
1.874999999999999931e-02 2.150780000000000140e-03 3.761803406174448750e+00
0.000000000000000000e+00 3.108220000000000080e-03 3.803311741388687217e+00
6.250000000000000347e-03 1.009469999999999985e-02 4.385344767782329178e+00
0.000000000000000000e+00 2.826880000000000148e-04 1.779249364673760603e+00
1.562500000000000000e-02 1.016009999999999969e-01 2.452751132059853845e+00
0.000000000000000000e+00 1.145600000000000090e-03 2.243893533681580177e+00
3.125000000000000173e-03 4.133760000000000212e-03 1.124553051640393875e+00
0.000000000000000000e+00 4.000639999999999969e-04 1.257561545519557011e+00
0.000000000000000000e+00 4.020480000000000104e-04 1.993987304571540164e+00
3.125000000000000173e-03 1.024549999999999940e-02 3.865301621741004112e+00
2.500000000000000139e-02 1.685309999999999976e-03 2.183935090728345019e-01
3.125000000000000000e-02 9.256069999999999576e-02 4.989363942028041343e+00
0.000000000000000000e+00 1.942270000000000064e-03 2.204355988547735734e+00
0.000000000000000000e+00 1.120190000000000075e-03 2.395161044040692300e+00
0.000000000000000000e+00 2.906689999999999968e-03 2.489004870133444403e+00
3.125000000000000173e-03 4.053310000000000073e-03 1.446497663976487047e+00
1.874999999999999931e-02 1.948110000000000119e-02 3.946195079639076564e+00
0.000000000000000000e+00 5.874299999999999834e-03 4.029062513788532307e+00
0.000000000000000000e+00 2.152059999999999911e-03 2.654740813924264309e+00
0.000000000000000000e+00 1.778300000000000020e-03 3.868819097591208456e-01
0.000000000000000000e+00 1.543679999999999965e-04 2.870595032557076820e+00
0.000000000000000000e+00 8.801920000000000186e-04 4.206509971109390733e+00
1.874999999999999931e-02 1.242370000000000019e-03 4.502673898687045373e+00
1.874999999999999931e-02 2.072769999999999821e-03 4.383000458298981883e+00
3.125000000000000173e-03 4.915199999999999778e-03 4.351211720831281937e+00
9.374999999999999653e-03 9.675050000000000316e-02 2.669967580521269923e+00
0.000000000000000000e+00 4.200830000000000232e-04 5.224981183308469168e-01
0.000000000000000000e+00 7.262160000000000143e-04 2.069340253567394150e+00
0.000000000000000000e+00 4.041730000000000322e-03 1.509293237957608502e+00
6.250000000000000347e-03 1.746820000000000057e-03 2.535426533385273018e+00
0.000000000000000000e+00 1.043010000000000031e-03 4.566968747489251079e+00
0.000000000000000000e+00 9.242879999999999976e-04 4.188996800410312638e+00
9.374999999999999653e-03 2.420799999999999862e-03 9.479428970679659727e-02
3.125000000000000173e-03 9.706600000000000341e-04 1.375577891605331837e+00
9.374999999999999653e-03 4.595779999999999831e-03 4.838818857865711642e+00
0.000000000000000000e+00 1.242620000000000053e-03 3.619034526239635063e+00
0.000000000000000000e+00 1.260540000000000098e-03 3.379352444820939549e+00
0.000000000000000000e+00 3.944980000000000166e-04 4.537483794725925890e+00
6.250000000000000347e-03 1.056750000000000050e-01 1.985120444576464749e+00
7.187499999999999445e-02 3.746270000000000155e-02 1.641998584380565118e+00
0.000000000000000000e+00 7.214059999999999570e-04 1.898616820579602793e+00
0.000000000000000000e+00 2.806529999999999789e-03 2.890827906459812358e+00
0.000000000000000000e+00 1.070210000000000041e-03 1.463071519683913468e+00
2.187499999999999861e-02 2.212290000000000003e-03 4.996027592467217060e-01
0.000000000000000000e+00 5.438440000000000331e-04 4.726212827486458989e-01
3.125000000000000173e-03 6.595140000000000204e-03 1.874000633522440840e+00
0.000000000000000000e+00 0.000000000000000000e+00 3.715580973658327846e+00
0.000000000000000000e+00 3.754520000000000231e-04 3.306168811580731504e+00
0.000000000000000000e+00 3.761570000000000105e-04 3.937319621063974928e+00
0.000000000000000000e+00 1.408900000000000039e-03 3.328805499577304872e+00
0.000000000000000000e+00 1.013110000000000009e-03 1.903817801468895565e+00
2.500000000000000139e-02 1.004449999999999961e-02 6.238828693416792470e-01
3.125000000000000173e-03 9.519680000000000850e-03 6.276998781401921246e-01
3.125000000000000173e-03 2.025859999999999987e-03 1.465201503776406566e+00
3.125000000000000173e-03 4.208260000000000126e-03 4.885104799897344030e+00
6.875000000000000555e-02 3.612930000000000308e-02 3.808745003315375577e+00
1.874999999999999931e-02 1.276220000000000002e-03 3.877740203553157627e+00
0.000000000000000000e+00 6.963390000000000291e-04 1.977196066560628740e+00
2.500000000000000139e-02 1.606140000000000042e-03 4.512765720262924773e+00
0.000000000000000000e+00 1.135460000000000028e-03 4.632314528030745393e-01
0.000000000000000000e+00 5.134490000000000234e-04 4.896612966381934662e+00
6.250000000000000347e-03 9.514509999999999634e-02 3.214587097424468354e+00
0.000000000000000000e+00 5.030660000000000166e-03 6.840488016322299192e-01
6.250000000000000347e-03 1.858939999999999898e-03 9.364597030432830760e-01
0.000000000000000000e+00 1.149250000000000098e-03 3.750984361195652372e+00
0.000000000000000000e+00 2.307800000000000164e-05 4.094332849562184684e+00
0.000000000000000000e+00 6.021979999999999694e-04 5.383518992483155019e-01
0.000000000000000000e+00 1.500720000000000092e-03 3.467250251762721280e-01
1.250000000000000069e-02 1.981060000000000113e-02 4.283902540251779634e+00
0.000000000000000000e+00 9.602120000000000013e-04 2.154438057740248436e+00
6.250000000000000347e-03 9.637790000000000246e-02 4.050127274381104536e-01
3.125000000000000173e-03 4.209540000000000330e-03 1.408500724307230723e+00
6.250000000000000347e-03 3.439999999999999915e-03 6.048278498040798867e-01
0.000000000000000000e+00 9.810559999999998986e-04 2.872330342292305883e+00
2.500000000000000139e-02 3.925180000000000335e-03 3.940727937895797339e+00
0.000000000000000000e+00 3.788800000000000045e-04 1.090227356863566754e+00
0.000000000000000000e+00 1.068799999999999958e-02 3.403438612175295752e+00
3.125000000000000173e-03 4.593790000000000373e-03 3.755299723152987657e+00
0.000000000000000000e+00 9.248000000000000361e-04 1.999009450411215916e+00
0.000000000000000000e+00 1.054910000000000049e-03 3.395782141159358059e+00
2.187499999999999861e-02 5.374720000000000365e-03 1.015254658871732607e+00
0.000000000000000000e+00 1.383619999999999902e-03 3.501293533891365328e+00
6.250000000000000347e-03 9.121840000000000503e-02 4.040991895670711820e+00
0.000000000000000000e+00 7.381430000000000239e-04 4.627439142424918828e+00
3.125000000000000173e-03 1.777020000000000032e-03 1.283491246797594965e+00
0.000000000000000000e+00 3.694719999999999754e-04 4.472066175829553236e-01
0.000000000000000000e+00 1.105539999999999908e-03 4.099438916142956302e+00
0.000000000000000000e+00 1.248769999999999958e-03 7.226625197829994462e-01
0.000000000000000000e+00 2.217339999999999936e-03 3.035428321015912978e+00
0.000000000000000000e+00 1.905470000000000037e-03 1.203549245134166057e+00
0.000000000000000000e+00 9.549439999999999968e-04 1.621064916872999584e+00
2.500000000000000139e-02 2.934780000000000114e-03 4.364655150625178059e+00
3.125000000000000173e-03 1.725550000000000000e-02 1.058434498043246297e+00
3.125000000000000173e-03 1.430779999999999986e-03 4.181800722242709156e+00
0.000000000000000000e+00 9.904639999999999278e-04 4.462603202129918678e+00
0.000000000000000000e+00 5.683009999999999624e-03 9.708632439934933300e-01
3.125000000000000173e-03 9.269400000000000556e-03 1.289081346434192810e+00
3.125000000000000173e-03 5.798590000000000168e-03 1.877178912955320023e+00
1.562500000000000000e-02 4.048060000000000026e-03 4.961005200407049287e+00
1.562500000000000000e-02 3.089770000000000016e-02 3.348885599259627810e+00
0.000000000000000000e+00 6.538829999999999599e-04 3.464491814393946267e+00
2.500000000000000139e-02 1.060630000000000045e-01 3.276955091274317944e+00
0.000000000000000000e+00 8.969600000000000316e-04 3.317102860342480586e+00
3.125000000000000173e-03 3.259379999999999916e-02 3.071995384320818978e+00
0.000000000000000000e+00 5.267199999999999660e-03 9.688295481608144577e-01
0.000000000000000000e+00 3.483520000000000149e-04 2.900080947805121045e+00
0.000000000000000000e+00 3.309059999999999953e-03 2.812813285708816835e+00
2.187499999999999861e-02 1.483780000000000081e-03 3.326997709979369500e+00
2.187499999999999861e-02 2.649279999999999951e-03 1.558386723220630987e+00
1.250000000000000069e-02 4.254400000000000195e-03 3.053914885747246455e+00
0.000000000000000000e+00 1.455230000000000065e-03 4.310028972852108176e+00
0.000000000000000000e+00 1.115200000000000002e-03 1.876783228646524027e+00
1.562500000000000000e-02 1.767679999999999989e-03 2.635646892745535652e-01
3.125000000000000173e-03 4.739649999999999766e-03 4.734043173088814171e+00
1.562500000000000000e-02 9.290349999999999997e-02 1.435546133154037118e+00
3.125000000000000173e-03 3.966809999999999781e-02 5.194573230666149621e-01
3.125000000000000173e-03 1.050869999999999999e-01 7.964609687722712383e-01
0.000000000000000000e+00 1.542399999999999869e-04 4.369798706315776826e+00
0.000000000000000000e+00 1.115840000000000104e-03 3.427952153209601782e+00
1.874999999999999931e-02 2.737920000000000024e-03 3.778609110662330295e+00
0.000000000000000000e+00 1.663549999999999968e-03 2.880351784433887286e+00
3.125000000000000173e-03 1.817660000000000022e-03 4.053235150180070967e+00
3.125000000000000173e-03 1.324280000000000075e-02 4.052231107020831669e-01
9.374999999999999653e-03 1.473090000000000033e-03 3.936637524665722587e+00
0.000000000000000000e+00 4.842879999999999819e-04 3.520304726729235334e+00
0.000000000000000000e+00 1.871999999999999966e-04 3.657884135358713262e+00
6.250000000000000347e-03 4.632129999999999928e-03 4.799535591817872593e+00
3.125000000000000173e-03 5.079329999999999956e-03 2.802222710939887396e+00
0.000000000000000000e+00 1.535230000000000058e-03 1.302912046547767266e+00
0.000000000000000000e+00 1.825279999999999980e-04 2.378840194530259744e+00
1.250000000000000069e-02 1.744639999999999993e-03 3.194597132019486807e+00
0.000000000000000000e+00 4.159149999999999913e-04 3.931269876059911850e-01
2.500000000000000139e-02 9.343980000000000341e-02 1.465797899759549328e+00
1.874999999999999931e-02 1.697600000000000064e-03 4.205011609133025630e+00
0.000000000000000000e+00 9.395200000000000036e-04 5.455877254823371381e-01
1.874999999999999931e-02 9.253020000000000689e-02 3.802280247743029307e+00
1.874999999999999931e-02 2.389500000000000131e-03 3.961727152683010900e+00
6.250000000000000347e-03 2.310019999999999869e-03 3.448840708904941543e+00
1.250000000000000069e-02 1.285580000000000056e-02 4.436973351367831775e+00
0.000000000000000000e+00 2.770839999999999783e-04 3.021918662670535216e+00
0.000000000000000000e+00 4.867089999999999915e-04 3.765278726596690717e+00
0.000000000000000000e+00 9.923200000000000943e-04 2.609334286691200600e-01
0.000000000000000000e+00 1.177579999999999946e-02 2.605376542216635283e+00
1.562500000000000000e-02 2.790139999999999981e-03 2.374996677515545107e-01
3.125000000000000173e-03 2.605060000000000188e-03 4.064110367324198947e+00
0.000000000000000000e+00 6.057090000000000217e-03 5.278735251041410947e-01
0.000000000000000000e+00 1.146050000000000020e-03 2.997374862734892176e+00
1.874999999999999931e-02 1.812610000000000089e-03 4.163378860096750067e+00
6.250000000000000347e-03 3.400260000000000001e-03 3.636628732596587810e+00
1.874999999999999931e-02 2.212159999999999908e-03 3.676615810603794277e+00
0.000000000000000000e+00 8.372170000000000176e-04 3.767343191586971063e+00
6.875000000000000555e-02 2.609790000000000026e-02 1.777301706140004267e+00
0.000000000000000000e+00 6.004670000000000146e-03 4.697525299909349528e+00
0.000000000000000000e+00 4.648960000000000158e-04 1.320769720434245009e+00
0.000000000000000000e+00 1.786180000000000059e-03 4.128669602349982704e+00
3.125000000000000173e-03 2.009659999999999919e-03 4.012101250410448294e+00
1.562500000000000000e-02 1.707519999999999915e-03 9.067485943905828627e-02
0.000000000000000000e+00 1.517499999999999969e-03 7.384748012548381091e-01
0.000000000000000000e+00 1.945670000000000038e-02 3.645348680967404498e+00
3.125000000000000173e-03 9.364419999999999689e-02 3.863489465463282313e-01
9.374999999999999653e-03 1.746299999999999892e-03 2.825603175640339915e-01
0.000000000000000000e+00 1.250940000000000081e-03 1.989024304369432894e+00
3.125000000000000173e-03 1.021739999999999975e-02 1.303988856113455608e+00
0.000000000000000000e+00 2.606719999999999871e-04 4.994014122415252999e+00
0.000000000000000000e+00 4.171520000000000067e-04 7.037295354073924702e-01
3.125000000000000173e-03 2.507029999999999936e-03 1.454104903536622695e+00
3.125000000000000173e-03 4.915199999999999778e-03 2.224426856247243567e+00
6.250000000000000347e-03 1.137849999999999973e-02 2.588210212402248800e+00
0.000000000000000000e+00 3.065599999999999922e-04 1.174618193427499069e+00
0.000000000000000000e+00 9.756160000000000049e-04 4.131914696272655618e+00
3.125000000000000173e-03 5.092379999999999823e-02 4.540173020323925002e+00
3.125000000000000173e-03 4.292220000000000237e-03 2.532678810000015268e+00
2.812500000000000069e-02 2.646719999999999975e-03 4.155845648141978543e+00
0.000000000000000000e+00 1.042940000000000013e-03 1.356193496722218894e+00
1.874999999999999931e-02 2.571459999999999805e-03 8.277021922966310008e-01
0.000000000000000000e+00 1.083009999999999919e-03 1.449407695732657375e-01
0.000000000000000000e+00 6.362210000000000087e-02 4.042019358713147881e+00
0.000000000000000000e+00 8.803730000000000496e-04 2.180418753436963453e-01
0.000000000000000000e+00 5.297790000000000138e-03 2.320471659292181243e+00
9.374999999999999653e-03 9.618559999999999610e-02 2.557104900199274944e+00
0.000000000000000000e+00 1.053249999999999933e-03 1.265737201590373395e+00
0.000000000000000000e+00 2.283160000000000007e-05 4.954923265616272055e+00
0.000000000000000000e+00 4.031999999999999885e-04 1.503864697896497127e+00
3.125000000000000173e-03 1.960190000000000109e-03 4.340371304486081883e+00
3.125000000000000173e-03 4.370500000000000253e-03 3.968949556924348698e+00
0.000000000000000000e+00 4.446679999999999730e-03 4.351804790209287788e+00
1.874999999999999931e-02 8.548220000000000471e-03 3.038835077676893537e-01
0.000000000000000000e+00 1.962939999999999824e-03 1.013024121293624180e+00
2.500000000000000139e-02 3.140559999999999879e-02 5.220801609104086527e-01
9.374999999999999653e-03 9.590160000000000351e-02 3.461575684197819580e+00
3.125000000000000173e-03 1.608190000000000010e-03 2.022434449054067329e+00
0.000000000000000000e+00 1.039530000000000098e-03 3.912266413479077443e+00
0.000000000000000000e+00 1.040509999999999916e-03 1.340974476438491214e+00
6.250000000000000347e-03 4.407490000000000019e-03 3.390513857611870963e-01
0.000000000000000000e+00 3.210750000000000062e-03 4.594769683463436394e+00
0.000000000000000000e+00 1.929020000000000040e-03 3.106196300501495866e-01
0.000000000000000000e+00 2.929150000000000156e-03 3.740619299809558207e+00
9.374999999999999653e-03 9.228190000000000004e-02 4.038819562958093634e+00
0.000000000000000000e+00 1.062910000000000027e-03 6.423677259885823831e-01
0.000000000000000000e+00 1.937950000000000089e-02 3.010918526607782031e+00
0.000000000000000000e+00 4.136060000000000105e-04 4.491455338818744814e+00
0.000000000000000000e+00 1.040319999999999960e-03 1.543117025849186641e+00
0.000000000000000000e+00 2.676290000000000006e-03 1.925351632086465425e+00
0.000000000000000000e+00 1.375420000000000028e-03 1.921610455301423936e+00
3.125000000000000000e-02 9.296899999999999609e-02 4.450806392896697439e+00
9.374999999999999653e-03 1.831230000000000097e-03 3.377006120246405896e+00
3.125000000000000173e-03 1.065119999999999956e-01 1.373525819720678331e+00
0.000000000000000000e+00 1.114750000000000072e-03 3.882228408394714503e+00
0.000000000000000000e+00 8.649600000000000127e-04 1.084315837004376615e+00
0.000000000000000000e+00 8.280460000000000338e-04 3.335656983743815029e+00
2.187499999999999861e-02 2.115140000000000162e-03 4.374096448965331119e-01
0.000000000000000000e+00 5.198079999999999671e-04 2.265989509016547165e-01
0.000000000000000000e+00 4.418280000000000124e-02 2.422473108810964781e+00
1.874999999999999931e-02 2.300219999999999956e-03 3.147193263484881598e+00
0.000000000000000000e+00 3.066820000000000049e-03 4.906563721163289316e+00
3.125000000000000173e-03 1.994500000000000179e-03 8.782690528571218680e-01
3.125000000000000173e-03 4.830850000000000248e-03 8.588679256429943010e-01
0.000000000000000000e+00 5.205760000000000248e-04 1.167794632778177411e+00
6.250000000000000347e-03 9.592799999999999938e-02 1.523228575250951788e+00
0.000000000000000000e+00 7.448319999999999594e-04 3.096881571768792973e+00
3.125000000000000173e-03 7.939190000000000483e-03 1.345622744457243281e+00
1.250000000000000069e-02 1.815299999999999943e-03 4.252296670384955846e+00
0.000000000000000000e+00 0.000000000000000000e+00 2.674462561477702227e+00
0.000000000000000000e+00 7.028740000000000335e-04 3.344150599703689775e+00
0.000000000000000000e+00 8.188800000000000202e-04 2.888342113270461198e+00
0.000000000000000000e+00 2.285840000000000124e-05 7.915514160363584795e-01
0.000000000000000000e+00 1.026640000000000105e-03 2.594087906741739946e+00
2.187499999999999861e-02 2.004929999999999820e-03 1.436140259274736763e+00
1.562500000000000000e-02 9.278799999999999548e-02 2.240190341508641048e-01
0.000000000000000000e+00 2.779579999999999811e-03 2.140628077570879029e+00
0.000000000000000000e+00 4.029760000000000286e-03 4.095675136132764571e+00
0.000000000000000000e+00 8.645120000000000061e-04 3.305206663105020315e-02
0.000000000000000000e+00 1.309989999999999939e-02 2.906880778215596539e+00
1.062499999999999972e-01 1.056389999999999968e-01 7.680380522195273674e-02
3.125000000000000173e-03 6.634879999999999467e-04 7.389133175285050870e-01
0.000000000000000000e+00 4.141829999999999882e-04 4.932067992874714868e+00
0.000000000000000000e+00 1.946430000000000078e-03 4.718338760666784815e+00
0.000000000000000000e+00 4.493630000000000194e-03 2.932962651267854604e+00
1.874999999999999931e-02 9.342459999999999654e-02 1.638096463911274947e+00
9.374999999999999653e-03 2.170500000000000120e-03 2.947695096657718672e+00
0.000000000000000000e+00 6.278399999999999519e-04 7.196457785715404398e-01
6.250000000000000347e-03 2.338520000000000043e-01 1.651264888580409984e+00
0.000000000000000000e+00 7.409639999999999890e-04 4.775161300016885768e+00
0.000000000000000000e+00 1.685760000000000069e-04 3.481281515966924811e+00
2.187499999999999861e-02 2.327490000000000201e-03 1.197710067396362099e+00
0.000000000000000000e+00 1.708929999999999998e-03 1.930302330079433748e+00
0.000000000000000000e+00 3.410049999999999887e-02 4.617534075331326093e+00
3.125000000000000173e-03 9.800609999999999530e-03 1.119333935865384877e+00
0.000000000000000000e+00 3.731200000000000055e-04 1.850832478915487300e-01
0.000000000000000000e+00 4.298300000000000233e-04 4.054435660996327684e+00
0.000000000000000000e+00 1.102209999999999952e-03 7.478797778637247262e-01
3.125000000000000173e-03 2.479199999999999980e-03 3.902444079077910910e+00
3.125000000000000173e-03 9.204420000000000657e-02 7.737070377391019882e-03
6.250000000000000347e-03 4.861700000000000049e-03 1.691227452322158875e+00
6.250000000000000347e-03 1.026299999999999955e-03 3.227658161674168413e-01
0.000000000000000000e+00 2.122520000000000136e-05 2.030562668874810406e+00
0.000000000000000000e+00 8.979840000000000001e-04 2.954444784131027291e+00
0.000000000000000000e+00 1.696399999999999991e-02 3.195347147727415127e+00
0.000000000000000000e+00 2.302159999999999995e-05 3.997270218961124222e-01
3.125000000000000000e-02 3.616700000000000036e-03 1.816707210965990527e+00
2.500000000000000139e-02 1.073080000000000006e-01 3.261897362082121887e+00
2.812500000000000069e-02 1.070569999999999994e-01 3.841743130347561319e+00
6.250000000000000347e-03 1.641340000000000030e-03 6.043899914956540886e-01
0.000000000000000000e+00 1.537920000000000075e-04 2.467050377477275180e+00
3.125000000000000173e-03 1.606980000000000040e-03 3.114937490133979470e+00
2.500000000000000139e-02 2.675009999999999801e-03 4.146764214007362170e+00
0.000000000000000000e+00 1.012410000000000046e-03 4.569939242390106848e+00
0.000000000000000000e+00 1.417340000000000006e-03 1.309057401755898686e+00
0.000000000000000000e+00 1.683839999999999924e-04 2.412836251757868755e+00
0.000000000000000000e+00 1.001019999999999965e-01 3.699961287129124088e+00
0.000000000000000000e+00 4.383680000000000042e-03 2.797182308028616671e+00
0.000000000000000000e+00 9.202560000000000471e-04 4.920723706112553941e+00
0.000000000000000000e+00 1.882879999999999970e-04 1.248874054252059995e+00
3.125000000000000173e-03 1.303359999999999935e-03 7.850683169674083084e-01
6.250000000000000347e-03 1.058749999999999969e-01 2.746069352861939539e+00
3.125000000000000173e-03 1.862170000000000145e-02 3.914316135743628244e+00
0.000000000000000000e+00 2.647459999999999918e-03 2.297166273878498366e+00
8.125000000000000278e-02 4.828570000000000084e-02 4.149784098806991395e+00
0.000000000000000000e+00 1.221440000000000069e-03 3.175218110101613256e+00
0.000000000000000000e+00 8.881919999999999963e-04 1.585987533069217026e+00
6.250000000000000347e-03 1.494459999999999972e-03 3.723224612121921240e+00
1.562500000000000000e-02 2.423300000000000193e-03 4.419678878675657785e+00
9.374999999999999653e-03 1.050900000000000029e-01 3.420720978812345159e+00
1.562500000000000000e-02 1.806209999999999934e-03 3.478615559292010939e+00
0.000000000000000000e+00 6.385920000000000008e-04 3.673730132162524864e+00
1.250000000000000069e-02 1.508669999999999933e-03 1.831633191155068729e+00
2.187499999999999861e-02 1.742980000000000093e-03 5.904356261455578903e-02
2.812500000000000069e-02 2.689979999999999802e-03 4.121605623830737919e+00
0.000000000000000000e+00 1.145600000000000009e-04 1.135333157747954846e+00
0.000000000000000000e+00 2.488060000000000163e-04 2.654932587388124432e+00
1.562500000000000000e-02 3.274940000000000056e-03 1.417151759904691666e+00
0.000000000000000000e+00 1.008819999999999899e-03 2.762025078006468792e+00
0.000000000000000000e+00 6.237439999999999695e-04 4.362530875807052233e+00
2.500000000000000139e-02 1.894269999999999982e-03 1.945656859810629857e+00
2.812500000000000069e-02 2.484220000000000091e-03 3.618543739734427778e+00
2.500000000000000139e-02 9.332129999999999592e-02 4.892047069004918036e+00
0.000000000000000000e+00 1.757499999999999948e-03 9.960425894484109532e-01
0.000000000000000000e+00 2.524800000000000221e-04 4.283368822366746542e+00
0.000000000000000000e+00 7.314100000000000462e-04 8.333414307046405067e-01
0.000000000000000000e+00 4.380799999999999798e-04 4.090119222479042804e+00
0.000000000000000000e+00 1.017859999999999989e-03 2.242549387981771947e+00
0.000000000000000000e+00 4.151450000000000105e-04 3.223690571036846642e+00
0.000000000000000000e+00 1.383619999999999902e-03 2.629511243218338734e+00
9.374999999999999653e-03 2.030339999999999923e-02 1.145902314663888033e-01
2.812500000000000069e-02 8.230380000000000681e-03 4.703938797678699046e+00
2.500000000000000139e-02 9.334739999999999704e-02 3.839023434862469220e+00
3.125000000000000000e-02 1.078520000000000034e-01 2.935140582746861071e+00
6.250000000000000347e-03 5.762690000000000000e-03 1.122990981993782222e+00
0.000000000000000000e+00 7.303200000000000143e-04 3.558211905847572520e+00
6.250000000000000347e-03 2.000769999999999806e-03 3.117780622775535804e+00
0.000000000000000000e+00 5.773180000000000152e-03 2.570271544163940103e+00
0.000000000000000000e+00 6.639499999999999569e-04 3.718764044960964910e-03
2.500000000000000139e-02 1.760260000000000036e-03 7.589878749813555592e-01
0.000000000000000000e+00 3.899519999999999961e-04 2.435273706726774900e+00
0.000000000000000000e+00 7.081960000000000208e-04 1.049799225009618864e+00
0.000000000000000000e+00 1.307539999999999918e-02 3.284324775873570967e+00
3.125000000000000173e-03 4.260800000000000351e-03 3.115852447252191570e+00
0.000000000000000000e+00 5.601280000000000148e-04 3.890571799407275044e+00
2.500000000000000139e-02 1.800699999999999914e-03 1.663204176815821889e+00
0.000000000000000000e+00 2.915070000000000074e-03 1.110019780646920751e+00
0.000000000000000000e+00 0.000000000000000000e+00 4.720151777456809583e+00
0.000000000000000000e+00 1.171780000000000087e-03 1.057262152698649871e+00
9.374999999999999653e-03 2.547840000000000001e-03 2.526990423170183853e+00
0.000000000000000000e+00 5.514749999999999470e-04 4.038055727496160152e+00
1.250000000000000069e-02 1.952640000000000061e-03 1.753092116229528319e+00
0.000000000000000000e+00 1.998980000000000028e-03 2.763677966523050866e+00
2.500000000000000139e-02 4.744810000000000000e-02 4.570506198337552561e+00
0.000000000000000000e+00 1.372350000000000046e-03 1.833072366679766141e+00
3.125000000000000173e-03 2.400649999999999833e-03 1.425605728416135420e+00
1.562500000000000000e-02 1.845059999999999929e-03 2.575149535789370780e+00
1.250000000000000069e-02 4.424700000000000161e-03 3.053686392328189392e+00
0.000000000000000000e+00 1.184400000000000036e-02 4.098603678036771392e+00
3.125000000000000173e-03 3.276670000000000190e-03 4.237246238666769749e-01
0.000000000000000000e+00 2.787840000000000196e-04 4.296892620496518767e+00
0.000000000000000000e+00 7.628799999999999601e-04 4.207387975973441385e+00
2.812500000000000069e-02 1.070829999999999976e-01 7.059385989297101149e-01
1.874999999999999931e-02 2.857539999999999993e-03 4.739792156424146974e+00
2.500000000000000139e-02 1.518459999999999905e-03 3.996792413144589329e+00
0.000000000000000000e+00 9.767039999999998969e-04 1.197021417901827922e-01
0.000000000000000000e+00 2.201310000000000105e-05 7.438046701256417759e-01
6.250000000000000347e-03 7.187899999999999671e-03 4.995419884800480048e+00
0.000000000000000000e+00 2.748159999999999926e-04 4.261278310083482346e+00
3.125000000000000173e-03 4.585539999999999929e-03 5.709562717299754286e-01
0.000000000000000000e+00 1.076989999999999892e-03 3.924356396624792076e+00
6.250000000000000347e-03 1.740100000000000067e-03 3.417487872411029137e+00
0.000000000000000000e+00 7.830400000000000381e-04 1.028879115999395966e+00
3.125000000000000173e-03 1.113540000000000103e-03 4.620177504967873716e+00
0.000000000000000000e+00 4.770560000000000078e-04 1.517902439505361967e+00
0.000000000000000000e+00 7.012119999999999942e-04 2.891895789588947885e+00
0.000000000000000000e+00 5.171200000000000362e-04 2.754685137479245816e-01
0.000000000000000000e+00 1.103400000000000040e-03 4.250926188725164145e+00
1.250000000000000069e-02 2.014660000000000149e-03 4.117991913226514811e+00
0.000000000000000000e+00 5.209019999999999970e-03 9.394502588417175115e-01
0.000000000000000000e+00 2.908930000000000109e-03 1.001742620854723764e+00
0.000000000000000000e+00 9.316479999999999814e-04 4.023103141914019076e+00
2.812500000000000069e-02 1.858300000000000013e-03 4.367273513814891039e+00
3.125000000000000173e-03 2.515260000000000065e-03 3.049872015207131692e+00
6.250000000000000347e-03 9.624249999999999472e-02 3.003270483893310416e+00
0.000000000000000000e+00 3.941120000000000105e-04 2.728363355909731780e+00
6.250000000000000347e-03 6.370559999999999938e-04 1.375011746804316592e-01
0.000000000000000000e+00 2.847870000000000176e-03 1.408953156737102308e+00
0.000000000000000000e+00 1.846210000000000039e-03 1.704702690290698541e+00
0.000000000000000000e+00 2.044799999999999938e-04 2.479383909841206268e+00
0.000000000000000000e+00 4.237380000000000009e-04 2.799958741299624077e-01
1.562500000000000000e-02 9.294850000000000334e-02 2.972512450580568455e+00
1.250000000000000069e-02 1.786049999999999964e-03 3.982246189140000503e+00
0.000000000000000000e+00 1.396480000000000019e-04 2.386742859706572517e+00
0.000000000000000000e+00 1.000349999999999894e-03 4.683929868533556196e+00
0.000000000000000000e+00 1.140930000000000069e-03 1.348042455992354949e+00
1.250000000000000069e-02 9.890350000000000530e-02 4.988104301162613829e+00
6.250000000000000347e-03 4.206269999999999801e-03 5.991620841770500805e-01
1.250000000000000069e-02 1.427010000000000041e-03 1.893254769100941592e+00
3.125000000000000173e-03 5.422849999999999893e-03 2.250222494003937257e+00
1.250000000000000069e-02 1.953729999999999876e-03 5.521631681242739065e-01
0.000000000000000000e+00 1.840959999999999992e-03 1.765702403377255703e+00
0.000000000000000000e+00 3.955839999999999856e-04 4.672767443980538005e+00
0.000000000000000000e+00 1.774079999999999928e-04 3.475410201189614856e+00
0.000000000000000000e+00 5.439999999999999957e-04 3.888980483645609887e-02
2.187499999999999861e-02 1.882430000000000041e-03 1.365135563008706310e+00
2.187499999999999861e-02 2.325629999999999972e-03 4.386274211828135705e+00
0.000000000000000000e+00 1.925730000000000026e-06 2.000731216718515393e-01
3.125000000000000000e-02 1.310719999999999941e-02 1.176981775460561153e+00
2.187499999999999861e-02 1.825660000000000000e-03 3.068516686629955359e+00
3.125000000000000173e-03 9.739239999999999703e-03 1.885444520199289764e+00
0.000000000000000000e+00 8.970879999999999870e-04 2.033851473253025510e+00
3.125000000000000173e-03 5.288320000000000000e-03 3.031442573888001757e+00
0.000000000000000000e+00 2.309999999999999906e-05 4.651382543180659912e-01
0.000000000000000000e+00 4.629310000000000196e-03 3.000256462333235508e+00
1.562500000000000000e-02 1.847869999999999938e-03 2.168059565627156182e-02
6.250000000000000347e-03 1.506940000000000016e-03 5.731379268708802766e-01
0.000000000000000000e+00 1.066619999999999895e-03 3.014510683728480078e+00
0.000000000000000000e+00 1.427870000000000007e-02 2.233458530978972512e+00
3.125000000000000173e-03 4.239620000000000367e-03 4.145299393576619806e+00
2.812500000000000069e-02 2.148479999999999921e-03 5.430920450503096131e-01
0.000000000000000000e+00 3.979970000000000209e-03 2.667788514337434247e+00
0.000000000000000000e+00 5.549759999999999936e-03 2.749315533465089167e+00
9.374999999999999653e-03 1.804609999999999895e-03 3.244541197846189995e+00
0.000000000000000000e+00 4.289409999999999577e-03 4.369528414446540054e+00
2.187499999999999861e-02 6.033919999999999909e-03 3.957142281442803000e+00
0.000000000000000000e+00 1.505470000000000072e-03 2.448840430949799529e+00
0.000000000000000000e+00 1.324990000000000065e-03 2.985010051710856427e+00
9.374999999999999653e-03 2.214080000000000215e-03 4.978755442916369844e+00
3.125000000000000173e-03 1.384280000000000059e-02 4.995343809188645956e-02
0.000000000000000000e+00 1.152510000000000036e-03 4.898579522169325351e+00
0.000000000000000000e+00 4.228400000000000106e-04 3.862772460852291978e+00
0.000000000000000000e+00 2.258529999999999913e-02 1.679528976255062034e+00
0.000000000000000000e+00 3.756540000000000053e-03 2.610097667817623535e-01
0.000000000000000000e+00 4.607379999999999787e-04 1.087974678590957200e+00
3.125000000000000173e-03 2.623119999999999966e-02 2.568217714827120135e-01
0.000000000000000000e+00 3.235839999999999810e-03 4.769493711455002893e-01
0.000000000000000000e+00 1.200319999999999946e-03 3.974397521517487153e+00
0.000000000000000000e+00 8.904320000000000290e-04 4.118224986974436952e+00
3.125000000000000173e-03 1.030820000000000000e-02 4.834634800992333226e+00
2.187499999999999861e-02 2.816060000000000004e-03 3.120807113862555937e+00
0.000000000000000000e+00 3.079099999999999979e-03 2.770281767790642835e+00
0.000000000000000000e+00 1.978880000000000135e-04 2.264434939679578207e+00
0.000000000000000000e+00 1.009069999999999932e-03 2.098132109004699597e+00
2.187499999999999861e-02 3.140739999999999938e-03 4.991379973401400605e+00
0.000000000000000000e+00 8.120150000000000241e-04 1.555140236424963351e+00
0.000000000000000000e+00 7.215340000000000208e-04 3.746629810021228746e+00
0.000000000000000000e+00 8.501119999999999814e-04 4.296620363086523398e+00
0.000000000000000000e+00 2.381310000000000197e-03 4.654256822636593238e-01
0.000000000000000000e+00 3.154559999999999829e-04 1.149778457307469859e+00
0.000000000000000000e+00 2.025920000000000065e-03 9.216376128136249957e-01
3.125000000000000173e-03 1.724449999999999985e-03 3.066244612034220829e+00
2.500000000000000139e-02 1.918659999999999984e-03 2.556247942403383711e+00
6.250000000000000347e-03 4.267579999999999985e-03 1.498600276908437223e+00
0.000000000000000000e+00 9.736960000000000233e-04 1.211603122608260641e+00
5.000000000000000278e-02 9.351719999999999478e-02 1.653138620368949097e-01
3.125000000000000173e-03 1.540029999999999958e-03 4.369928855667104095e+00
0.000000000000000000e+00 1.032829999999999989e-03 2.064329482087204681e+00
1.250000000000000069e-02 3.360319999999999974e-03 3.555372612559004608e-02
0.000000000000000000e+00 3.228060000000000261e-04 3.048909405417521423e+00
0.000000000000000000e+00 2.140420000000000083e-03 1.215357522257028977e+00
0.000000000000000000e+00 1.265470000000000093e-03 4.571255741800992922e+00
1.874999999999999931e-02 1.685819999999999983e-03 2.325638771974308794e-01
0.000000000000000000e+00 4.218779999999999883e-04 1.729272142585499550e+00
0.000000000000000000e+00 3.424999999999999903e-05 3.228354993337389622e+00
0.000000000000000000e+00 5.624399999999999886e-04 2.385148141114156850e+00
3.125000000000000173e-03 1.771650000000000048e-03 1.709254270290392785e+00
0.000000000000000000e+00 2.431420000000000109e-03 4.882224184756656093e-01
4.374999999999999722e-02 9.057500000000000273e-02 7.429882005600507711e-01
3.749999999999999861e-02 9.367209999999999426e-02 1.065171627700201018e-02
0.000000000000000000e+00 1.053059999999999977e-03 1.707673011071284108e+00
1.250000000000000069e-02 2.193430000000000032e-02 3.473590200994053134e+00
0.000000000000000000e+00 5.219900000000000408e-03 1.064314844242905123e+00
3.125000000000000173e-03 1.306799999999999976e-02 1.952177342489481715e+00
0.000000000000000000e+00 2.262399999999999915e-03 2.427586483673001450e+00
6.250000000000000347e-03 1.050230000000000052e-01 4.030145485349279078e+00
0.000000000000000000e+00 1.057249999999999995e-01 1.062603378450466707e+00
3.125000000000000173e-03 5.097220000000000396e-03 2.064711928673939489e+00
0.000000000000000000e+00 3.850880000000000102e-04 3.356082578146957207e-02
0.000000000000000000e+00 9.720710000000000245e-04 6.065423250031920510e-01
0.000000000000000000e+00 8.535049999999999538e-04 4.123221259524873616e+00
0.000000000000000000e+00 1.161279999999999995e-03 2.260757440843373267e+00
0.000000000000000000e+00 1.395200000000000086e-03 5.291406841060364297e-01
6.250000000000000347e-03 1.702720000000000015e-03 2.058095594615261259e-01
6.250000000000000347e-03 2.861760000000000085e-03 1.253356891880153423e+00
0.000000000000000000e+00 9.140479999999999872e-04 1.406148332015753066e+00
1.250000000000000069e-02 2.264060000000000031e-03 2.826207036112712956e+00
5.312499999999999861e-02 3.658659999999999690e-02 3.157234854165521298e+00
0.000000000000000000e+00 3.180600000000000007e-04 2.858892175234506006e+00
0.000000000000000000e+00 1.761339999999999979e-05 2.034108709145321825e+00
3.125000000000000173e-03 4.421630000000000178e-03 2.834265935109342216e+00
2.187499999999999861e-02 2.628609999999999974e-03 2.322812307243639740e+00
0.000000000000000000e+00 1.891780000000000024e-03 1.708126290558286797e+00
0.000000000000000000e+00 2.633920000000000098e-03 1.084464154777942557e+00
