0.000000000000000000e+00 1.585409999999999988e-03 3.942230445515124249e+00
0.000000000000000000e+00 8.447360000000000112e-04 4.461508156399814240e+00
0.000000000000000000e+00 1.053179999999999915e-03 4.192248065413885172e+00
2.187499999999999861e-02 3.339069999999999972e-03 3.438586826988449641e+00
1.562500000000000000e-02 1.638399999999999926e-03 2.442853014933215050e+00
9.374999999999999653e-03 2.273659999999999830e-03 1.263661475783089960e-01
0.000000000000000000e+00 1.054980000000000067e-03 3.909952405853559299e+00
0.000000000000000000e+00 1.715839999999999889e-04 4.969839343837325174e+00
9.374999999999999653e-03 1.682370000000000089e-03 3.650073943780707264e-01
0.000000000000000000e+00 3.781449999999999785e-04 4.801229081067869942e+00
0.000000000000000000e+00 2.961089999999999989e-03 6.031441886726540691e-01
1.250000000000000069e-02 1.587260000000000060e-03 1.097463585772052719e+00
2.500000000000000139e-02 2.032260000000000143e-03 5.186825616519707971e-01
0.000000000000000000e+00 2.771650000000000068e-03 2.525735810619915256e+00
3.437500000000000278e-02 9.155919999999999337e-02 4.208850853613710363e+00
0.000000000000000000e+00 4.910719999999999495e-04 3.040427790549773412e+00
0.000000000000000000e+00 2.608910000000000048e-02 4.335967745558560793e+00
0.000000000000000000e+00 4.438029999999999926e-03 1.240440418017900726e+00
0.000000000000000000e+00 2.664510000000000142e-03 9.921518899869674613e-01
2.187499999999999861e-02 3.120320000000000212e-03 4.333237281808291819e+00
5.000000000000000278e-02 2.817240000000000022e-02 3.143152262216479809e+00
3.125000000000000173e-03 1.046279999999999953e-02 4.528793040481980725e+00
0.000000000000000000e+00 3.728580000000000002e-03 1.827313671298653297e+00
0.000000000000000000e+00 2.803260000000000127e-03 2.916809662487570343e+00
9.374999999999999653e-03 2.323069999999999996e-03 3.251279175972417335e+00
9.374999999999999653e-03 9.295749999999999846e-02 1.238951049290520245e+00
9.374999999999999653e-03 2.179069999999999965e-03 4.550813455315650735e+00
0.000000000000000000e+00 6.827839999999999951e-03 4.957642666019812516e-01
0.000000000000000000e+00 2.405309999999999913e-03 4.193842280048873050e+00
0.000000000000000000e+00 9.696000000000000408e-04 3.540441067096925742e+00
3.125000000000000173e-03 9.220479999999999648e-04 4.838600369946498780e+00
9.374999999999999653e-03 9.185980000000000534e-02 1.434711805264179407e+00
1.562500000000000000e-02 1.796609999999999917e-03 1.674566059491118253e+00
0.000000000000000000e+00 2.439489999999999888e-03 1.946614494467584056e+00
0.000000000000000000e+00 6.474060000000000014e-04 3.108830230546028028e-01
0.000000000000000000e+00 3.144829999999999934e-03 5.232857255882999992e-01
9.374999999999999653e-03 1.974340000000000209e-03 8.966103209503956117e-01
0.000000000000000000e+00 3.542279999999999973e-04 4.563455353559380256e+00
0.000000000000000000e+00 4.915010000000000039e-03 2.038422036608658505e+00
0.000000000000000000e+00 9.627099999999999764e-04 2.830917010349420782e+00
0.000000000000000000e+00 4.134140000000000232e-04 2.707165900103889022e+00
2.812500000000000069e-02 2.174979999999999969e-03 1.363266073186728544e+00
0.000000000000000000e+00 1.764950000000000102e-05 1.390486129001313298e+00
4.374999999999999722e-02 3.921070000000000111e-02 4.386866636964540156e+00
0.000000000000000000e+00 1.022979999999999940e-03 1.217171504121523196e+00
6.250000000000000347e-03 9.827479999999999549e-02 2.187086284429182292e+00
0.000000000000000000e+00 1.282179999999999952e-03 1.964708099652701101e+00
0.000000000000000000e+00 1.958909999999999905e-03 3.664932858033234542e+00
0.000000000000000000e+00 1.918589999999999966e-03 6.887168567972273836e-01
0.000000000000000000e+00 5.031360000000000346e-03 8.657482032867697130e-01
0.000000000000000000e+00 1.619839999999999995e-04 2.047397717952293306e+00
0.000000000000000000e+00 8.898670000000000234e-04 3.145215547540191281e+00
0.000000000000000000e+00 1.050429999999999984e-03 2.486127385791625510e+00
0.000000000000000000e+00 1.054459999999999903e-03 4.218434221957344299e+00
3.125000000000000000e-02 1.067079999999999938e-02 1.009415031293819931e+00
2.187499999999999861e-02 1.667389999999999931e-03 1.357813509761585102e+00
2.500000000000000139e-02 2.625469999999999974e-03 3.612107512821180144e+00
1.562500000000000000e-02 2.537409999999999926e-03 4.676824178418050870e+00
6.250000000000000347e-03 9.577919999999999490e-02 4.349850789038181453e+00
0.000000000000000000e+00 1.309700000000000013e-03 2.725041775205644612e+00
9.374999999999999653e-03 9.773540000000000005e-02 3.918399811441008573e+00
0.000000000000000000e+00 4.450920000000000137e-04 3.302135043023518568e-01
0.000000000000000000e+00 1.277060000000000001e-03 4.939869502528367207e+00
0.000000000000000000e+00 9.252480000000000426e-04 1.844602270955117529e+00
0.000000000000000000e+00 1.856850000000000018e-05 4.869893221740937861e+00
0.000000000000000000e+00 1.068160000000000073e-03 1.258092688297429262e+00
0.000000000000000000e+00 6.795099999999999751e-02 4.107330224433495047e+00
6.250000000000000347e-03 5.278719999999999767e-03 1.178048728410457935e+00
0.000000000000000000e+00 1.035319999999999990e-01 2.115012925624406126e+00
6.250000000000000347e-03 1.750079999999999995e-03 1.147660593981237875e+00
0.000000000000000000e+00 4.041159999999999913e-04 2.907169613730152147e+00
2.187499999999999861e-02 2.288510000000000110e-03 1.256802924846974756e+00
0.000000000000000000e+00 1.175489999999999955e-03 1.735244453396424635e+00
0.000000000000000000e+00 7.064649999999999793e-04 4.249574708703957704e+00
6.250000000000000347e-03 1.156990000000000102e-03 2.451239573084311285e+00
1.562500000000000000e-02 2.369539999999999841e-03 1.360703286049228522e+00
0.000000000000000000e+00 1.074180000000000100e-03 1.798078783368786127e+00
0.000000000000000000e+00 1.188990000000000012e-03 4.923564905656996338e+00
0.000000000000000000e+00 2.253840000000000091e-05 2.988477344256571300e+00
3.125000000000000173e-03 2.070020000000000106e-03 1.061771182034075833e+00
1.250000000000000069e-02 1.953600000000000215e-03 4.398380806957472799e+00
0.000000000000000000e+00 2.308729999999999832e-05 1.091411843727257303e+00
2.812500000000000069e-02 2.500930000000000167e-03 4.950178295576399101e+00
9.374999999999999653e-03 5.164900000000000047e-02 2.979595327802327276e+00
0.000000000000000000e+00 3.746690000000000003e-03 4.513008257088956476e+00
9.374999999999999653e-03 3.725570000000000270e-02 3.472471507600285445e+00
0.000000000000000000e+00 3.277439999999999846e-04 4.010906578403987233e+00
0.000000000000000000e+00 1.869440000000000045e-04 4.920156159375074445e+00
3.125000000000000173e-03 3.467679999999999894e-03 3.034237010006657798e+00
3.125000000000000173e-03 1.161729999999999924e-03 9.496400505989338603e-01
2.500000000000000139e-02 2.754429999999999986e-03 9.004024270285237996e-02
0.000000000000000000e+00 4.906559999999999915e-03 2.724809480083973501e+00
0.000000000000000000e+00 1.722300000000000095e-05 4.984368375896311321e+00
0.000000000000000000e+00 1.075319999999999922e-02 2.540345667669530627e+00
6.250000000000000347e-03 1.390399999999999969e-03 9.529679768165266740e-01
0.000000000000000000e+00 7.505189999999999475e-04 3.507538964608278853e+00
0.000000000000000000e+00 9.340159999999999695e-04 3.658768230876372485e+00
0.000000000000000000e+00 5.656320000000000488e-04 3.975690393592901106e-01
0.000000000000000000e+00 2.714879999999999811e-03 3.767174205948948362e+00
0.000000000000000000e+00 3.884159999999999891e-04 4.011662625300963292e+00
0.000000000000000000e+00 7.271130000000000431e-04 4.276082178969821790e+00
0.000000000000000000e+00 1.089469999999999935e-03 1.441313259019343374e+00
0.000000000000000000e+00 1.036669999999999953e-03 2.997582434011100805e+00
1.562500000000000000e-02 2.348990000000000019e-03 3.653151096106704188e+00
0.000000000000000000e+00 1.443840000000000054e-04 3.833314085673371174e+00
0.000000000000000000e+00 2.832639999999999984e-03 2.516533039366797286e-01
9.374999999999999653e-03 3.923080000000000317e-02 1.406894344063349234e+00
6.250000000000000347e-03 9.870879999999999932e-02 2.587024588774460732e+00
9.374999999999999653e-03 1.176320000000000013e-03 3.339922444899348974e+00
0.000000000000000000e+00 9.379839999999999966e-04 4.596789271255513398e+00
2.812500000000000069e-02 2.581060000000000038e-03 7.402255485486342046e-03
0.000000000000000000e+00 1.502590000000000045e-03 1.267472388950346973e+00
0.000000000000000000e+00 2.912130000000000187e-03 7.735391342507824675e-01
2.187499999999999861e-02 3.101330000000000059e-02 2.319704725174949633e+00
1.250000000000000069e-02 1.021310000000000100e-03 1.697954278938745176e+00
0.000000000000000000e+00 1.209290000000000018e-02 1.645918155130297489e+00
0.000000000000000000e+00 1.098299999999999971e-01 2.742544999570121877e+00
0.000000000000000000e+00 2.845180000000000105e-03 3.476250504252442752e+00
0.000000000000000000e+00 3.827119999999999828e-02 4.589489073555855114e+00
0.000000000000000000e+00 2.245440000000000023e-03 4.478605292966138407e+00
0.000000000000000000e+00 1.720380000000000086e-03 5.226005313253945239e-01
2.500000000000000139e-02 2.350210000000000146e-03 3.694048262271035554e+00
9.374999999999999653e-03 1.795139999999999974e-03 1.331635333470965188e+00
0.000000000000000000e+00 2.364100000000000056e-03 5.186463513423467120e-01
0.000000000000000000e+00 5.307710000000000206e-03 4.803224736902230063e+00
9.062499999999999722e-02 5.417310000000000181e-02 1.548894953484290404e+00
6.250000000000000347e-03 1.302140000000000068e-02 2.254455090558192154e+00
0.000000000000000000e+00 4.270560000000000328e-02 4.272217619906496289e+00
3.125000000000000173e-03 4.330689999999999887e-03 4.176368148858310647e+00
0.000000000000000000e+00 2.826880000000000148e-04 1.383881113815566000e+00
3.125000000000000000e-02 2.421819999999999876e-03 4.149465867751822579e-01
0.000000000000000000e+00 6.472650000000000625e-02 3.628450235594948836e-01
6.250000000000000347e-03 2.548540000000000180e-03 3.417587541696794240e+00
0.000000000000000000e+00 3.606910000000000064e-03 1.909794414920492622e+00
2.500000000000000139e-02 9.239600000000000590e-02 1.960578208593648508e+00
2.187499999999999861e-02 9.234689999999999566e-02 8.350791372002169810e-01
2.500000000000000139e-02 9.517649999999999721e-02 3.989052286254911373e+00
2.500000000000000139e-02 2.235140000000000043e-03 2.993843846552129762e+00
2.500000000000000139e-02 2.103680000000000133e-03 3.321402312170288695e+00
1.562500000000000000e-02 2.194750000000000086e-03 4.775526480810144747e+00
3.125000000000000173e-03 2.128060000000000195e-03 4.030465134812287076e+00
0.000000000000000000e+00 1.017340000000000041e-03 1.918501196558705102e+00
0.000000000000000000e+00 1.170760000000000030e-02 1.226749075022056656e+00
0.000000000000000000e+00 4.968320000000000028e-04 4.724052798842413026e+00
2.500000000000000139e-02 1.682619999999999906e-03 1.456625452996249681e+00
0.000000000000000000e+00 3.790529999999999854e-03 4.719497753303165233e+00
0.000000000000000000e+00 1.037479999999999913e-03 4.291416524202116278e+00
0.000000000000000000e+00 3.017220000000000145e-03 3.882765900319188113e+00
0.000000000000000000e+00 1.589120000000000127e-04 1.539684286547934988e+00
2.500000000000000139e-02 5.168579999999999876e-03 1.949652500973970692e+00
3.125000000000000173e-03 9.880079999999999418e-02 4.993461543523657120e+00
3.749999999999999861e-02 9.136619999999999464e-02 2.617361179399440907e+00
2.187499999999999861e-02 1.896640000000000001e-03 4.287567049505946137e+00
6.250000000000000347e-03 3.659930000000000041e-03 3.885876135692843292e+00
2.500000000000000139e-02 4.731289999999999801e-02 4.039746878074138792e+00
3.125000000000000173e-03 4.517379999999999660e-03 9.480441976059800213e-01
0.000000000000000000e+00 1.242180000000000064e-03 2.378252030777943560e+00
0.000000000000000000e+00 3.196860000000000153e-03 2.089212783565432829e+00
0.000000000000000000e+00 3.759650000000000231e-04 3.477419245536416792e+00
0.000000000000000000e+00 3.572220000000000083e-03 3.328865010980910810e+00
2.187499999999999861e-02 1.582529999999999961e-03 2.086485921259860099e+00
2.812500000000000069e-02 2.875540000000000040e-02 1.884616987800002974e+00
9.374999999999999653e-03 1.981919999999999862e-02 6.853945826970248012e-01
3.125000000000000173e-03 1.646209999999999948e-03 4.447594428789874987e-01
9.374999999999999653e-03 2.176829999999999824e-03 2.734201107706180078e+00
0.000000000000000000e+00 5.964160000000000034e-04 9.238018667015346352e-02
0.000000000000000000e+00 5.403840000000000032e-03 4.129414208622488758e+00
0.000000000000000000e+00 2.287660000000000049e-05 3.801881541350922156e+00
4.374999999999999722e-02 3.764859999999999735e-02 3.712026599143963823e-01
3.749999999999999861e-02 9.113430000000000142e-02 6.662805510139824250e-01
3.125000000000000173e-03 1.515199999999999967e-03 4.330069880583659270e+00
3.125000000000000173e-03 4.280130000000000046e-03 8.973072134223369911e-01
4.062500000000000139e-02 3.601150000000000184e-02 4.799759026053412647e+00
1.874999999999999931e-02 9.466810000000000502e-02 2.200735865085605258e+00
6.250000000000000347e-03 3.190909999999999927e-03 1.042169253222589465e+00
0.000000000000000000e+00 1.212989999999999945e-03 1.933483006179035790e+00
0.000000000000000000e+00 2.097470000000000150e-03 2.363214116167920320e+00
0.000000000000000000e+00 5.088960000000000011e-04 2.207736294018711298e+00
0.000000000000000000e+00 4.926719999999999884e-04 1.550593849338428587e+00
0.000000000000000000e+00 2.231040000000000106e-04 4.183694172195337124e+00
3.125000000000000000e-02 9.247569999999999402e-02 3.296930239523787609e-01
2.812500000000000069e-02 1.817279999999999894e-03 4.166151749758417733e-01
0.000000000000000000e+00 2.764350000000000054e-03 9.861522852450882448e-01
0.000000000000000000e+00 3.065340000000000165e-03 9.254607769844597209e-01
1.250000000000000069e-02 1.584319999999999956e-03 1.198174835532070492e+00
0.000000000000000000e+00 9.634790000000000498e-04 9.423092332701943352e-02
0.000000000000000000e+00 5.552770000000000275e-03 4.243521375293578757e+00
3.125000000000000173e-03 1.019869999999999978e-02 1.018848693349162504e+00
0.000000000000000000e+00 1.992960000000000109e-04 1.722526444261404777e+00
1.250000000000000069e-02 2.540989999999999915e-03 3.975726003358460048e+00
2.812500000000000069e-02 9.307550000000000545e-02 3.781449229541292034e+00
9.374999999999999653e-03 9.388779999999999348e-02 4.160537432969773519e+00
9.374999999999999653e-03 5.499900000000000275e-03 7.711721138409877163e-01
2.187499999999999861e-02 3.823420000000000117e-03 1.708406212179113925e+00
1.874999999999999931e-02 9.254149999999999876e-02 4.166978589054760818e+00
0.000000000000000000e+00 3.692099999999999809e-03 4.099996440799980491e+00
6.250000000000000347e-03 3.651020000000000047e-03 6.152613548529745069e-01
0.000000000000000000e+00 1.770880000000000067e-03 2.865334593431280830e+00
3.125000000000000173e-03 9.484879999999999700e-02 3.104609010199405716e+00
1.062499999999999972e-01 9.187449999999999783e-02 9.651827917190475281e-01
1.562500000000000000e-02 2.219650000000000095e-03 2.217446088261179504e+00
0.000000000000000000e+00 7.103819999999999623e-04 1.781481994271566505e-01
2.187499999999999861e-02 1.797629999999999931e-03 4.910345629086794617e+00
2.500000000000000139e-02 5.271679999999999942e-03 4.065170542480844862e-02
0.000000000000000000e+00 2.320260000000000204e-03 4.750641388834193179e+00
0.000000000000000000e+00 2.953020000000000211e-03 3.731174052975835931e+00
1.250000000000000069e-02 2.367869999999999784e-03 2.146422848128440641e+00
0.000000000000000000e+00 9.571199999999999977e-04 2.894623054271810325e+00
0.000000000000000000e+00 9.693889999999999452e-02 1.420110809025376675e-01
2.187499999999999861e-02 2.075329999999999796e-03 3.881716884616199792e+00
0.000000000000000000e+00 4.257260000000000232e-04 2.776417763524281934e+00
0.000000000000000000e+00 3.902650000000000129e-03 3.033079733715239534e+00
0.000000000000000000e+00 2.704000000000000132e-04 1.485238381330557633e+00
6.250000000000000347e-03 1.867710000000000073e-03 3.005300844241549640e+00
0.000000000000000000e+00 7.321790000000000112e-04 4.554070998852648877e+00
0.000000000000000000e+00 9.564800000000000038e-04 3.371493569929790990e+00
3.749999999999999861e-02 2.307669999999999860e-02 4.815797606019020627e+00
3.125000000000000173e-03 4.838079999999999811e-03 1.123643456203021751e+00
0.000000000000000000e+00 7.691790000000000432e-04 2.414663198825062640e+00
1.031249999999999944e-01 8.091270000000000406e-02 2.063126583051473784e+00
2.187499999999999861e-02 1.849469999999999977e-03 5.172819653214261182e-01
9.374999999999999653e-03 1.954299999999999961e-03 3.908032751282555228e+00
3.125000000000000173e-03 4.602819999999999655e-03 1.698720630378345753e+00
2.187499999999999861e-02 2.399169999999999948e-03 2.402299345092548499e+00
1.874999999999999931e-02 5.726359999999999784e-03 2.273276222592584439e+00
0.000000000000000000e+00 9.841279999999999126e-04 3.159674129470372073e+00
0.000000000000000000e+00 0.000000000000000000e+00 2.333860859477181915e+00
0.000000000000000000e+00 1.689600000000000086e-03 5.585155904152383499e-01
0.000000000000000000e+00 1.173819999999999898e-03 2.711407675653239480e+00
0.000000000000000000e+00 2.021380000000000138e-03 2.247204246785177162e+00
1.874999999999999931e-02 1.769340000000000105e-03 2.768822759636145214e+00
1.250000000000000069e-02 3.379479999999999984e-02 3.797905043839475692e+00
3.125000000000000173e-03 1.701180000000000053e-03 4.871361685122276519e+00
0.000000000000000000e+00 9.744350000000000234e-02 3.289933817452528775e+00
6.250000000000000347e-03 1.487360000000000071e-03 3.662952347490740390e+00
9.374999999999999653e-03 5.517949999999999765e-03 3.488582147953902979e+00
2.500000000000000139e-02 5.318530000000000132e-03 4.063185929042056443e+00
9.374999999999999653e-03 2.715899999999999825e-03 3.902572532353359769e+00
0.000000000000000000e+00 2.834109999999999928e-03 2.713919674052359010e+00
6.250000000000000347e-03 1.041660000000000025e-03 3.113455899785341874e+00
1.562500000000000000e-02 2.350660000000000076e-03 2.439655815051481547e+00
0.000000000000000000e+00 1.505070000000000019e-02 4.409794849086903668e+00
0.000000000000000000e+00 2.591289999999999783e-04 1.828167537235461104e+00
0.000000000000000000e+00 2.976959999999999849e-03 2.336751715394298046e+00
0.000000000000000000e+00 5.589760000000000041e-03 4.786402937976879102e+00
0.000000000000000000e+00 1.080259999999999988e-03 4.564794921195828081e+00
3.437500000000000278e-02 9.239179999999999615e-02 1.531832359627904427e+00
0.000000000000000000e+00 2.390399999999999882e-04 1.396936010753785373e+00
2.500000000000000139e-02 2.887999999999999942e-03 3.918373981446250820e+00
1.874999999999999931e-02 2.067779999999999965e-03 1.839800881186313575e+00
1.562500000000000000e-02 6.915179999999999938e-03 1.846216602733511403e+00
0.000000000000000000e+00 4.336130000000000106e-04 4.047560935244886693e+00
1.874999999999999931e-02 4.935039999999999913e-03 2.940265396841451384e+00
3.125000000000000173e-03 4.664190000000000350e-03 3.103779429558516156e+00
0.000000000000000000e+00 3.651390000000000018e-03 2.364471809129874202e+00
3.125000000000000173e-03 1.010499999999999897e-03 2.766916473988625391e+00
0.000000000000000000e+00 1.935300000000000041e-03 4.488805601351528729e+00
3.125000000000000173e-03 3.581120000000000136e-03 1.661472812375120345e+00
2.812500000000000069e-02 2.299520000000000210e-03 3.039312373586231519e+00
3.125000000000000173e-03 3.365149999999999912e-03 3.829904132055325761e+00
0.000000000000000000e+00 3.325439999999999820e-03 4.295637530570730611e+00
2.187499999999999861e-02 2.473710000000000145e-02 4.815936729308440079e+00
3.125000000000000173e-03 1.053319999999999951e-01 2.710627344253008220e-01
3.125000000000000173e-03 3.096679999999999919e-02 6.875963918863503554e-01
1.874999999999999931e-02 1.139680000000000033e-02 2.545861560440952687e+00
1.250000000000000069e-02 1.402370000000000005e-03 4.602710339142823237e+00
2.187499999999999861e-02 1.057229999999999975e-01 1.316979045625010336e+00
1.562500000000000000e-02 7.306240000000000304e-04 1.832397188017686585e+00
0.000000000000000000e+00 2.932740000000000086e-03 3.183624253874894450e+00
0.000000000000000000e+00 1.015040000000000039e-03 2.619234184278159461e+00
1.874999999999999931e-02 2.858369999999999835e-03 2.010308383210213101e-01
0.000000000000000000e+00 1.109949999999999956e-03 1.025631465670991282e+00
1.562500000000000000e-02 9.716589999999999949e-02 2.041549614165368176e+00
0.000000000000000000e+00 2.873339999999999835e-03 2.695460777120063156e+00
7.187499999999999445e-02 4.075550000000000006e-02 4.146913703715951804e+00
1.874999999999999931e-02 1.350660000000000055e-03 4.247888664340672804e+00
0.000000000000000000e+00 8.152209999999999795e-04 1.809927235923149968e+00
3.125000000000000000e-02 1.083670000000000050e-01 2.684389144731152976e-01
0.000000000000000000e+00 3.088259999999999790e-03 3.906045479848705870e+00
3.125000000000000173e-03 2.294660000000000016e-03 3.603491714418523451e+00
1.562500000000000000e-02 3.217659999999999791e-03 2.366939354813397678e+00
3.125000000000000173e-03 7.648450000000000214e-03 3.033518920966647769e+00
1.250000000000000069e-02 2.814979999999999913e-03 3.310304886281455694e+00
2.812500000000000069e-02 2.234879999999999853e-03 1.785871310775586807e+00
0.000000000000000000e+00 7.172380000000000335e-04 2.839875061299119707e+00
1.250000000000000069e-02 6.921090000000000401e-03 2.100647575574272174e+00
0.000000000000000000e+00 4.936320000000000334e-04 4.504498871260725679e+00
6.250000000000000347e-03 5.865539999999999816e-03 4.528621716805724340e+00
0.000000000000000000e+00 1.269820000000000063e-03 1.907125990063310184e+00
3.125000000000000173e-03 4.374910000000000083e-03 2.867059671492300232e+00
0.000000000000000000e+00 1.886260000000000020e-02 4.868746353910519131e-01
1.250000000000000069e-02 1.494019999999999983e-03 4.915023748236199808e+00
3.125000000000000173e-03 4.604989999999999778e-03 1.714826431797962236e+00
1.250000000000000069e-02 3.638590000000000140e-03 4.809740425326643809e+00
6.250000000000000347e-03 1.286460000000000034e-02 6.651330373568414833e-01
0.000000000000000000e+00 2.837060000000000189e-03 3.798473029829183112e+00
2.812500000000000069e-02 1.324859999999999970e-03 5.463448740469745157e-01
6.250000000000000347e-03 1.730240000000000077e-03 2.301500939223798170e+00
1.250000000000000069e-02 1.756030000000000004e-03 2.842979412021483299e+00
3.125000000000000173e-03 2.712700000000000181e-03 1.063385044575420491e+00
3.125000000000000173e-03 8.867079999999999407e-03 1.509251067284865133e+00
2.187499999999999861e-02 2.210559999999999869e-03 4.282243330644933899e+00
6.250000000000000347e-03 8.850559999999999504e-04 3.020384848105968079e+00
0.000000000000000000e+00 6.011719999999999694e-04 3.138962107295484749e+00
0.000000000000000000e+00 1.203139999999999895e-03 1.423311217162432474e+00
3.125000000000000173e-03 9.374599999999999600e-02 1.283940615496981241e-01
0.000000000000000000e+00 9.931879999999999875e-02 4.548150870049841643e+00
0.000000000000000000e+00 3.142910000000000061e-03 4.400379387180902713e-01
3.125000000000000173e-03 4.521729999999999847e-03 6.333885251614973511e-01
3.125000000000000173e-03 1.670210000000000097e-03 2.132393274919104353e+00
0.000000000000000000e+00 8.429239999999999953e-04 3.320768966536106426e+00
0.000000000000000000e+00 6.228460000000000333e-04 2.458987678942599509e+00
9.374999999999999653e-03 9.588359999999999939e-02 2.724031703347005617e+00
3.125000000000000173e-03 4.063869999999999982e-02 2.616351251390641064e+00
0.000000000000000000e+00 2.053760000000000069e-04 4.728032358580035677e+00
0.000000000000000000e+00 9.557119999999999461e-04 1.176704247538866266e+00
6.250000000000000347e-03 3.928460000000000285e-02 4.014815156858457357e+00
2.500000000000000139e-02 2.539140000000000060e-03 4.361088108492126914e+00
0.000000000000000000e+00 2.611199999999999936e-04 2.989205826416271528e+00
0.000000000000000000e+00 5.159549999999999727e-03 1.342381398846966167e+00
1.874999999999999931e-02 3.316799999999999957e-03 3.391586030183351141e+00
3.125000000000000173e-03 1.697979999999999975e-03 1.157455562424645201e+00
0.000000000000000000e+00 2.576730000000000166e-03 1.846823963232413934e+00
3.125000000000000173e-03 2.728770000000000154e-03 3.342356700013765503e-01
0.000000000000000000e+00 9.770880000000000884e-04 6.404043457792701899e-01
1.874999999999999931e-02 4.031189999999999773e-02 1.278326261808989672e+00
3.125000000000000173e-03 1.455619999999999917e-03 3.112248173245296456e+00
0.000000000000000000e+00 3.962880000000000113e-04 3.992381301958515927e+00
0.000000000000000000e+00 1.070210000000000041e-03 2.003991908644311870e+00
0.000000000000000000e+00 2.684100000000000028e-03 2.700668678997364403e+00
1.250000000000000069e-02 2.484800000000000116e-03 1.981098332890088187e+00
0.000000000000000000e+00 4.906559999999999915e-03 3.336308817037364483e-01
0.000000000000000000e+00 1.789690000000000031e-02 3.674267769113694015e+00
2.812500000000000069e-02 4.861439999999999859e-03 1.439189860252176434e+00
1.562500000000000000e-02 5.590590000000000316e-03 3.938543036548472376e+00
2.812500000000000069e-02 1.955839999999999922e-03 2.672007231497519619e-01
0.000000000000000000e+00 4.374270000000000415e-03 1.222996898333237770e+00
0.000000000000000000e+00 5.123839999999999515e-04 4.650032554553040764e-02
1.250000000000000069e-02 1.816700000000000086e-03 1.136291089718675096e+00
0.000000000000000000e+00 6.732479999999999888e-04 2.301309180554871325e+00
6.250000000000000347e-03 1.384260000000000004e-03 3.604872840847102466e+00
2.500000000000000139e-02 2.824829999999999963e-03 4.405020608132228510e+00
0.000000000000000000e+00 1.021310000000000100e-03 1.390595466874050556e-01
0.000000000000000000e+00 2.297969999999999955e-05 7.245031258570144850e-01
0.000000000000000000e+00 5.610620000000000190e-03 2.110489833561048467e+00
2.500000000000000139e-02 1.894850000000000007e-03 3.130348950949038311e+00
3.125000000000000173e-03 1.578179999999999991e-03 4.260121938847841960e+00
0.000000000000000000e+00 9.766399999999999734e-04 4.305015813243924683e+00
2.812500000000000069e-02 9.205699999999999994e-02 1.669830121710846882e-01
1.250000000000000069e-02 3.327940000000000152e-03 3.114662265446965783e-01
9.374999999999999653e-03 1.383869999999999935e-03 1.068515932855809591e+00
0.000000000000000000e+00 3.165980000000000183e-02 4.575023933407383225e+00
0.000000000000000000e+00 1.692160000000000007e-04 3.336146521509819163e+00
9.374999999999999653e-03 1.954299999999999961e-03 2.391391121060219671e+00
1.562500000000000000e-02 2.979579999999999902e-03 1.896826694719826012e+00
3.125000000000000173e-03 1.957829999999999987e-02 3.959800771534003783e+00
0.000000000000000000e+00 2.749440000000000022e-04 2.885148828852251990e-01
0.000000000000000000e+00 2.582019999999999975e-03 3.820815392822373813e+00
1.562500000000000000e-02 2.516579999999999859e-02 1.126516084677297691e+00
0.000000000000000000e+00 1.160320000000000058e-03 1.065190543876768370e+00
3.125000000000000173e-03 1.473250000000000080e-02 4.408929822011721456e+00
0.000000000000000000e+00 4.398329999999999883e-04 1.438238677762786466e+00
1.562500000000000000e-02 4.470850000000000171e-03 3.752153680436634886e+00
3.125000000000000173e-03 9.383879999999999999e-02 1.137114310746076828e+00
0.000000000000000000e+00 1.196799999999999947e-02 3.798876324449065311e+00
3.125000000000000173e-03 1.124989999999999974e-03 4.319515715895488883e-01
0.000000000000000000e+00 1.592320000000000096e-04 4.331322985530755565e-01
0.000000000000000000e+00 9.263999999999999665e-04 4.819199425222031596e-01
0.000000000000000000e+00 4.044159999999999986e-04 8.936425141448434140e-02
1.562500000000000000e-02 2.894400000000000098e-03 1.693660367477353157e+00
0.000000000000000000e+00 4.661120000000000259e-04 7.779484013362147898e-02
0.000000000000000000e+00 1.408290000000000063e-02 1.181955611797073757e+00
3.749999999999999861e-02 3.114520000000000136e-02 2.444854049902578375e-02
2.812500000000000069e-02 6.478020000000000132e-03 1.368231493742764204e+00
0.000000000000000000e+00 9.997439999999998932e-04 3.583014896463025512e+00
0.000000000000000000e+00 1.121859999999999915e-03 4.526652038909865006e+00
0.000000000000000000e+00 1.650180000000000006e-03 1.929721460762923169e+00
2.500000000000000139e-02 1.465280000000000011e-03 8.079649594685545111e-03
0.000000000000000000e+00 2.598019999999999930e-03 3.917106423833708106e+00
0.000000000000000000e+00 1.150559999999999951e-02 1.602416488147466289e+00
3.125000000000000173e-03 1.595779999999999985e-03 3.173301276998763409e-01
6.250000000000000347e-03 4.796929999999999597e-03 2.306246688922629851e+00
0.000000000000000000e+00 4.188640000000000202e-04 3.008119002710519574e+00
0.000000000000000000e+00 9.868800000000000922e-04 2.788892871498654280e+00
1.562500000000000000e-02 5.568769999999999797e-03 6.599647072556469318e-01
9.374999999999999653e-03 1.593019999999999896e-03 7.225814830817350876e-01
0.000000000000000000e+00 5.024639999999999922e-04 4.403269516947153406e+00
0.000000000000000000e+00 3.463040000000000237e-04 3.718087298275647434e+00
0.000000000000000000e+00 4.813220000000000107e-04 2.039091706309548613e+00
3.125000000000000173e-03 9.997109999999999330e-02 1.663200069585382135e+00
2.812500000000000069e-02 1.553729999999999912e-03 1.896532969618954789e+00
0.000000000000000000e+00 1.226889999999999925e-02 4.904329234527409653e+00
1.562500000000000000e-02 1.994749999999999995e-03 4.470277087475466038e-01
3.125000000000000173e-03 1.325180000000000021e-03 7.159750972931200330e-01
1.562500000000000000e-02 2.598210000000000103e-03 2.588916484417099539e+00
0.000000000000000000e+00 2.658109999999999987e-03 3.804806082096176212e+00
0.000000000000000000e+00 1.206140000000000077e-03 2.617664712486748257e+00
1.250000000000000069e-02 1.312000000000000015e-03 5.684297832913925985e-01
2.812500000000000069e-02 2.089979999999999963e-03 8.786453076345218660e-01
3.125000000000000173e-03 9.769680000000000031e-02 1.910603549999443374e+00
0.000000000000000000e+00 1.153149999999999922e-03 9.430741356227678729e-01
3.125000000000000173e-03 3.881599999999999807e-03 4.248674645292175533e+00
1.562500000000000000e-02 1.270340000000000011e-03 1.407474589517260233e-01
0.000000000000000000e+00 3.044100000000000104e-03 1.541458444223906987e+00
3.125000000000000173e-03 5.008770000000000062e-03 2.729545692799399959e+00
1.562500000000000000e-02 1.774079999999999928e-03 1.987698015540392937e+00
0.000000000000000000e+00 5.697919999999999548e-04 1.724030225573594421e+00
0.000000000000000000e+00 2.793920000000000084e-03 1.519669381281818499e-01
0.000000000000000000e+00 2.154179999999999897e-03 2.781897458960702174e+00
0.000000000000000000e+00 2.925500000000000149e-03 3.896146685913875363e+00
0.000000000000000000e+00 4.322670000000000136e-04 2.845226011419701884e+00
2.812500000000000069e-02 1.677700000000000068e-03 2.050849033545356193e+00
3.125000000000000173e-03 2.080770000000000015e-03 2.293209552124788164e+00
0.000000000000000000e+00 3.945600000000000170e-04 3.294536797676764106e+00
0.000000000000000000e+00 3.720320000000000051e-04 1.788578240349325554e+00
0.000000000000000000e+00 1.187260000000000095e-03 3.818628808289777243e+00
0.000000000000000000e+00 5.656510000000000010e-03 7.341502876918132303e-01
0.000000000000000000e+00 2.822719999999999917e-03 1.689013943148712782e+00
1.562500000000000000e-02 6.915179999999999938e-03 3.831407826742707190e+00
6.250000000000000347e-03 2.759669999999999832e-02 2.955237316416562621e+00
0.000000000000000000e+00 4.142470000000000202e-04 2.281825543988321492e+00
3.125000000000000173e-03 4.666619999999999796e-03 4.378902678097241541e+00
0.000000000000000000e+00 5.230080000000000449e-04 3.126992235796929087e+00
1.250000000000000069e-02 3.264700000000000154e-03 3.277088467686543716e+00
3.125000000000000173e-03 4.558269999999999683e-03 2.122489981501437306e+00
0.000000000000000000e+00 3.807360000000000085e-04 2.696898830869171704e+00
0.000000000000000000e+00 8.976000000000000255e-04 4.232647685492488598e+00
9.374999999999999653e-03 1.266089999999999924e-02 3.072776563105947378e+00
0.000000000000000000e+00 3.006459999999999862e-03 4.555713778122478352e+00
1.250000000000000069e-02 2.210880000000000137e-03 4.680767054300781993e+00
0.000000000000000000e+00 4.431870000000000080e-03 2.360478657011705117e+00
0.000000000000000000e+00 1.074480000000000053e-03 9.615358506096360891e-01
0.000000000000000000e+00 8.163780000000000689e-03 1.095994815263884314e-01
0.000000000000000000e+00 1.120509999999999909e-03 2.123170039680309706e+00
0.000000000000000000e+00 1.753730000000000002e-03 8.236050106098857793e-01
0.000000000000000000e+00 4.049279999999999828e-04 3.906503812820481425e+00
0.000000000000000000e+00 9.782400000000000123e-04 1.538322932387874431e+00
0.000000000000000000e+00 0.000000000000000000e+00 6.181677122219236820e-01
2.812500000000000069e-02 2.705860000000000036e-03 2.622339440946808153e-01
0.000000000000000000e+00 1.094420000000000028e-03 4.861105107765048672e+00
3.125000000000000173e-03 4.594049999999999696e-03 3.600651531862048671e+00
9.374999999999999653e-03 2.747840000000000091e-03 3.113226647564970584e-01
9.062499999999999722e-02 1.051269999999999982e-01 8.869727596098631039e-01
0.000000000000000000e+00 2.377600000000000004e-04 2.712081028528422699e+00
0.000000000000000000e+00 7.253179999999999697e-04 7.564708000460546033e-01
0.000000000000000000e+00 4.383999999999999768e-04 2.465401211217802313e+00
0.000000000000000000e+00 5.121019999999999565e-04 3.678144376746854238e+00
0.000000000000000000e+00 2.526720000000000094e-04 1.003365968420706800e+00
0.000000000000000000e+00 0.000000000000000000e+00 4.231564595083811220e+00
0.000000000000000000e+00 8.938239999999999857e-04 4.613551264853297695e+00
0.000000000000000000e+00 1.002749999999999952e-03 9.645646443717048601e-01
0.000000000000000000e+00 1.260480000000000021e-03 1.643980142840132386e+00
1.250000000000000069e-02 2.551939999999999938e-03 1.641794914216220258e+00
0.000000000000000000e+00 2.293270000000000153e-05 4.801399151392050868e+00
0.000000000000000000e+00 3.294080000000000012e-04 8.437697246881631363e-01
3.125000000000000173e-03 2.239679999999999969e-03 3.957824805190188755e+00
0.000000000000000000e+00 2.286209999999999919e-05 3.023017982797364667e+00
3.125000000000000173e-03 4.375679999999999847e-03 1.436085523224249094e+00
3.125000000000000000e-02 1.061280000000000001e-01 4.715656802300355999e+00
0.000000000000000000e+00 1.606589999999999971e-03 2.926251129900405257e+00
0.000000000000000000e+00 2.179840000000000163e-03 3.383880649332882129e+00
0.000000000000000000e+00 2.394879999999999947e-04 6.035105616034824871e-01
2.500000000000000139e-02 1.840320000000000107e-03 4.231236335600533138e+00
2.812500000000000069e-02 3.433410000000000021e-03 1.533346617486079477e+00
1.874999999999999931e-02 2.263359999999999851e-03 1.819348900814339309e+00
3.125000000000000173e-03 4.436029999999999661e-03 2.302565679804791543e+00
0.000000000000000000e+00 8.272779999999999761e-04 3.257229789293414779e+00
1.874999999999999931e-02 2.276929999999999926e-03 3.572446424849833324e+00
0.000000000000000000e+00 1.184130000000000078e-02 6.319899456082272993e-01
0.000000000000000000e+00 3.146240000000000018e-04 4.018918666127169192e-01
1.874999999999999931e-02 2.155259999999999988e-03 6.384675964969632744e-01
0.000000000000000000e+00 4.093100000000000232e-04 4.890581609749553138e+00
1.562500000000000000e-02 2.633340000000000073e-03 3.460137644493904707e-01
0.000000000000000000e+00 3.784150000000000014e-02 3.712231405275290275e+00
0.000000000000000000e+00 9.242350000000000305e-04 1.015884614499409366e+00
0.000000000000000000e+00 8.317379999999999218e-03 7.659558816584571828e-01
0.000000000000000000e+00 2.192639999999999932e-04 1.124259728209377585e+00
0.000000000000000000e+00 4.450149999999999939e-03 1.108520657253284192e+00
2.187499999999999861e-02 2.418560000000000154e-03 1.161292302682680466e+00
2.500000000000000139e-02 2.038780000000000019e-03 2.299529659947047833e+00
1.874999999999999931e-02 2.346689999999999800e-03 1.389226325331834877e+00
3.749999999999999861e-02 4.005020000000000108e-02 2.033239099207420519e+00
1.562500000000000000e-02 2.609859999999999871e-03 5.676581289092680338e-01
0.000000000000000000e+00 1.851950000000000116e-05 4.393152804259846000e+00
0.000000000000000000e+00 1.067459999999999893e-03 4.281593361848353041e+00
0.000000000000000000e+00 3.894400000000000119e-04 2.531327941893406042e+00
3.125000000000000173e-03 1.714940000000000084e-03 1.947694783977408362e+00
1.874999999999999931e-02 9.178100000000000147e-02 2.351744381445471266e+00
1.562500000000000000e-02 1.471550000000000072e-03 2.451854047562530781e+00
0.000000000000000000e+00 1.062400000000000020e-03 1.425777739581145509e+00
6.250000000000000347e-03 9.725280000000000036e-02 2.670822173178977188e-01
0.000000000000000000e+00 3.753240000000000135e-04 3.840948651323268237e+00
3.125000000000000173e-03 4.495999999999999996e-03 3.984130695774203978e+00
6.250000000000000347e-03 9.593480000000000063e-02 1.589409542014038612e+00
0.000000000000000000e+00 1.983359999999999930e-04 1.727967946796629573e+00
0.000000000000000000e+00 9.395840000000000355e-04 3.799464180358791410e+00
9.374999999999999653e-03 3.093430000000000138e-02 2.646536326725838606e+00
0.000000000000000000e+00 9.204499999999999574e-04 3.058697834412210881e+00
1.562500000000000000e-02 1.612670000000000076e-03 1.407677808098654726e+00
0.000000000000000000e+00 3.671999999999999917e-03 2.693368545085117471e+00
0.000000000000000000e+00 6.474060000000000014e-04 1.729903170919451227e+00
2.812500000000000069e-02 4.698909999999999892e-02 3.028038190445386135e+00
0.000000000000000000e+00 2.536060000000000137e-03 4.587870068325934803e+00
0.000000000000000000e+00 2.090159999999999992e-05 4.174048553134779294e-01
2.812500000000000069e-02 4.749599999999999655e-02 3.078360143495850298e+00
3.437500000000000278e-02 1.070269999999999971e-01 1.867829679175019297e+00
2.812500000000000069e-02 2.234879999999999853e-03 7.241867533273332880e-01
2.812500000000000069e-02 2.983099999999999814e-03 4.637471537866510118e+00
1.874999999999999931e-02 5.179900000000000303e-03 4.099880433297242721e-01
0.000000000000000000e+00 4.401669999999999888e-03 4.195700652231889372e+00
0.000000000000000000e+00 4.256829999999999642e-03 4.910323746731154460e-01
0.000000000000000000e+00 1.966980000000000117e-03 4.562821102488153535e+00
0.000000000000000000e+00 2.304530000000000109e-05 2.994239353710509421e-01
0.000000000000000000e+00 9.919359999999999029e-04 9.954874844027061798e-01
3.125000000000000173e-03 5.126659999999999898e-03 3.030420361622820025e+00
2.187499999999999861e-02 4.710570000000000035e-02 3.095204047410548664e+00
3.125000000000000173e-03 7.776250000000000176e-03 2.383878679056035566e+00
0.000000000000000000e+00 6.827839999999999951e-03 2.117387876932431023e+00
0.000000000000000000e+00 9.652330000000000632e-02 2.494878233487846098e-01
0.000000000000000000e+00 7.290369999999999793e-04 1.353643289632627811e+00
3.125000000000000173e-03 1.247740000000000004e-03 9.710087783641702108e-01
3.125000000000000173e-03 7.573869999999999908e-03 2.070447776076766555e+00
2.187499999999999861e-02 9.152649999999999675e-02 1.378569615934106096e+00
1.874999999999999931e-02 1.831299999999999898e-03 1.562576335090580804e+00
0.000000000000000000e+00 1.898249999999999937e-02 2.597339534289789142e+00
1.562500000000000000e-02 1.076470000000000066e-01 4.694433097988540027e+00
4.062500000000000139e-02 9.348090000000000566e-02 1.661775110628166408e-01
0.000000000000000000e+00 1.600089999999999846e-02 6.510320416580700487e-01
0.000000000000000000e+00 1.134849999999999965e-03 2.685095426750724990e+00
0.000000000000000000e+00 1.946430000000000078e-03 4.141413195793261615e+00
0.000000000000000000e+00 2.975620000000000001e-03 4.181002312655543562e+00
6.250000000000000347e-03 1.283779999999999991e-03 3.248177478208075231e-01
5.312499999999999861e-02 9.180989999999999984e-02 2.885875946617018073e+00
1.562500000000000000e-02 2.345540000000000125e-03 6.389888172194874150e-01
0.000000000000000000e+00 4.030080000000000012e-04 1.372179123192757144e+00
0.000000000000000000e+00 6.527719999999999356e-02 4.192613190152841618e+00
1.562500000000000000e-02 2.852219999999999929e-03 3.851344293293440524e-01
0.000000000000000000e+00 1.659519999999999995e-04 4.216253857341617284e+00
3.125000000000000173e-03 1.795900000000000014e-03 4.366246711101319455e+00
6.250000000000000347e-03 1.661820000000000051e-03 1.911959509177061811e+00
0.000000000000000000e+00 3.090849999999999848e-02 7.372584280284544267e-01
8.125000000000000278e-02 9.082139999999999658e-02 3.362541201747437203e+00
0.000000000000000000e+00 5.182080000000000367e-04 4.241859057691653945e+00
2.812500000000000069e-02 3.129149999999999814e-03 2.175532994444229651e+00
0.000000000000000000e+00 1.810299999999999930e-03 2.858824168097700458e+00
0.000000000000000000e+00 4.018879999999999848e-03 3.032464054606395898e+00
3.125000000000000173e-03 1.233850000000000051e-02 1.869097959237427276e+00
3.125000000000000000e-02 3.365429999999999811e-02 1.261552511666530929e+00
2.187499999999999861e-02 2.906499999999999796e-03 4.608173360930589713e-01
9.374999999999999653e-03 2.228930000000000061e-03 2.917584424390760045e+00
0.000000000000000000e+00 9.487299999999999510e-04 1.456452224813049590e+00
1.562500000000000000e-02 3.102919999999999984e-02 3.757324709394667561e+00
1.250000000000000069e-02 4.596030000000000081e-03 8.145840039727908488e-01
0.000000000000000000e+00 1.006850000000000106e-03 3.151724069546112617e+00
0.000000000000000000e+00 2.821380000000000068e-03 1.165305714077635724e+00
0.000000000000000000e+00 4.248279999999999786e-04 2.411492736010392601e+00
2.500000000000000139e-02 4.719589999999999896e-02 5.515766717388265183e-01
2.500000000000000139e-02 9.341800000000000104e-02 4.347748250314929841e+00
0.000000000000000000e+00 2.877699999999999963e-03 1.892750964865653751e+00
0.000000000000000000e+00 2.953599999999999910e-04 8.486531914571898705e-01
0.000000000000000000e+00 5.178239999999999536e-04 3.111489953627140537e+00
0.000000000000000000e+00 3.113470000000000126e-03 1.055351092306926475e+00
2.500000000000000139e-02 2.497409999999999821e-03 4.560936924884887667e+00
0.000000000000000000e+00 9.299460000000000712e-03 3.690373264184232838e+00
0.000000000000000000e+00 0.000000000000000000e+00 4.141699414231599263e+00
3.125000000000000173e-03 2.084990000000000107e-03 4.354067725150412294e+00
3.437500000000000278e-02 9.139849999999999364e-02 2.106007497085591762e+00
0.000000000000000000e+00 1.062210000000000064e-03 1.641950117719379598e+00
0.000000000000000000e+00 3.939200000000000232e-04 3.476037543660992490e-03
0.000000000000000000e+00 1.897859999999999912e-03 3.459413661050808386e+00
0.000000000000000000e+00 1.489279999999999944e-04 4.366132870544492395e-01
1.874999999999999931e-02 2.128319999999999951e-03 2.389411219285926702e+00
3.125000000000000173e-03 3.994280000000000226e-03 3.938617335289271271e+00
0.000000000000000000e+00 4.182230000000000105e-04 3.405851086416955109e+00
1.250000000000000069e-02 8.074879999999999775e-04 4.727417739162981247e-01
0.000000000000000000e+00 1.201339999999999960e-03 2.221568456996212859e+00
1.874999999999999931e-02 2.376189999999999813e-03 4.650937477460853842e+00
0.000000000000000000e+00 9.631359999999999618e-04 1.734819753257555330e+00
0.000000000000000000e+00 2.285060000000000108e-05 1.170610392766567198e+00
0.000000000000000000e+00 1.629500000000000089e-03 2.597629941868587977e+00
0.000000000000000000e+00 5.643780000000000151e-03 4.967963441174905626e+00
0.000000000000000000e+00 2.271740000000000039e-05 4.946629081324886101e+00
6.250000000000000347e-03 2.296190000000000037e-03 1.567976534368915598e+00
0.000000000000000000e+00 5.568380000000000378e-03 8.183133987429980216e-02
0.000000000000000000e+00 2.625119999999999884e-02 1.654974586868124931e+00
6.250000000000000347e-03 1.558460000000000010e-03 1.060909593911406601e+00
0.000000000000000000e+00 3.611839999999999842e-03 1.113255667309864361e+00
0.000000000000000000e+00 5.712640000000000383e-04 4.507914269828040332e+00
6.250000000000000347e-03 2.145919999999999946e-03 2.367695974796947489e+00
6.250000000000000347e-03 1.638130000000000142e-02 2.595356578094487610e+00
0.000000000000000000e+00 3.963259999999999700e-03 1.418629587880751330e+00
0.000000000000000000e+00 2.523140000000000105e-03 3.706224971270166701e+00
0.000000000000000000e+00 7.308969999999999920e-04 1.089421374035094425e+00
0.000000000000000000e+00 4.169409999999999913e-04 3.079362918130317262e+00
1.250000000000000069e-02 2.410820000000000150e-03 4.660816772888153103e+00
3.125000000000000173e-03 4.960319999999999833e-03 4.074145342146216819e+00
0.000000000000000000e+00 2.889280000000000147e-03 3.471634135537017940e+00
6.250000000000000347e-03 2.974529999999999969e-03 2.288613813301727529e+00
0.000000000000000000e+00 4.167610000000000411e-03 2.963750028866918296e+00
3.125000000000000173e-03 1.763779999999999949e-03 4.901670003508497686e+00
0.000000000000000000e+00 1.297629999999999921e-03 7.764560533257508501e-01
0.000000000000000000e+00 7.155710000000000239e-04 4.098721421405067566e+00
0.000000000000000000e+00 1.068930000000000054e-03 4.575333062982889665e+00
0.000000000000000000e+00 2.263019999999999892e-05 1.203538883126671788e+00
0.000000000000000000e+00 2.859009999999999937e-03 9.899223316581723386e-01
3.125000000000000173e-03 5.148800000000000252e-03 4.327485562693563104e+00
2.500000000000000139e-02 1.761219999999999973e-03 2.571763083163234320e+00
2.500000000000000139e-02 2.918979999999999839e-03 2.408537780091959846e+00
1.874999999999999931e-02 5.457150000000000022e-03 2.400187132926431932e+00
0.000000000000000000e+00 3.808900000000000046e-03 1.142843968392128762e+00
0.000000000000000000e+00 3.150399999999999815e-03 1.715746973794469721e+00
0.000000000000000000e+00 9.898240000000000424e-04 2.375159297803420166e+00
0.000000000000000000e+00 1.004010000000000059e-03 3.133087582451560493e+00
2.187499999999999861e-02 1.817540000000000084e-03 4.300755034914254260e+00
2.187499999999999861e-02 4.417469999999999730e-03 3.864136476512031182e-01
0.000000000000000000e+00 1.162590000000000021e-03 3.594001526617654818e+00
6.250000000000000347e-03 2.257859999999999989e-03 8.963772791894120129e-01
0.000000000000000000e+00 9.962239999999999811e-04 3.468989634631562957e+00
3.125000000000000173e-03 4.510659999999999670e-03 5.046584605876441865e-01
6.250000000000000347e-03 1.730479999999999952e-03 1.108012725028793444e+00
0.000000000000000000e+00 2.319359999999999966e-04 8.087574191438035021e-01
0.000000000000000000e+00 2.335980000000000001e-02 1.378048661799685659e-01
0.000000000000000000e+00 1.162590000000000021e-03 2.131896311212901018e+00
0.000000000000000000e+00 5.327300000000000091e-03 1.872510367947161747e+00
3.125000000000000173e-03 1.604540000000000003e-03 4.239089810425797467e+00
0.000000000000000000e+00 1.144580000000000077e-03 1.861830000885244640e+00
0.000000000000000000e+00 1.540860000000000016e-03 4.470355420555630843e+00
0.000000000000000000e+00 6.915780000000000538e-02 2.419696579826536187e+00
1.562500000000000000e-02 3.798020000000000042e-03 2.712458519495465126e+00
3.125000000000000000e-02 3.976289999999999686e-02 2.948560109298886900e+00
6.250000000000000347e-03 2.248959999999999935e-03 8.415080203799085723e-01
0.000000000000000000e+00 1.758400000000000024e-03 4.811512753661021158e+00
0.000000000000000000e+00 8.739600000000000146e-04 3.359736366881489023e+00
0.000000000000000000e+00 2.847230000000000073e-03 8.573944206484551689e-01
0.000000000000000000e+00 2.676479999999999962e-04 4.639251877141131963e+00
0.000000000000000000e+00 2.407680000000000096e-04 1.784610351149840124e-01
6.250000000000000347e-03 2.226430000000000162e-03 1.099789761132054622e+00
0.000000000000000000e+00 3.401799999999999963e-02 1.670651221485545790e+00
0.000000000000000000e+00 6.227840000000000329e-04 3.096698145845278027e+00
0.000000000000000000e+00 3.031810000000000060e-02 2.729427615014635045e+00
