0.000000000000000000e+00 3.458910000000000261e-04 1.674492818081066314e+00
3.125000000000000173e-03 1.638399999999999926e-03 3.535027360237619209e+00
2.500000000000000139e-02 2.137539999999999839e-03 8.126611875696904130e-01
0.000000000000000000e+00 1.783359999999999893e-03 2.444670965090440351e+00
3.125000000000000173e-03 9.703029999999999988e-02 2.667035455079998396e+00
1.874999999999999931e-02 1.679680000000000019e-03 2.476102221933796255e+00
0.000000000000000000e+00 1.104640000000000049e-03 2.886346301495200883e+00
0.000000000000000000e+00 1.391490000000000001e-03 4.927542322472600489e+00
0.000000000000000000e+00 1.831740000000000104e-03 3.981762766285246169e+00
3.125000000000000173e-03 5.036419999999999786e-03 4.734866586594897342e+00
2.500000000000000139e-02 3.441730000000000050e-03 2.531669910108538257e+00
0.000000000000000000e+00 1.080189999999999970e-03 3.580336010613793363e+00
1.562500000000000000e-02 1.774540000000000145e-02 3.701534834442254507e+00
4.374999999999999722e-02 9.495699999999999974e-02 2.720685226583246408e+00
1.562500000000000000e-02 5.124860000000000179e-03 3.602896145867319877e+00
0.000000000000000000e+00 1.185920000000000030e-03 4.758703906815425100e+00
0.000000000000000000e+00 1.587199999999999982e-04 3.705579431428889681e+00
0.000000000000000000e+00 4.156159999999999998e-04 2.472719394743716048e+00
2.500000000000000139e-02 2.947969999999999844e-03 1.936267363296092503e+00
0.000000000000000000e+00 1.135490000000000067e-03 5.781857481732044501e-01
0.000000000000000000e+00 0.000000000000000000e+00 4.332078160253219679e+00
0.000000000000000000e+00 3.944970000000000009e-04 3.266939917586231701e+00
0.000000000000000000e+00 3.562239999999999829e-04 3.202465103497517340e+00
0.000000000000000000e+00 3.976960000000000087e-04 2.906905016958915677e+00
0.000000000000000000e+00 9.282749999999999986e-04 1.512148199926556247e+00
0.000000000000000000e+00 9.303039999999999617e-04 6.435125302642569212e-01
0.000000000000000000e+00 1.556480000000000114e-04 7.804840707939475486e-01
5.625000000000000139e-02 1.062459999999999932e-01 4.909620552404986071e+00
0.000000000000000000e+00 3.093289999999999929e-02 4.648596065999035076e+00
1.562500000000000000e-02 5.123199999999999629e-03 2.179127149546494113e+00
2.812500000000000069e-02 9.413309999999999733e-02 3.797479789331648092e-01
3.125000000000000173e-03 3.965699999999999954e-03 2.595868333284190754e+00
6.250000000000000347e-03 3.003029999999999936e-02 3.478383728481545312e+00
0.000000000000000000e+00 2.028030000000000110e-03 3.692948698634245908e+00
0.000000000000000000e+00 3.251519999999999931e-03 6.593221644951680060e-01
1.562500000000000000e-02 1.870020000000000016e-03 3.000109982408103892e+00
6.250000000000000347e-03 4.116100000000000141e-03 4.964451554750606732e+00
3.125000000000000173e-03 4.676800000000000054e-03 1.882539882651969032e+00
0.000000000000000000e+00 3.996159999999999903e-04 5.397601875398538862e-01
0.000000000000000000e+00 1.698690000000000096e-03 3.025307919501449838e+00
0.000000000000000000e+00 1.721350000000000045e-05 4.002581597545541214e+00
0.000000000000000000e+00 6.967180000000000335e-04 8.470814292986478256e-01
0.000000000000000000e+00 2.750079999999999799e-04 2.463578432936533780e+00
0.000000000000000000e+00 5.408000000000000263e-04 4.273720768781387847e+00
1.250000000000000069e-02 2.131010000000000022e-03 1.120603161796048797e+00
0.000000000000000000e+00 9.632549999999999446e-02 3.753177583963340780e+00
1.562500000000000000e-02 3.012669999999999845e-03 1.954336403578227355e-02
1.250000000000000069e-02 2.106180000000000031e-03 5.409209646215079603e-01
0.000000000000000000e+00 1.080830000000000072e-03 1.407449275387940846e+00
6.250000000000000347e-03 9.668640000000000567e-02 2.233540881922438270e+00
0.000000000000000000e+00 8.902400000000000417e-04 4.101933306766277099e+00
0.000000000000000000e+00 3.294080000000000012e-04 1.563861514287304022e+00
0.000000000000000000e+00 1.116540000000000067e-03 2.767109480913831909e-01
2.187499999999999861e-02 2.249469999999999942e-03 1.462606550073136669e+00
0.000000000000000000e+00 1.209919999999999963e-03 1.876920774140251602e+00
0.000000000000000000e+00 8.437120000000000427e-04 1.402505611775155536e+00
2.187499999999999861e-02 2.439619999999999983e-03 4.292957407130142400e+00
3.125000000000000173e-03 1.568450000000000096e-03 3.265583386304391045e+00
3.125000000000000173e-03 4.204740000000000213e-03 6.138188024383062213e-01
1.562500000000000000e-02 9.370409999999999850e-02 3.238836720073086095e+00
6.250000000000000347e-03 1.747389999999999924e-03 2.622602543244944684e+00
0.000000000000000000e+00 5.244030000000000219e-03 3.220572563417225975e+00
0.000000000000000000e+00 6.489570000000000061e-02 1.509840113448718268e+00
0.000000000000000000e+00 2.767359999999999742e-04 2.979242447223939827e-01
2.187499999999999861e-02 1.710530000000000037e-03 3.736855678128641056e+00
3.125000000000000173e-03 9.308059999999999945e-02 4.890309167374317312e+00
0.000000000000000000e+00 1.182979999999999926e-03 4.576931613364691565e+00
0.000000000000000000e+00 9.836770000000000756e-04 7.752881739251638038e-01
3.125000000000000173e-03 1.209409999999999956e-03 4.998727570729144531e+00
0.000000000000000000e+00 1.151239999999999989e-03 3.440679280788101924e+00
0.000000000000000000e+00 4.060380000000000239e-02 3.346861062334193893e+00
3.125000000000000173e-03 1.387140000000000031e-03 4.290651744397589340e+00
6.250000000000000347e-03 1.004930000000000059e-02 1.506338757135809558e+00
0.000000000000000000e+00 0.000000000000000000e+00 1.316630649859323876e+00
3.125000000000000173e-03 5.202499999999999659e-03 4.977227550931228706e+00
3.125000000000000173e-03 9.472490000000000077e-02 3.857519298913294037e+00
3.125000000000000173e-03 1.748930000000000103e-03 1.959513949647775810e+00
2.187499999999999861e-02 1.444860000000000068e-03 2.200889207143414517e+00
0.000000000000000000e+00 1.086460000000000030e-03 3.719491853297699713e+00
0.000000000000000000e+00 3.518719999999999812e-04 2.429543734014478318e+00
1.250000000000000069e-02 1.396099999999999945e-02 4.526528556092757505e+00
3.125000000000000173e-03 2.143930000000000141e-02 3.107807027877172334e+00
3.749999999999999861e-02 9.296659999999999646e-02 2.541061816105847804e+00
0.000000000000000000e+00 1.351420000000000095e-03 1.661740687169997344e+00
2.500000000000000139e-02 1.070849999999999927e-03 3.950155376649944206e-01
0.000000000000000000e+00 2.666880000000000053e-04 4.501796262867824083e+00
3.125000000000000000e-02 9.313950000000000007e-02 1.685440413441714469e+00
0.000000000000000000e+00 3.358230000000000134e-04 1.493772025044129315e+00
4.687500000000000000e-02 3.445159999999999889e-02 2.601349607747567294e+00
0.000000000000000000e+00 1.127870000000000001e-03 2.660668776134807345e+00
5.937499999999999722e-02 1.073270000000000057e-01 1.623017724357505465e+00
0.000000000000000000e+00 2.020860000000000191e-03 2.422624173745097087e-01
3.125000000000000173e-03 9.611029999999999573e-02 3.938105679677102344e+00
0.000000000000000000e+00 5.147780000000000238e-03 4.695156329710822085e+00
2.500000000000000139e-02 2.399360000000000121e-03 4.741565847849208204e+00
3.125000000000000173e-03 4.215870000000000034e-03 4.871844213752900998e+00
3.125000000000000173e-03 1.666820000000000064e-03 2.476505220460616385e+00
0.000000000000000000e+00 1.024720000000000015e-03 1.759140611482053362e+00
0.000000000000000000e+00 2.475709999999999890e-03 4.148618949093560992e+00
2.500000000000000139e-02 2.946299999999999787e-03 3.126764668081627452e-01
0.000000000000000000e+00 1.178819999999999911e-03 4.242416335777675407e+00
0.000000000000000000e+00 2.006720000000000032e-03 1.636685144744145948e+00
0.000000000000000000e+00 1.743940000000000030e-03 1.830269077493181129e+00
3.125000000000000173e-03 4.898180000000000242e-03 6.657035959872698028e-01
0.000000000000000000e+00 3.276480000000000017e-03 3.779487724412493144e+00
6.250000000000000347e-03 1.067840000000000039e-01 4.960222475405490217e-01
0.000000000000000000e+00 1.010800000000000066e-03 4.202802375698010628e+00
0.000000000000000000e+00 1.093699999999999967e-03 3.129833924261800515e+00
4.374999999999999722e-02 9.751450000000000395e-02 1.261558658023048007e+00
0.000000000000000000e+00 3.941759999999999882e-04 4.135679225769633760e+00
3.125000000000000173e-03 4.741119999999999710e-03 3.281944916386421163e+00
0.000000000000000000e+00 1.482510000000000078e-02 1.064418003991230988e+00
9.374999999999999653e-03 9.448600000000000054e-02 1.587298446361610216e+00
3.125000000000000173e-03 2.114560000000000137e-03 2.325635454284520343e+00
0.000000000000000000e+00 1.146050000000000020e-03 2.659266315711610318e+00
0.000000000000000000e+00 1.126609999999999895e-03 4.096990675826688744e+00
0.000000000000000000e+00 2.051240000000000008e-02 2.824446989284287834e+00
0.000000000000000000e+00 1.002749999999999952e-03 3.945945040893085842e+00
3.125000000000000173e-03 4.410749999999999740e-03 2.776384235316094795e+00
0.000000000000000000e+00 6.944100000000000142e-04 3.497792269823611022e+00
0.000000000000000000e+00 2.267519999999999866e-04 3.319737241515652748e+00
3.125000000000000173e-03 4.149300000000000210e-02 3.001899775932526104e-01
0.000000000000000000e+00 1.147840000000000015e-03 1.692600076502385198e+00
0.000000000000000000e+00 1.666619999999999950e-03 5.299123164858371426e-01
0.000000000000000000e+00 1.075519999999999948e-03 2.285327413995686285e+00
1.250000000000000069e-02 3.234240000000000205e-03 4.056668835263855577e+00
0.000000000000000000e+00 4.978019999999999884e-04 2.879042418231574363e+00
0.000000000000000000e+00 9.074940000000000090e-03 2.709379946545539042e+00
3.125000000000000173e-03 1.473600000000000040e-03 4.610311969486692085e+00
0.000000000000000000e+00 2.226820000000000015e-03 3.469027247583103435e+00
7.499999999999999722e-02 1.003929999999999961e-01 2.431026781177812346e+00
0.000000000000000000e+00 7.276259999999999889e-04 3.558104681912983125e+00
1.874999999999999931e-02 9.281929999999999348e-02 4.141022510772130794e+00
0.000000000000000000e+00 2.223360000000000072e-04 1.423709677043302202e+00
2.500000000000000139e-02 3.252820000000000017e-02 1.031539005180854840e+00
1.562500000000000000e-02 9.538069999999999882e-02 1.989607913204771705e+00
0.000000000000000000e+00 1.091710000000000076e-03 1.840910458356392887e-01
9.374999999999999653e-03 2.054209999999999890e-03 1.550892725848741494e+00
0.000000000000000000e+00 9.738880000000000106e-04 1.249935681747895266e+00
0.000000000000000000e+00 1.286280000000000106e-03 3.668777074067012922e+00
0.000000000000000000e+00 2.073090000000000089e-03 2.038439592202539785e+00
1.874999999999999931e-02 2.851840000000000017e-03 4.118023570415544121e+00
3.125000000000000173e-03 9.805279999999999552e-02 8.718460828466728652e-01
2.187499999999999861e-02 9.191100000000000658e-02 7.919227895841879361e-01
3.125000000000000173e-03 1.271060000000000072e-02 1.868000743638880135e+00
6.250000000000000000e-02 3.594320000000000154e-02 6.036237754551232459e-01
2.187499999999999861e-02 2.248190000000000171e-03 2.718696346684129850e+00
4.374999999999999722e-02 9.300229999999999608e-02 3.441361812151610966e+00
0.000000000000000000e+00 4.033279999999999981e-04 3.748004213084055181e+00
3.125000000000000173e-03 2.477060000000000112e-03 1.863978386566499390e+00
6.250000000000000347e-03 1.704100000000000059e-02 3.386943612182836016e+00
1.250000000000000069e-02 1.846589999999999950e-03 1.935809551384148453e+00
2.187499999999999861e-02 2.113919999999999966e-01 2.565120131434003969e+00
1.562500000000000000e-02 9.514419999999999822e-02 2.614912273373679596e+00
0.000000000000000000e+00 1.432829999999999954e-03 8.974188830599255651e-01
0.000000000000000000e+00 9.971839999999999177e-04 1.433733160246482452e+00
0.000000000000000000e+00 1.184829999999999998e-03 1.998077912597987504e+00
0.000000000000000000e+00 3.595070000000000123e-03 1.706959098701645416e+00
0.000000000000000000e+00 4.309839999999999787e-04 2.729357876808128580e+00
0.000000000000000000e+00 2.093250000000000059e-03 4.513609574274523695e+00
0.000000000000000000e+00 1.626879999999999982e-04 2.451525316831453694e+00
1.874999999999999931e-02 3.463679999999999797e-03 4.287893905257394778e+00
6.250000000000000347e-03 2.579650000000000172e-03 3.298002369509642762e+00
9.374999999999999653e-03 1.729920000000000025e-03 4.291382429193879133e+00
0.000000000000000000e+00 1.158849999999999898e-03 3.194502083011892424e+00
1.250000000000000069e-02 2.917250000000000138e-03 2.807733256324336679e+00
6.250000000000000347e-03 1.883459999999999995e-03 4.367995243642673664e+00
3.437500000000000278e-02 1.948820000000000066e-02 1.319888546486944758e+00
6.250000000000000347e-03 3.036669999999999994e-03 4.440290139428201499e+00
0.000000000000000000e+00 2.726020000000000006e-03 2.457992377894531177e+00
0.000000000000000000e+00 1.812030000000000064e-03 2.739304320653415115e+00
3.125000000000000173e-03 1.070079999999999946e-03 3.669081853125965687e+00
3.437500000000000278e-02 1.108439999999999946e-02 4.839267443382168743e+00
6.250000000000000347e-03 9.334850000000000092e-02 3.800261331118366392e+00
0.000000000000000000e+00 3.918680000000000232e-04 3.538935715201154686e+00
0.000000000000000000e+00 1.091710000000000076e-03 1.172196593769287976e+00
0.000000000000000000e+00 9.107199999999999540e-04 1.729096810281575136e+00
0.000000000000000000e+00 5.974529999999999598e-04 4.864693116608040491e+00
0.000000000000000000e+00 2.263019999999999892e-05 1.050334723376400436e-02
3.125000000000000173e-03 1.638399999999999926e-03 4.059039940649337375e+00
0.000000000000000000e+00 2.350840000000000010e-05 3.201657499404671370e+00
3.125000000000000173e-03 1.670849999999999983e-03 1.077479806091498071e+00
2.187499999999999861e-02 2.535869999999999964e-03 4.619141221193529212e+00
0.000000000000000000e+00 1.150909999999999997e-03 3.824280116143202513e+00
3.125000000000000173e-03 9.793939999999999244e-03 8.789305523209067772e-01
0.000000000000000000e+00 7.240989999999999666e-04 4.102921490298912843e+00
3.125000000000000173e-03 7.877880000000000299e-03 3.675591709222528092e+00
0.000000000000000000e+00 1.082819999999999963e-03 2.951375647807136238e-01
2.812500000000000069e-02 2.800260000000000162e-03 1.616569296840821401e+00
0.000000000000000000e+00 9.186560000000000082e-04 2.574002770796757211e+00
0.000000000000000000e+00 2.475819999999999955e-05 3.843402586315745495e+00
3.125000000000000173e-03 4.461439999999999677e-03 3.942804683460472859e+00
0.000000000000000000e+00 1.797760000000000026e-03 3.111967521578035134e-01
0.000000000000000000e+00 4.523199999999999790e-03 4.951568969871653181e+00
0.000000000000000000e+00 0.000000000000000000e+00 1.239169023175560325e+00
7.499999999999999722e-02 3.890339999999999770e-02 3.950542879866764778e+00
3.125000000000000173e-03 1.062910000000000027e-03 2.560111820002945571e+00
2.500000000000000139e-02 2.134979999999999864e-03 2.044346800448396451e+00
3.125000000000000173e-03 2.106480000000000158e-02 3.740640928944208188e+00
9.374999999999999653e-03 1.921469999999999992e-03 3.555705731333602237e+00
9.374999999999999653e-03 4.184320000000000053e-03 4.751524758687516226e+00
0.000000000000000000e+00 2.330370000000000011e-03 1.584404245274676493e+00
3.437500000000000278e-02 3.132990000000000080e-02 9.171937000709151633e-01
0.000000000000000000e+00 3.494400000000000154e-04 8.108662931137161634e-01
0.000000000000000000e+00 2.207620000000000049e-05 3.828287729973380848e+00
3.125000000000000000e-02 9.454899999999999416e-02 1.436216989227204754e+00
9.374999999999999653e-03 4.921980000000000278e-03 1.639557139551698350e+00
0.000000000000000000e+00 8.731910000000000496e-04 4.942015149058385681e+00
1.874999999999999931e-02 2.559660000000000060e-02 2.626432475094654606e+00
0.000000000000000000e+00 4.058879999999999736e-04 1.176757824779949946e+00
2.500000000000000139e-02 2.340029999999999888e-03 1.999638738456137155e+00
4.687500000000000000e-02 9.282020000000000548e-02 2.501058247612379049e+00
0.000000000000000000e+00 1.139140000000000074e-03 4.042152371360383079e+00
3.125000000000000173e-03 4.361789999999999938e-03 9.388044054685906747e-01
1.562500000000000000e-02 1.974640000000000076e-02 2.646935612595138210e+00
0.000000000000000000e+00 1.541180000000000067e-03 3.720328360727279460e+00
0.000000000000000000e+00 2.043259999999999868e-03 6.403017347656436709e-01
9.374999999999999653e-03 9.765329999999999844e-02 4.142724317989221916e+00
0.000000000000000000e+00 1.066239999999999983e-03 1.512849536635289649e+00
1.874999999999999931e-02 9.630859999999999421e-02 3.298620295329412144e+00
3.125000000000000173e-03 2.467780000000000147e-03 3.149730436854516036e+00
3.125000000000000173e-03 1.757179999999999897e-03 1.470939531849080328e+00
0.000000000000000000e+00 8.848639999999999631e-04 3.181949227171098737e+00
1.562500000000000000e-02 9.675799999999999679e-02 3.995561559822895514e+00
0.000000000000000000e+00 6.102780000000000140e-04 2.629602211227143993e+00
0.000000000000000000e+00 4.254050000000000106e-04 1.110752283669058205e+00
3.125000000000000173e-03 2.227709999999999933e-03 1.251127263706633297e+00
0.000000000000000000e+00 2.594430000000000000e-03 4.493569936032121070e+00
0.000000000000000000e+00 3.033600000000000012e-03 1.852438986471623972e+00
0.000000000000000000e+00 3.750030000000000008e-04 3.942804406292793606e-01
0.000000000000000000e+00 4.316160000000000092e-04 3.919887244701568019e+00
0.000000000000000000e+00 3.847680000000000132e-04 2.951988709450243498e+00
0.000000000000000000e+00 1.064510000000000066e-03 1.491888065610758041e+00
0.000000000000000000e+00 8.497539999999999608e-03 3.877209979413843932e+00
2.500000000000000139e-02 1.884859999999999921e-03 2.503091709507177409e+00
0.000000000000000000e+00 4.128369999999999913e-04 4.044009218981033271e+00
1.562500000000000000e-02 4.524290000000000256e-03 4.494949094579975268e-01
0.000000000000000000e+00 3.829759999999999870e-04 1.235032515422797683e+00
2.500000000000000139e-02 1.640699999999999928e-03 3.363595567419040311e+00
6.250000000000000347e-03 2.174339999999999867e-03 4.372906805295720289e+00
2.187499999999999861e-02 2.122109999999999969e-03 1.674948706186292213e+00
1.125000000000000028e-01 9.625499999999999334e-02 1.468635269725914849e+00
0.000000000000000000e+00 1.790080000000000046e-04 3.298430060554519150e-01
0.000000000000000000e+00 9.873279999999999904e-04 3.218131832718784668e+00
0.000000000000000000e+00 9.409279999999999467e-04 4.764013067878170915e+00
0.000000000000000000e+00 8.658560000000000258e-04 9.334766162294927394e-01
9.374999999999999653e-03 1.630850000000000095e-03 4.346105277460869054e+00
2.500000000000000139e-02 3.264509999999999981e-03 3.276473862847097074e+00
0.000000000000000000e+00 1.071679999999999985e-03 2.186099914795814669e+00
0.000000000000000000e+00 2.296059999999999941e-03 1.388663504342007471e+00
6.250000000000000347e-03 3.419839999999999946e-03 3.667707619440309763e+00
0.000000000000000000e+00 2.290219999999999902e-05 1.877950539779045691e+00
2.500000000000000139e-02 3.229699999999999845e-03 1.416010196156780587e-01
0.000000000000000000e+00 1.823229999999999903e-03 4.188066475894029139e+00
0.000000000000000000e+00 4.191210000000000009e-04 2.006655529833689666e-01
0.000000000000000000e+00 1.310530000000000072e-03 1.648974461501955702e+00
0.000000000000000000e+00 6.881889999999999665e-04 2.798024347769862530e+00
1.874999999999999931e-02 1.981179999999999920e-03 6.560531891511567348e-01
0.000000000000000000e+00 0.000000000000000000e+00 3.305727703785539262e+00
1.874999999999999931e-02 1.919169999999999991e-03 3.960356996566533283e+00
3.125000000000000173e-03 1.057860000000000050e-01 3.844177624478444688e+00
6.250000000000000000e-02 9.379070000000000462e-02 3.682211563765179996e+00
1.562500000000000000e-02 2.516579999999999859e-02 3.084018323012729379e+00
0.000000000000000000e+00 2.874180000000000051e-03 1.897073782479616888e+00
0.000000000000000000e+00 8.153599999999999997e-04 1.825290423654672978e+00
2.187499999999999861e-02 9.530299999999999883e-02 1.369024097926323069e+00
3.125000000000000173e-03 4.003899999999999820e-02 4.898284547369870623e+00
0.000000000000000000e+00 2.275199999999999900e-04 4.635512105733566202e+00
0.000000000000000000e+00 4.826240000000000196e-04 4.539593457505849194e+00
3.125000000000000000e-02 1.170960000000000056e-02 3.050315380167761603e+00
0.000000000000000000e+00 1.686530000000000104e-03 2.199056001200270671e+00
0.000000000000000000e+00 1.408889999999999969e-02 3.970542761191180325e+00
0.000000000000000000e+00 1.410500000000000078e-03 1.341528971122701863e-01
1.562500000000000000e-02 3.118210000000000166e-03 1.388362207587198194e+00
0.000000000000000000e+00 1.508280000000000037e-02 4.284750636142950597e+00
2.187499999999999861e-02 2.190660000000000090e-03 2.930908441104445483e+00
3.125000000000000173e-03 4.125760000000000018e-03 4.392535843642825455e+00
3.125000000000000173e-03 1.041289999999999924e-02 1.707019177626812212e+00
2.812500000000000069e-02 4.118209999999999753e-03 1.824509384632193587e+00
0.000000000000000000e+00 1.656769999999999901e-03 2.914431970512101344e+00
2.500000000000000139e-02 1.941119999999999955e-03 4.183925273665280109e+00
0.000000000000000000e+00 2.274499999999999992e-05 7.409115034010926859e-01
3.125000000000000173e-03 4.027969999999999641e-03 2.030045224428920214e+00
3.125000000000000173e-03 4.118020000000000014e-03 7.857692885625167101e-01
0.000000000000000000e+00 1.752129999999999964e-03 4.592060625884336389e+00
0.000000000000000000e+00 1.055809999999999908e-03 3.893381109253566397e+00
1.874999999999999931e-02 9.259810000000000263e-02 2.185689384039692928e+00
1.562500000000000000e-02 9.334299999999999542e-02 5.600229326734429414e-02
1.562500000000000000e-02 2.085950000000000044e-03 3.309146506655881836e+00
0.000000000000000000e+00 9.710720000000000159e-04 2.806184280694810518e+00
0.000000000000000000e+00 1.126660000000000031e-03 3.571933841830110978e+00
9.374999999999999653e-03 1.038590000000000043e-03 1.422540851548808050e+00
0.000000000000000000e+00 1.615999999999999978e-04 2.651331796948347419e-01
0.000000000000000000e+00 1.132540000000000022e-03 4.297245794904595684e+00
3.125000000000000173e-03 4.408190000000000199e-03 4.178400532927393662e+00
1.562500000000000000e-02 9.457500000000000628e-02 3.271121750446848608e+00
1.250000000000000069e-02 1.920260000000000022e-03 3.030803200752872240e+00
0.000000000000000000e+00 1.166399999999999946e-03 3.266188308047033750e+00
0.000000000000000000e+00 3.569280000000000087e-04 3.027538841025634309e-02
0.000000000000000000e+00 1.132130000000000072e-03 3.433285213849750939e+00
1.562500000000000000e-02 5.123199999999999629e-03 2.421383064082253789e+00
1.250000000000000069e-02 1.197480000000000072e-02 3.555451611683234425e+00
3.125000000000000173e-03 3.979760000000000242e-02 2.468738315191569388e+00
0.000000000000000000e+00 2.952960000000000133e-04 3.407033269695176170e+00
3.125000000000000173e-03 4.515970000000000227e-03 9.111215610319245428e-01
0.000000000000000000e+00 4.184160000000000136e-04 4.433354224364681073e+00
0.000000000000000000e+00 9.597440000000000051e-04 7.062699232496388868e-01
0.000000000000000000e+00 4.326509999999999883e-04 3.726620663791107901e+00
0.000000000000000000e+00 1.041859999999999922e-03 4.437414631760588257e+00
9.374999999999999653e-03 3.072899999999999937e-03 3.620762265575435457e+00
1.250000000000000069e-02 1.834050000000000047e-03 6.348134543254574380e-01
5.937499999999999722e-02 9.089590000000000169e-02 3.259848605239541008e+00
4.374999999999999722e-02 9.204990000000000394e-02 2.303349554143590439e+00
0.000000000000000000e+00 7.287160000000000208e-04 3.438683196319460844e+00
3.125000000000000173e-03 4.614079999999999571e-03 4.368769871995338505e+00
0.000000000000000000e+00 1.772940000000000003e-05 8.236770159585421469e-01
0.000000000000000000e+00 9.889280000000000292e-04 1.109561755499255398e-01
0.000000000000000000e+00 4.776040000000000146e-02 3.110035380659890158e+00
6.250000000000000347e-03 3.243329999999999998e-03 1.662029542660930392e+00
0.000000000000000000e+00 1.492059999999999914e-03 2.283944776059419368e+00
6.250000000000000347e-03 1.015319999999999973e-01 3.862133859445884720e+00
0.000000000000000000e+00 2.086909999999999980e-03 2.006099305149383616e-01
0.000000000000000000e+00 1.019259999999999914e-03 3.264464179315773151e+00
4.687500000000000000e-02 1.089930000000000065e-01 1.738992992894622391e+00
0.000000000000000000e+00 7.514810000000000240e-04 4.863139527781330074e+00
0.000000000000000000e+00 4.246400000000000001e-04 2.772329635693588923e+00
0.000000000000000000e+00 3.085790000000000061e-02 4.739542356521531552e+00
0.000000000000000000e+00 1.007419999999999973e-03 4.914621654896214942e+00
3.125000000000000173e-03 1.850429999999999913e-03 3.741813879356628902e+00
0.000000000000000000e+00 1.153469999999999973e-03 1.061303706372505484e+00
0.000000000000000000e+00 1.098980000000000052e-03 2.088442006613886459e+00
0.000000000000000000e+00 1.508609999999999986e-02 3.711865779410334021e+00
3.125000000000000173e-03 9.791950000000000653e-03 4.796454717198766815e+00
3.125000000000000173e-03 1.308930000000000033e-03 4.935805447673827118e+00
3.125000000000000173e-03 2.019969999999999839e-03 4.475317571020021035e+00
2.500000000000000139e-02 2.646719999999999975e-03 1.733283332399939258e+00
6.250000000000000347e-03 1.754619999999999921e-03 1.945818632544112914e+00
2.187499999999999861e-02 2.428930000000000151e-03 4.752830058410814296e+00
9.374999999999999653e-03 9.731049999999999423e-02 1.891165225884913204e+00
0.000000000000000000e+00 3.993600000000000253e-04 2.460876217407649946e+00
1.874999999999999931e-02 2.285950000000000135e-03 4.075155572460715803e+00
2.187499999999999861e-02 2.989180000000000136e-03 2.395807730050658613e-01
0.000000000000000000e+00 0.000000000000000000e+00 3.783963051977818459e+00
0.000000000000000000e+00 1.343680000000000091e-03 2.163241701877503864e+00
1.562500000000000000e-02 1.797379999999999898e-03 3.766221420282670707e+00
0.000000000000000000e+00 9.962879999999999046e-04 2.904002688143583644e+00
0.000000000000000000e+00 3.262909999999999942e-03 4.206924890164478015e+00
0.000000000000000000e+00 7.853400000000000398e-04 3.786823176390829548e+00
5.625000000000000139e-02 3.524750000000000105e-02 2.506935846384624966e+00
1.562500000000000000e-02 1.057099999999999984e-01 4.097971277247866695e+00
0.000000000000000000e+00 2.308149999999999915e-05 3.897178873559478340e+00
6.250000000000000347e-03 2.256579999999999784e-03 5.307747477803187452e-01
3.125000000000000173e-03 4.550140000000000261e-03 3.341519131807307863e-01
0.000000000000000000e+00 3.783039999999999884e-04 1.987950702599809993e+00
2.187499999999999861e-02 3.397120000000000001e-03 2.352903047071478682e+00
3.125000000000000173e-03 1.720469999999999985e-03 4.263746122943753214e+00
3.437500000000000278e-02 9.222370000000000567e-02 1.404135088482852955e+00
3.125000000000000173e-03 3.560129999999999892e-03 1.021290873337519223e+00
0.000000000000000000e+00 3.973760000000000118e-04 4.257931128800015230e+00
1.562500000000000000e-02 2.311489999999999812e-03 3.443277988149967328e+00
0.000000000000000000e+00 8.056019999999999891e-04 3.931224596373433133e+00
3.125000000000000173e-03 1.948859999999999959e-03 4.204127087749673919e+00
2.500000000000000139e-02 1.900159999999999913e-03 2.550050096899818541e+00
2.500000000000000139e-02 2.204030000000000052e-03 1.489852995825870607e+00
0.000000000000000000e+00 1.532160000000000076e-03 3.161121389944494542e+00
1.874999999999999931e-02 9.229370000000000629e-02 2.251330860344196605e+00
0.000000000000000000e+00 8.876160000000000343e-04 2.282643755673171349e+00
0.000000000000000000e+00 3.235840000000000244e-04 2.575581529034334238e+00
3.125000000000000173e-03 5.442240000000000098e-03 1.890284324405216987e+00
0.000000000000000000e+00 9.980799999999999308e-04 4.622413517369825087e+00
9.062499999999999722e-02 9.321569999999999856e-02 4.426704070114854339e+00
1.562500000000000000e-02 1.387650000000000038e-03 2.251455276685088602e+00
3.125000000000000173e-03 4.619200000000000389e-03 3.087682748094521479e+00
0.000000000000000000e+00 3.861119999999999787e-04 3.185957133717857381e+00
0.000000000000000000e+00 5.720319999999999875e-04 4.461061636254223473e+00
0.000000000000000000e+00 6.160640000000000430e-04 4.879957644354632862e+00
0.000000000000000000e+00 1.660800000000000091e-04 4.822698064857361189e+00
0.000000000000000000e+00 1.536000000000000039e-03 3.143749275777689700e+00
3.125000000000000173e-03 2.512260000000000101e-03 4.337563148339466323e+00
3.125000000000000173e-03 2.292859999999999863e-03 4.229986983672867851e+00
0.000000000000000000e+00 1.750400000000000046e-05 1.808112596851271237e+00
0.000000000000000000e+00 6.008959999999999605e-04 4.400388211982212638e+00
0.000000000000000000e+00 6.668380000000000141e-02 2.388245249857406938e-01
4.687500000000000000e-02 9.176420000000000410e-02 3.656216874759276259e+00
0.000000000000000000e+00 1.258879999999999982e-03 1.039845519856388734e+00
0.000000000000000000e+00 1.408629999999999908e-03 2.214497100712884414e+00
0.000000000000000000e+00 3.124930000000000156e-03 2.071532279827926537e+00
0.000000000000000000e+00 7.267289999999999601e-04 2.247991345192195567e+00
0.000000000000000000e+00 3.112960000000000033e-02 3.032856297743014018e-01
1.874999999999999931e-02 9.697780000000000289e-02 2.300155837585371454e+00
3.125000000000000173e-03 4.084540000000000219e-03 4.274579841431837224e+00
0.000000000000000000e+00 2.083259999999999973e-03 2.102265986176135026e+00
3.125000000000000173e-03 4.676930000000000150e-03 1.284498911608342286e+00
0.000000000000000000e+00 6.431100000000000141e-04 2.836480069046666941e+00
0.000000000000000000e+00 5.007099999999999572e-03 1.380326476949137460e+00
0.000000000000000000e+00 1.133179999999999908e-03 2.291040244980747431e+00
3.125000000000000173e-03 7.851850000000000496e-03 4.454937257085289648e-02
0.000000000000000000e+00 9.030089999999999732e-04 3.837921732732448632e+00
0.000000000000000000e+00 6.457659999999999616e-03 1.626231194916834433e+00
0.000000000000000000e+00 4.159790000000000232e-04 4.355625824619531627e+00
0.000000000000000000e+00 7.139200000000000493e-04 4.836295729045966496e+00
3.125000000000000173e-03 2.825540000000000083e-03 1.790079648729054895e+00
0.000000000000000000e+00 1.204150000000000012e-02 1.145986109329720781e+00
0.000000000000000000e+00 7.394559999999999892e-04 9.775507289863794025e-01
3.125000000000000173e-03 1.732610000000000096e-03 5.632851386897569368e-01
9.374999999999999653e-03 2.386689999999999905e-03 1.852147814602100873e-01
3.125000000000000173e-03 4.378749999999999830e-03 3.752805322877815097e+00
0.000000000000000000e+00 4.157219999999999882e-04 2.405695333920682799e+00
1.562500000000000000e-02 3.045120000000000118e-03 9.951651946656314696e-01
0.000000000000000000e+00 7.260230000000000112e-04 4.835234787419696367e+00
3.125000000000000000e-02 4.789950000000000284e-03 4.157575843114350356e+00
1.874999999999999931e-02 2.457729999999999984e-03 1.234097724056168577e+00
6.250000000000000347e-03 1.727100000000000076e-03 2.866584559720177339e+00
0.000000000000000000e+00 4.963269999999999661e-04 9.240222871578329666e-02
0.000000000000000000e+00 1.667200000000000030e-04 7.720351816812531798e-01
3.125000000000000173e-03 2.080770000000000015e-03 4.597110770161719984e+00
0.000000000000000000e+00 9.013120000000000333e-04 8.326437576094747328e-02
0.000000000000000000e+00 5.451520000000000281e-04 5.799540793063689970e-01
3.125000000000000173e-03 9.711999999999999713e-04 3.749324794388837034e+00
2.187499999999999861e-02 9.466339999999999477e-02 4.488527978397213403e+00
0.000000000000000000e+00 4.348320000000000136e-04 2.044172552600617809e+00
0.000000000000000000e+00 0.000000000000000000e+00 2.639538971704163961e-01
1.874999999999999931e-02 7.729279999999999831e-04 2.063528439835378592e+00
0.000000000000000000e+00 4.770260000000000234e-04 4.780665480724709759e+00
0.000000000000000000e+00 2.714729999999999834e-03 1.933509695095346093e+00
0.000000000000000000e+00 4.289920000000000018e-04 3.674248461472223060e+00
4.374999999999999722e-02 2.499269999999999964e-02 5.000240541754985557e-01
2.187499999999999861e-02 1.962690000000000008e-03 2.513131332345563962e-01
1.874999999999999931e-02 2.299260000000000019e-03 1.162721870795274004e+00
3.125000000000000173e-03 1.730879999999999962e-03 3.358598706585699034e+00
1.250000000000000069e-02 8.600000000000000006e-03 4.883793837737744781e+00
0.000000000000000000e+00 4.185440000000000232e-04 3.254557681950800418e+00
0.000000000000000000e+00 1.559099999999999896e-03 4.510851125527290506e+00
0.000000000000000000e+00 1.983770000000000151e-03 4.853039504643760438e+00
2.187499999999999861e-02 9.338539999999999341e-02 1.940167398372253382e+00
0.000000000000000000e+00 8.785279999999999478e-04 5.028600318692894033e-01
0.000000000000000000e+00 1.915019999999999917e-02 2.847075253115066706e-01
1.250000000000000069e-02 1.067030000000000062e-01 4.742881074911732497e+00
9.374999999999999653e-03 9.966479999999999784e-02 4.731368659521081987e+00
0.000000000000000000e+00 2.613380000000000217e-03 3.847459201576412191e+00
6.250000000000000347e-03 1.333179999999999999e-03 4.903085887094241535e+00
1.562500000000000000e-02 2.089409999999999878e-03 2.003809312025207845e+00
3.125000000000000173e-03 4.804479999999999862e-03 3.737214235933227879e+00
0.000000000000000000e+00 9.496959999999999820e-04 1.133970418016446713e+00
0.000000000000000000e+00 1.012480000000000064e-03 2.667956034658577558e+00
0.000000000000000000e+00 2.102460000000000006e-03 1.998154941390578587e+00
0.000000000000000000e+00 3.951359999999999790e-04 3.558991298611983822e+00
1.874999999999999931e-02 4.401539999999999793e-03 3.745386646208438641e+00
0.000000000000000000e+00 5.438440000000000331e-04 3.695125833269210514e+00
0.000000000000000000e+00 1.127870000000000001e-03 4.345040298052729177e+00
0.000000000000000000e+00 4.885609999999999953e-02 8.039342637133367608e-01
0.000000000000000000e+00 4.421030000000000272e-03 1.369516318687792333e+00
0.000000000000000000e+00 4.007169999999999786e-04 1.380113910835328195e+00
1.250000000000000069e-02 2.139330000000000051e-03 7.856043058120354416e-01
2.812500000000000069e-02 3.106180000000000052e-03 4.928424358993359178e+00
6.250000000000000347e-03 9.562640000000000029e-02 2.758611712505614655e+00
0.000000000000000000e+00 5.975169999999999917e-04 3.799290871824623217e+00
0.000000000000000000e+00 1.550139999999999981e-03 2.307855363452993025e+00
0.000000000000000000e+00 2.354559999999999900e-04 2.600097888580916727e+00
0.000000000000000000e+00 2.226109999999999894e-03 3.090122019572060452e+00
0.000000000000000000e+00 6.223329999999999791e-04 1.163286192742385428e+00
2.812500000000000069e-02 2.501629999999999913e-03 2.701488186436318273e+00
0.000000000000000000e+00 8.832640000000000326e-04 6.383752692451238886e-01
0.000000000000000000e+00 1.071740000000000062e-03 4.415628345785064468e+00
0.000000000000000000e+00 8.948479999999999542e-04 2.227887541989066467e+00
6.250000000000000347e-03 2.160000000000000028e-03 3.674071727006086974e+00
0.000000000000000000e+00 1.923630000000000131e-02 2.340095809701814300e+00
0.000000000000000000e+00 1.103489999999999940e-03 3.698179981596511734e+00
0.000000000000000000e+00 1.047360000000000001e-03 3.932085780989451163e+00
0.000000000000000000e+00 2.284260000000000047e-05 4.666082410518042956e+00
0.000000000000000000e+00 1.031039999999999995e-03 3.141527615435182330e+00
0.000000000000000000e+00 1.725060000000000048e-03 2.156038322295441567e+00
0.000000000000000000e+00 1.575999999999999927e-03 3.213273867064380340e+00
0.000000000000000000e+00 3.962550000000000100e-02 3.084414590213002239e+00
3.125000000000000173e-03 1.045859999999999984e-01 4.873650486268615856e-01
1.874999999999999931e-02 9.243919999999999915e-02 2.931630865322997881e+00
0.000000000000000000e+00 2.279399999999999894e-05 2.550614802711442586e+00
3.125000000000000173e-03 5.256379999999999733e-03 4.475942525762878432e+00
2.500000000000000139e-02 1.852219999999999908e-03 6.787066009144915313e-01
0.000000000000000000e+00 1.399809999999999943e-02 4.876649565361815597e+00
1.562500000000000000e-02 1.812669999999999950e-03 1.881193671401780732e+00
3.125000000000000173e-03 8.206720000000000464e-04 3.303674603779644503e+00
0.000000000000000000e+00 3.953280000000000205e-04 4.274818612361913628e-01
1.250000000000000069e-02 1.434500000000000011e-03 4.156528177659837731e+00
0.000000000000000000e+00 5.040869999999999596e-04 8.793915616850728201e-01
3.125000000000000173e-03 1.752770000000000066e-03 8.735960573262652185e-01
0.000000000000000000e+00 1.173119999999999935e-03 2.676247741877121999e+00
0.000000000000000000e+00 4.049660000000000065e-03 2.085113881560681115e+00
0.000000000000000000e+00 3.898880000000000184e-04 8.805277732452132522e-01
3.125000000000000173e-03 9.800960000000000227e-02 2.871806599881325361e+00
3.125000000000000173e-03 9.620670000000000610e-02 1.459478081434566921e+00
0.000000000000000000e+00 6.282980000000000509e-02 4.631264121535648925e+00
0.000000000000000000e+00 1.156160000000000044e-03 4.281288274072261757e+00
1.562500000000000000e-02 2.516579999999999859e-02 1.117280089498058349e+00
2.187499999999999861e-02 2.491520000000000106e-03 2.516388812001109532e+00
2.187499999999999861e-02 9.248879999999999602e-02 2.776355783112355979e+00
3.125000000000000173e-03 1.056340000000000057e-01 3.240961083634347872e+00
0.000000000000000000e+00 5.133439999999999965e-04 4.056250521367060102e+00
0.000000000000000000e+00 1.296290000000000072e-03 3.070908179182079589e+00
2.500000000000000139e-02 2.383419999999999810e-03 4.870662811189037100e+00
4.687500000000000000e-02 9.372289999999999788e-02 3.705149532162952841e+00
1.250000000000000069e-02 1.006899999999999983e-02 7.450748508410487414e-01
0.000000000000000000e+00 4.108800000000000234e-04 1.916465035202274514e+00
0.000000000000000000e+00 1.159300000000000044e-03 3.032241311590627708e-01
0.000000000000000000e+00 1.231939999999999945e-03 4.111477613033645895e+00
0.000000000000000000e+00 1.123709999999999987e-03 2.817408083726626877e+00
2.187499999999999861e-02 2.169790000000000000e-03 4.904532580450229773e+00
2.812500000000000069e-02 6.381380000000000385e-02 9.881136916520372182e-01
1.250000000000000069e-02 1.978689999999999963e-03 3.041948750263065548e+00
0.000000000000000000e+00 4.456169999999999749e-03 5.103716164637173147e-01
1.250000000000000069e-02 9.248280000000000389e-02 1.724247675618456599e-01
9.374999999999999653e-03 3.871939999999999930e-03 2.525455931146502575e+00
0.000000000000000000e+00 7.042850000000000239e-04 1.193749607891945175e+00
6.250000000000000347e-03 5.042879999999999585e-03 3.592860475174991741e+00
2.187499999999999861e-02 1.904380000000000005e-03 3.484749181306165955e+00
0.000000000000000000e+00 4.204030000000000202e-04 2.863339855456286553e+00
0.000000000000000000e+00 1.155650000000000037e-03 5.526168698317673877e-01
0.000000000000000000e+00 9.763839999999999542e-04 2.510506710567499855e+00
0.000000000000000000e+00 1.446140000000000056e-03 3.775948978663764777e+00
0.000000000000000000e+00 3.073919999999999734e-04 2.204598047839647634e+00
3.125000000000000000e-02 9.988850000000000506e-02 2.864631495871370337e+00
0.000000000000000000e+00 2.443419999999999967e-03 3.633026995538364279e+00
0.000000000000000000e+00 3.431040000000000001e-04 2.031880590965600142e+00
0.000000000000000000e+00 9.752959999999999538e-04 6.400968270781631775e-01
0.000000000000000000e+00 1.034179999999999995e-03 1.493540387310828832e+00
0.000000000000000000e+00 9.314170000000000305e-04 2.554014987481201260e+00
1.874999999999999931e-02 6.902219999999999710e-03 4.625841629480069273e+00
0.000000000000000000e+00 9.820160000000000521e-04 1.786165997590050125e+00
2.187499999999999861e-02 3.161220000000000176e-03 1.570091449684103857e+00
0.000000000000000000e+00 9.473279999999999939e-04 1.398039740105734285e+00
1.874999999999999931e-02 9.637400000000000133e-02 4.155063106516661442e+00
2.500000000000000139e-02 1.061310000000000031e-01 2.875659819871134282e+00
3.125000000000000173e-03 1.652100000000000096e-03 2.041346422600170962e-01
3.125000000000000173e-03 4.112509999999999777e-03 1.935591505500277032e+00
1.250000000000000069e-02 3.179230000000000250e-02 1.378390425425557453e+00
6.250000000000000347e-03 9.575730000000000353e-02 9.367330001670348683e-01
0.000000000000000000e+00 1.479040000000000042e-03 4.340101502391759070e+00
3.125000000000000173e-03 8.388610000000000511e-02 2.708163908762004191e+00
6.250000000000000347e-03 4.889730000000000118e-03 1.581780365102395391e+00
0.000000000000000000e+00 1.032799999999999951e-03 4.373644095853112646e+00
3.125000000000000173e-03 4.955580000000000228e-03 4.022951077715821278e+00
2.500000000000000139e-02 3.138750000000000047e-03 3.627369244992471042e+00
0.000000000000000000e+00 1.100220000000000061e-03 8.711137139189734091e-01
0.000000000000000000e+00 2.386300000000000053e-03 4.209225402237206204e+00
2.500000000000000139e-02 9.260770000000000113e-02 1.845456560462017226e+00
6.250000000000000347e-03 5.362620000000000234e-03 2.667917919324148013e+00
3.125000000000000173e-03 2.004589999999999844e-02 4.791063526899526970e+00
6.250000000000000347e-03 9.518100000000000172e-02 4.117231809700067080e-01
7.499999999999999722e-02 9.182719999999999771e-02 3.365843390043302463e+00
0.000000000000000000e+00 1.862589999999999905e-03 3.633010577199926594e+00
0.000000000000000000e+00 7.497890000000000110e-02 9.589123896870244135e-01
0.000000000000000000e+00 5.321599999999999464e-04 2.563107269340453520e+00
0.000000000000000000e+00 1.373249999999999905e-03 4.586446389099778642e+00
3.125000000000000173e-03 4.039939999999999677e-03 1.671348740557990098e+00
0.000000000000000000e+00 4.026880000000000043e-04 2.410725137516860794e+00
0.000000000000000000e+00 1.695810000000000069e-03 3.880090629012014514e+00
0.000000000000000000e+00 1.109570000000000044e-03 1.219276400641461366e-01
1.562500000000000000e-02 9.323869999999999381e-02 4.376144311781885676e+00
0.000000000000000000e+00 1.050109999999999932e-03 3.032727457679862404e+00
0.000000000000000000e+00 1.124800000000000019e-03 2.739882184693628986e+00
0.000000000000000000e+00 4.288040000000000232e-04 2.841027088253921917e+00
9.375000000000000000e-02 9.239400000000000390e-02 1.424295619480798747e+00
1.562500000000000000e-02 9.276860000000000661e-02 1.104188155006657901e+00
3.125000000000000173e-03 5.145219999999999828e-03 5.014602072686052958e-01
0.000000000000000000e+00 7.405439999999999896e-04 4.097183260619988943e+00
3.125000000000000173e-03 4.152000000000000308e-03 1.779934598130202161e+00
0.000000000000000000e+00 2.767359999999999742e-04 3.390356951753599191e+00
0.000000000000000000e+00 9.043840000000000472e-04 3.271682316150151593e+00
1.250000000000000069e-02 1.785539999999999957e-03 4.174257882247471407e+00
0.000000000000000000e+00 1.295099999999999984e-03 1.534667261580493935e+00
0.000000000000000000e+00 4.170050000000000232e-04 4.774166353397969687e+00
0.000000000000000000e+00 1.132130000000000072e-03 6.892689153619291353e-01
1.250000000000000069e-02 2.858369999999999835e-03 2.048377262291662504e+00
4.687500000000000000e-02 9.174409999999999510e-02 4.090889967488195111e+00
0.000000000000000000e+00 4.164920000000000232e-04 1.968984946475933029e+00
0.000000000000000000e+00 2.007680000000000131e-04 6.893822786999170837e-01
0.000000000000000000e+00 4.377809999999999883e-04 4.877724446680052672e+00
0.000000000000000000e+00 9.922559999999999540e-04 1.601292188185298171e+00
0.000000000000000000e+00 3.833600000000000159e-04 1.923933967583683735e+00
3.125000000000000173e-03 1.812739999999999968e-03 2.537067962907513241e-01
0.000000000000000000e+00 3.574399999999999930e-04 9.714214273634258490e-01
1.250000000000000069e-02 3.020439999999999930e-02 3.263144906668065115e+00
4.374999999999999722e-02 9.699839999999999851e-02 2.019596246459971933e+00
0.000000000000000000e+00 5.221759999999999553e-04 3.021920876820306745e+00
1.562500000000000000e-02 7.098189999999999882e-03 4.147728947951950573e+00
0.000000000000000000e+00 9.939840000000000567e-04 4.346060198260573770e+00
0.000000000000000000e+00 2.518700000000000019e-03 4.764902360099463330e+00
1.250000000000000069e-02 2.037310000000000076e-03 8.321213458906151494e-01
0.000000000000000000e+00 6.972220000000000327e-03 1.986806768936557610e+00
0.000000000000000000e+00 3.339630000000000007e-04 2.568105782538205872e+00
6.250000000000000347e-03 9.726110000000000311e-02 1.884623296975705964e+00
0.000000000000000000e+00 1.239419999999999975e-03 4.291705973791425599e+00
0.000000000000000000e+00 7.560960000000000467e-04 3.693369358772327526e+00
3.125000000000000173e-03 2.603920000000000019e-03 2.896362333602722217e+00
0.000000000000000000e+00 1.217790000000000062e-03 4.416897084479217028e+00
2.500000000000000139e-02 9.198249999999999482e-02 3.822470647266652755e+00
0.000000000000000000e+00 2.002429999999999922e-03 2.304926239028822099e+00
0.000000000000000000e+00 1.630719999999999999e-04 1.468081262163866141e+00
0.000000000000000000e+00 4.649699999999999884e-04 2.288647815202216940e+00
0.000000000000000000e+00 1.847680000000000036e-04 5.761742535249853026e-01
6.250000000000000347e-03 9.442630000000000468e-02 3.426110160302448637e+00
0.000000000000000000e+00 7.267929999999999920e-04 4.880915944325464606e-01
2.187499999999999861e-02 9.129800000000000415e-02 4.952581860061470387e+00
3.125000000000000173e-03 1.832960000000000015e-03 1.842063857435560781e-01
0.000000000000000000e+00 1.035579999999999921e-03 4.964300179303682725e+00
0.000000000000000000e+00 1.049220000000000014e-03 7.646150890990321969e-01
1.250000000000000069e-02 1.061020000000000019e-01 2.011268544478017617e+00
0.000000000000000000e+00 7.293580000000000462e-04 1.228008280972389787e+00
0.000000000000000000e+00 8.160549999999999922e-04 2.630584630044241035e+00
2.812500000000000069e-02 3.311940000000000196e-03 3.817595492236723231e+00
3.125000000000000173e-03 4.157440000000000094e-03 2.996319975020187432e+00
0.000000000000000000e+00 1.163959999999999995e-02 1.217566774442657707e+00
2.812500000000000069e-02 3.106240000000000129e-03 2.780276113621182432e+00
0.000000000000000000e+00 1.217339999999999915e-03 4.611947230950491416e+00
0.000000000000000000e+00 1.943620000000000070e-03 2.075485120425422991e+00
6.250000000000000347e-03 1.882240000000000085e-03 2.693145480959071136e+00
1.250000000000000069e-02 2.388610000000000212e-03 2.929773904900364379e+00
3.125000000000000173e-03 4.025980000000000184e-03 5.102399926112188844e-01
1.874999999999999931e-02 3.722370000000000019e-03 1.428958283952191266e+00
2.812500000000000069e-02 2.603460000000000149e-03 3.206042664943038911e+00
6.250000000000000347e-03 2.430400000000000095e-03 9.668650386769067628e-01
0.000000000000000000e+00 1.061890000000000013e-03 8.350574021476209197e-01
0.000000000000000000e+00 1.498430000000000031e-03 4.565261420262719305e+00
2.500000000000000139e-02 3.271490000000000162e-03 3.280005510363547039e+00
0.000000000000000000e+00 4.575039999999999836e-03 4.971553555474406139e+00
3.125000000000000173e-03 1.821890000000000055e-03 4.365490504964933294e+00
0.000000000000000000e+00 9.441119999999999894e-04 9.793345112865686763e-01
0.000000000000000000e+00 7.323069999999999666e-04 1.927997882288919884e+00
6.250000000000000347e-03 9.140719999999999401e-02 1.042481032931904528e+00
6.250000000000000347e-03 5.433979999999999713e-03 2.815665055958493923e-01
3.125000000000000173e-03 4.696579999999999679e-03 2.727133383564792179e+00
6.250000000000000347e-03 2.262909999999999922e-03 3.154852149975076792e+00
2.187499999999999861e-02 1.496450000000000080e-03 3.886061635454976404e+00
0.000000000000000000e+00 3.732070000000000201e-04 1.152015930512568787e+00
0.000000000000000000e+00 4.259819999999999883e-04 7.042289353299197030e-01
0.000000000000000000e+00 1.055359999999999979e-03 3.437846994050576921e+00
0.000000000000000000e+00 1.113920000000000014e-03 2.122245743049654187e+00
0.000000000000000000e+00 1.070379999999999899e-03 2.697247480838047107e+00
1.562500000000000000e-02 2.740349999999999904e-03 1.639163178935444387e+00
0.000000000000000000e+00 2.485310000000000123e-03 3.758584626289844799e+00
