9.374999999999999653e-03 1.658369999999999940e-03 3.318551243619590085e+00
0.000000000000000000e+00 1.507649999999999919e-03 2.363752254263842278e+00
0.000000000000000000e+00 1.007789999999999945e-03 4.767616870841899335e+00
1.874999999999999931e-02 2.026819999999999924e-03 4.041838071287068068e+00
0.000000000000000000e+00 7.981769999999999143e-03 3.665636403916278763e+00
2.500000000000000139e-02 3.317759999999999893e-03 3.994849225790968905e+00
1.562500000000000000e-02 2.450240000000000057e-02 2.444059805108720784e+00
6.250000000000000347e-03 2.074050000000000026e-03 4.683351238027565699e+00
6.250000000000000347e-03 2.291580000000000093e-03 7.368530066082862318e-01
0.000000000000000000e+00 4.747200000000000031e-03 3.693943370082104494e+00
1.874999999999999931e-02 3.384320000000000123e-03 5.932479751773078736e-01
6.250000000000000347e-03 1.828760000000000108e-02 2.259053738971934511e+00
5.312499999999999861e-02 1.058140000000000053e-01 1.341911316270731902e+00
6.250000000000000347e-03 1.196859999999999894e-03 2.238695859443184499e+00
0.000000000000000000e+00 1.098049999999999938e-03 3.382312903453033925e+00
0.000000000000000000e+00 2.170120000000000154e-05 9.555894587498170445e-02
0.000000000000000000e+00 5.416060000000000318e-03 1.534288906277947451e-01
3.125000000000000173e-03 1.871489999999999959e-03 1.991908310334217225e+00
6.250000000000000347e-03 2.141440000000000097e-03 2.485874576050781659e+00
0.000000000000000000e+00 3.776960000000000105e-04 3.603747265644500875e+00
3.125000000000000173e-03 1.029250000000000000e-03 3.804545483562578490e+00
3.125000000000000173e-03 9.733079999999999510e-02 2.189221956283720516e+00
0.000000000000000000e+00 1.750400000000000046e-03 3.496447341808783804e-01
1.562500000000000000e-02 9.418830000000000258e-02 2.703265159160276099e+00
0.000000000000000000e+00 1.635009999999999892e-03 6.584588968331650527e-01
0.000000000000000000e+00 2.790640000000000134e-02 3.766121479951691331e+00
6.250000000000000347e-03 9.867009999999999670e-02 2.118863582151964131e+00
0.000000000000000000e+00 7.441709999999999601e-04 3.045170650037122506e+00
0.000000000000000000e+00 4.893439999999999552e-04 2.810774755382139833e+00
0.000000000000000000e+00 4.033919999999999759e-04 2.156930057131029033e-01
0.000000000000000000e+00 4.303430000000000233e-04 2.948652394097976970e+00
0.000000000000000000e+00 7.474409999999999474e-04 6.657632749257463844e-01
2.187499999999999861e-02 2.572029999999999889e-03 3.445291960506557505e+00
0.000000000000000000e+00 1.521790000000000078e-03 1.843393554258503819e+00
0.000000000000000000e+00 3.558400000000000083e-04 1.138901675209122999e+00
2.187499999999999861e-02 3.044670000000000189e-03 3.840586725181666106e-01
0.000000000000000000e+00 5.153080000000000204e-04 2.937427933949727343e+00
2.187499999999999861e-02 2.083069999999999800e-03 9.375450172249200076e-01
0.000000000000000000e+00 1.101500000000000049e-03 2.731843945613609659e+00
4.062500000000000139e-02 9.159829999999999361e-02 4.644216664728437749e+00
0.000000000000000000e+00 3.572029999999999910e-03 2.223463381575208064e-01
0.000000000000000000e+00 4.221350000000000232e-04 3.151986066615317217e+00
0.000000000000000000e+00 2.397820000000000160e-03 2.622382908342705043e+00
0.000000000000000000e+00 9.438720000000000053e-04 4.121862330985398337e+00
0.000000000000000000e+00 2.071359999999999955e-03 4.338070249023425973e+00
3.125000000000000173e-03 1.425920000000000009e-03 2.680135128108185327e+00
2.500000000000000139e-02 2.952960000000000133e-03 2.430479272715279748e+00
3.125000000000000173e-03 2.787900000000000100e-02 5.178293303062880826e-01
3.125000000000000173e-03 4.302270000000000399e-03 1.534775027934731639e-01
9.374999999999999653e-03 1.359420000000000073e-03 4.398132490475560985e+00
3.125000000000000173e-03 1.584510000000000085e-02 1.926470623000616111e+00
0.000000000000000000e+00 4.266240000000000136e-03 2.777649912058858028e+00
6.250000000000000000e-02 4.076769999999999700e-02 1.045803414526547126e+00
0.000000000000000000e+00 1.123459999999999953e-03 4.110361789225478901e+00
0.000000000000000000e+00 4.313980000000000245e-03 1.419331122489675412e+00
6.250000000000000000e-02 3.937410000000000215e-02 1.820562020999841213e+00
9.374999999999999653e-03 1.747520000000000020e-03 3.699713813357968117e+00
0.000000000000000000e+00 6.529850000000000237e-04 1.573740873138576468e+00
1.562500000000000000e-02 3.355120000000000324e-02 7.138905252308369587e-02
3.437500000000000278e-02 1.084520000000000067e-01 2.953589115193157699e+00
0.000000000000000000e+00 1.052639999999999999e-02 2.726434995361151081e+00
1.874999999999999931e-02 2.422459999999999978e-03 3.735277277123116413e+00
0.000000000000000000e+00 2.319020000000000033e-05 3.018731352178502192e+00
1.874999999999999931e-02 1.552379999999999906e-03 2.888091704267918836e+00
0.000000000000000000e+00 1.163779999999999893e-03 1.095079912904816100e+00
3.125000000000000173e-03 2.924289999999999962e-03 3.757268713296832985e+00
2.187499999999999861e-02 2.575420000000000140e-03 1.911995809922240053e-02
0.000000000000000000e+00 7.605869999999999602e-04 4.371039983957235364e+00
2.812500000000000069e-02 1.054189999999999988e-01 3.319218070561107403e+00
1.874999999999999931e-02 2.133439999999999902e-03 9.979329955076821079e-01
9.374999999999999653e-03 1.070310000000000011e-01 3.233203648298437649e+00
0.000000000000000000e+00 1.732480000000000001e-03 1.805897230964779165e+00
0.000000000000000000e+00 4.997899999999999565e-04 2.535096447242941142e+00
0.000000000000000000e+00 2.567629999999999999e-03 1.956187058220160591e+00
2.187499999999999861e-02 2.910849999999999983e-03 1.752863074131770782e+00
0.000000000000000000e+00 3.819520000000000185e-04 1.984416864486470811e+00
0.000000000000000000e+00 4.563779999999999920e-03 3.835816741109376427e+00
0.000000000000000000e+00 3.050429999999999808e-03 2.657614203301533085e+00
0.000000000000000000e+00 4.107210000000000136e-04 2.445465433551390788e+00
9.374999999999999653e-03 1.881979999999999894e-03 1.178401826292168053e+00
6.250000000000000347e-03 2.689729999999999985e-03 4.524132202980401196e+00
2.187499999999999861e-02 9.159520000000000162e-02 4.785068816291832228e+00
0.000000000000000000e+00 2.292950000000000129e-05 2.689446439488353491e+00
0.000000000000000000e+00 1.206849999999999980e-03 7.938416487607974359e-01
0.000000000000000000e+00 1.706049999999999971e-03 4.419538094113299564e+00
2.187499999999999861e-02 2.252679999999999960e-02 3.768025111486101864e+00
0.000000000000000000e+00 5.306879999999999714e-04 4.321454527654607247e+00
1.250000000000000069e-02 1.654400000000000098e-03 8.637686514038789287e-02
9.374999999999999653e-03 1.605819999999999990e-03 2.248217918101485857e+00
1.562500000000000000e-02 2.518079999999999798e-03 8.353856141228926946e-01
2.187499999999999861e-02 4.449279999999999902e-03 7.293419050764149425e-01
0.000000000000000000e+00 1.980539999999999845e-05 2.668214746138299898e+00
6.250000000000000347e-03 1.892350000000000108e-03 9.302723158749787169e-01
0.000000000000000000e+00 1.810200000000000004e-02 4.898029038986856598e+00
0.000000000000000000e+00 4.925440000000000330e-04 6.457828480054200737e-01
0.000000000000000000e+00 7.817600000000000503e-04 2.067712411428912489e-01
0.000000000000000000e+00 3.078270000000000138e-03 1.887058103391253683e+00
3.125000000000000173e-03 7.800810000000000036e-03 3.587698847610034214e+00
2.187499999999999861e-02 4.112350000000000033e-02 2.636084402185651099e-01
1.874999999999999931e-02 2.517629999999999868e-03 1.293560637443060823e+00
0.000000000000000000e+00 1.162819999999999956e-03 3.560074635155565659e+00
0.000000000000000000e+00 5.319360000000000407e-03 1.580094761560806305e+00
0.000000000000000000e+00 2.008959999999999956e-04 4.652433541775310211e+00
2.812500000000000069e-02 2.619649999999999843e-03 1.586405537926748988e+00
1.874999999999999931e-02 2.903100000000000038e-03 1.765744858267698225e-01
0.000000000000000000e+00 1.969179999999999889e-02 2.301283233032143549e+00
2.812500000000000069e-02 9.140199999999999714e-02 2.850104165757274544e+00
3.437500000000000278e-02 9.170069999999999610e-02 5.372526839761865292e-01
0.000000000000000000e+00 5.638340000000000365e-03 1.127995663162179696e+00
2.500000000000000139e-02 3.197820000000000090e-03 1.338588995252053548e+00
1.250000000000000069e-02 1.532539999999999987e-03 1.540062340365296212e+00
3.125000000000000173e-03 9.236050000000000856e-03 3.633478967502759893e+00
0.000000000000000000e+00 1.766300000000000013e-05 3.606764801126979947e+00
6.250000000000000347e-03 2.018369999999999800e-03 2.544085785387543375e+00
1.250000000000000069e-02 1.912260000000000045e-03 1.675159680159619136e+00
2.500000000000000139e-02 2.666620000000000188e-03 3.607553227030415144e+00
2.187499999999999861e-02 1.704769999999999983e-03 3.020885035042246702e+00
0.000000000000000000e+00 0.000000000000000000e+00 3.441824486560995489e+00
1.562500000000000000e-02 1.622849999999999900e-03 2.367489265756008265e+00
0.000000000000000000e+00 5.016499999999999692e-04 1.893045426059725589e+00
1.562500000000000000e-02 3.997470000000000190e-02 3.024511086883907129e+00
0.000000000000000000e+00 1.037060000000000022e-03 7.295974227998419659e-01
3.125000000000000173e-03 4.447170000000000289e-03 2.476277883909991484e+00
6.250000000000000347e-03 1.412609999999999907e-03 4.118823794025084695e+00
1.874999999999999931e-02 1.956990000000000032e-03 2.006080758391135976e+00
3.125000000000000173e-03 1.072680000000000022e-01 4.237615666894186006e+00
9.374999999999999653e-03 6.868120000000000128e-03 9.873776016360485963e-01
4.687500000000000000e-02 3.728360000000000007e-02 2.805393167640533036e+00
0.000000000000000000e+00 2.735360000000000048e-04 2.172360024328494177e+00
0.000000000000000000e+00 2.248809999999999904e-05 3.698292611296974286e+00
1.250000000000000069e-02 2.504380000000000061e-03 2.128396410394533866e+00
9.374999999999999653e-03 1.700990000000000097e-03 4.853207016088340708e+00
0.000000000000000000e+00 3.733820000000000108e-03 3.324999321254228590e+00
3.125000000000000173e-03 2.240320000000000072e-03 3.509261118160878823e+00
0.000000000000000000e+00 3.677179999999999945e-03 4.905524775910174107e+00
9.374999999999999653e-03 1.332740000000000010e-03 3.511235430892205134e+00
2.812500000000000069e-02 3.125890000000000092e-03 1.076921936303483207e+00
1.250000000000000069e-02 1.532539999999999987e-03 2.876688751040870073e+00
0.000000000000000000e+00 2.136169999999999912e-05 1.337224255676497942e+00
1.250000000000000069e-02 9.793659999999999866e-02 4.422968059423226350e+00
0.000000000000000000e+00 3.035969999999999815e-03 1.455207700127305603e+00
0.000000000000000000e+00 3.664699999999999902e-03 1.239132241816262026e+00
9.374999999999999653e-03 1.298370000000000080e-03 1.975891871044660464e-01
0.000000000000000000e+00 7.351680000000000194e-04 2.862355316855134113e+00
0.000000000000000000e+00 2.695869999999999950e-03 2.826615476341867605e+00
0.000000000000000000e+00 8.699709999999999388e-03 4.535567679485331460e+00
3.749999999999999861e-02 5.068890000000000201e-02 3.666898903495576789e+00
0.000000000000000000e+00 3.813339999999999785e-02 1.800437970065689619e+00
0.000000000000000000e+00 1.280899999999999964e-03 3.338132854618767187e+00
6.250000000000000347e-03 9.728489999999999360e-02 1.926573527648442585e+00
0.000000000000000000e+00 1.156349999999999999e-03 3.889007882700412644e+00
0.000000000000000000e+00 1.397699999999999984e-03 2.638154033149753719e+00
3.125000000000000173e-03 7.018609999999999779e-03 3.661774227443675978e-01
0.000000000000000000e+00 1.640830000000000023e-03 6.069968051810631371e-01
0.000000000000000000e+00 1.614659999999999967e-03 4.796868461645432902e+00
0.000000000000000000e+00 9.619289999999999785e-02 2.719893477478531274e+00
0.000000000000000000e+00 8.231080000000000211e-04 4.898855341749451142e+00
0.000000000000000000e+00 1.050300000000000105e-03 3.411101181657000936e+00
1.562500000000000000e-02 3.261570000000000094e-03 4.232674979988286346e+00
0.000000000000000000e+00 4.498560000000000406e-03 6.622989875458179521e-01
6.250000000000000347e-03 2.729660000000000072e-03 1.931626745782900612e+00
9.374999999999999653e-03 1.764029999999999982e-03 4.994395940944071910e+00
1.874999999999999931e-02 1.081420000000000020e-01 2.039900107779979432e+00
2.500000000000000139e-02 9.359389999999999377e-02 4.196628794724464484e+00
0.000000000000000000e+00 4.412800000000000034e-04 4.836161987324595124e+00
0.000000000000000000e+00 3.293250000000000170e-03 1.488406923899138201e+00
0.000000000000000000e+00 1.240130000000000095e-03 8.938808210511484109e-01
0.000000000000000000e+00 6.037759999999999872e-04 2.148558038077085008e+00
9.374999999999999653e-03 3.210109999999999960e-03 4.445733124948613835e+00
2.500000000000000139e-02 1.723069999999999940e-03 2.499194977512179783e+00
2.500000000000000139e-02 1.343549999999999996e-03 7.129214105348541386e-01
0.000000000000000000e+00 3.977599999999999864e-04 1.561182273885139526e+00
0.000000000000000000e+00 1.051330000000000060e-03 1.466232031125397350e+00
9.374999999999999653e-03 4.452669999999999718e-03 1.854396086685754064e+00
0.000000000000000000e+00 8.716159999999999707e-04 3.852923755523467886e+00
0.000000000000000000e+00 4.298239999999999830e-04 2.589717059609997207e+00
0.000000000000000000e+00 1.626239999999999934e-04 3.027862332797655043e+00
0.000000000000000000e+00 7.565469999999999921e-04 3.143551390963306602e+00
0.000000000000000000e+00 9.589120000000000239e-04 5.339658073436043262e-01
0.000000000000000000e+00 9.541760000000000476e-04 3.409650373690320091e+00
0.000000000000000000e+00 4.550339999999999940e-03 2.438062958153192739e+00
3.125000000000000173e-03 9.236050000000000856e-03 6.811681265669405905e-01
0.000000000000000000e+00 1.163259999999999945e-03 4.829999556307692288e+00
1.562500000000000000e-02 1.681409999999999936e-03 1.028033739511180489e-01
3.125000000000000173e-03 4.101060000000000122e-03 2.235265369619682918e+00
9.374999999999999653e-03 1.814810000000000034e-02 1.407727174275810178e+00
0.000000000000000000e+00 8.130410000000000241e-04 4.086614363613377598e+00
6.250000000000000000e-02 9.209509999999999919e-02 1.102690813501089995e+00
1.874999999999999931e-02 1.438590000000000008e-03 2.804744515774961755e+00
0.000000000000000000e+00 2.480579999999999938e-02 2.311619820501684242e+00
3.125000000000000173e-03 1.813699999999999904e-03 4.108786636133966219e+00
1.874999999999999931e-02 2.468290000000000154e-03 1.870549192041929265e+00
0.000000000000000000e+00 6.614490000000000430e-04 3.874135229896204624e+00
1.250000000000000069e-02 1.621629999999999990e-03 4.451730925388168281e+00
3.125000000000000173e-03 4.215739999999999939e-03 6.841011787527001564e-01
2.187499999999999861e-02 2.676290000000000006e-03 4.651234649639241603e+00
3.125000000000000000e-02 1.900030000000000035e-03 1.182787127465456223e+00
2.500000000000000139e-02 9.367499999999999438e-02 3.805838335030280017e+00
0.000000000000000000e+00 1.032160000000000065e-03 2.046640828282314750e+00
2.812500000000000069e-02 2.683780000000000193e-03 1.871876965409251525e+00
6.250000000000000000e-02 9.272800000000000487e-02 3.628434431116658754e+00
0.000000000000000000e+00 3.875840000000000079e-04 4.318066593148940591e+00
0.000000000000000000e+00 1.504829999999999970e-03 1.474249037742302315e+00
0.000000000000000000e+00 2.815999999999999927e-03 4.593172268606322106e+00
3.125000000000000173e-03 5.790019999999999889e-03 4.100559223387878482e+00
0.000000000000000000e+00 1.001729999999999938e-03 4.332260454169306385e+00
2.812500000000000069e-02 9.236619999999999553e-02 9.754786052047487166e-01
3.437500000000000278e-02 3.667589999999999739e-02 8.881444267375221413e-01
0.000000000000000000e+00 5.424969999999999662e-04 1.625088436284516824e+00
0.000000000000000000e+00 4.390640000000000233e-04 3.896553166837693816e+00
3.749999999999999861e-02 9.458540000000000003e-02 4.232387595741027297e-01
0.000000000000000000e+00 3.943039999999999978e-04 3.743276831529919413e+00
0.000000000000000000e+00 1.104769999999999927e-03 3.598929085687164964e+00
0.000000000000000000e+00 0.000000000000000000e+00 8.218607027675262078e-01
2.187499999999999861e-02 1.229499999999999907e-03 4.482959320444271256e+00
0.000000000000000000e+00 8.837120000000000392e-04 2.235943950264110747e+00
1.562500000000000000e-02 2.857150000000000141e-03 7.134881715067808994e-01
0.000000000000000000e+00 3.222590000000000003e-03 2.752859573885281907e+00
1.562500000000000000e-02 1.630979999999999973e-03 3.582235993611747382e+00
1.562500000000000000e-02 2.125310000000000046e-03 6.349648242700473011e-01
0.000000000000000000e+00 1.021310000000000100e-03 2.463933621320677059e+00
1.562500000000000000e-02 9.177290000000000447e-02 3.642328155120838629e-01
0.000000000000000000e+00 7.262800000000000462e-04 1.234700548401795883e-01
1.250000000000000069e-02 1.750720000000000097e-03 3.613301330304738546e+00
0.000000000000000000e+00 2.074239999999999981e-04 4.949564260541129634e+00
6.250000000000000347e-03 2.260859999999999953e-03 2.135532696149484710e+00
6.250000000000000347e-03 1.049159999999999954e-01 1.212960234506331725e+00
0.000000000000000000e+00 1.396480000000000019e-04 8.859501030071353922e-01
0.000000000000000000e+00 0.000000000000000000e+00 1.622353226498362666e+00
3.125000000000000173e-03 1.864450000000000135e-02 2.757797931026287230e+00
0.000000000000000000e+00 3.776639999999999945e-04 4.479701104386260901e+00
0.000000000000000000e+00 1.514869999999999932e-02 3.193480345248487229e+00
4.374999999999999722e-02 9.245739999999999514e-02 2.694208270388924742e+00
0.000000000000000000e+00 1.692670000000000069e-03 7.874157913175439116e-01
2.500000000000000139e-02 1.885759999999999997e-03 3.095145012173026622e+00
0.000000000000000000e+00 4.155300000000000009e-04 3.081272535809653323e+00
0.000000000000000000e+00 3.086399999999999994e-03 4.940190218706307590e+00
1.874999999999999931e-02 3.241149999999999934e-03 1.509827857479927982e+00
3.125000000000000173e-03 7.197330000000000047e-03 1.149819568423151139e+00
0.000000000000000000e+00 3.067840000000000063e-03 2.143235586044948793e+00
2.187499999999999861e-02 2.584360000000000129e-02 4.000370016435098819e+00
3.125000000000000173e-03 9.510069999999999635e-02 4.063283760834824676e+00
4.687500000000000000e-02 9.229729999999999879e-02 2.088867709111940307e+00
2.500000000000000139e-02 9.302199999999999358e-02 2.740793109588449461e+00
3.125000000000000173e-03 1.001950000000000063e-02 3.859387795201534299e+00
0.000000000000000000e+00 4.302140000000000304e-03 3.370201449614829148e+00
1.874999999999999931e-02 2.367869999999999784e-03 6.734511877069104813e-01
0.000000000000000000e+00 3.059710000000000207e-03 2.841426339065300510e+00
0.000000000000000000e+00 2.733380000000000098e-03 2.091445706304064345e+00
0.000000000000000000e+00 3.805440000000000211e-04 4.278421510477410372e+00
0.000000000000000000e+00 1.058050000000000049e-03 5.397377247594881133e-01
0.000000000000000000e+00 7.660800000000000378e-04 4.777409910933077875e+00
2.187499999999999861e-02 3.824219999999999703e-02 1.899066953073749620e+00
4.687500000000000000e-02 3.889600000000000002e-02 3.218319401460424167e+00
3.125000000000000173e-03 1.836230000000000154e-02 3.531089406262706731e+00
0.000000000000000000e+00 2.289850000000000107e-05 4.474763409043310602e+00
0.000000000000000000e+00 2.221159999999999923e-05 3.214900973027993825e+00
4.062500000000000139e-02 9.335839999999999417e-02 2.139509663881826285e+00
1.250000000000000069e-02 1.188419999999999928e-03 3.668633140084317290e+00
0.000000000000000000e+00 5.229949999999999703e-03 4.478843641277138410e+00
4.374999999999999722e-02 7.605309999999999675e-03 3.043546836478634443e+00
1.874999999999999931e-02 2.529860000000000095e-03 4.711354526537682830e+00
0.000000000000000000e+00 9.699049999999999339e-02 3.952885779045709036e+00
0.000000000000000000e+00 4.242510000000000009e-04 1.350894749879738121e+00
1.562500000000000000e-02 9.092290000000000094e-02 3.976337163476765912e+00
0.000000000000000000e+00 1.089279999999999979e-03 4.647913671491677334e+00
6.250000000000000347e-03 1.418559999999999916e-03 3.952683263407756442e+00
0.000000000000000000e+00 1.080769999999999995e-03 3.130929666136157863e+00
1.093750000000000000e-01 9.251779999999999726e-02 3.467409033921574846e+00
0.000000000000000000e+00 5.260609999999999765e-03 4.777182353065891895e+00
0.000000000000000000e+00 1.027139999999999954e-03 1.162651288263858884e+00
0.000000000000000000e+00 4.409409999999999892e-03 3.538983207658269459e-01
0.000000000000000000e+00 9.582079999999999981e-04 4.473830626660545207e+00
3.125000000000000173e-03 2.460930000000000062e-03 1.138653687496382627e+00
0.000000000000000000e+00 1.162819999999999956e-03 1.725063371976657267e+00
0.000000000000000000e+00 7.255739999999999889e-04 2.861336595071645839e+00
2.187499999999999861e-02 2.049539999999999869e-03 5.838988464330130412e-01
3.125000000000000173e-03 3.853819999999999989e-03 4.644933278341556449e-01
3.125000000000000173e-03 3.161919999999999922e-03 4.790264348816697826e+00
0.000000000000000000e+00 1.450050000000000037e-03 3.162988806849480472e+00
0.000000000000000000e+00 4.599690000000000137e-04 2.718535664169009713e+00
2.500000000000000139e-02 2.444669999999999916e-03 3.307204872601492429e+00
2.812500000000000069e-02 2.256189999999999932e-03 2.351494329138532624e+00
0.000000000000000000e+00 3.766339999999999966e-03 1.340930048344962655e+00
0.000000000000000000e+00 3.722239999999999924e-04 2.571253297015847483e+00
9.374999999999999653e-03 2.497280000000000159e-03 2.542910914141205403e+00
0.000000000000000000e+00 2.867200000000000196e-04 4.622115283449824474e+00
0.000000000000000000e+00 5.533950000000000154e-03 3.406577133618138298e-01
3.125000000000000173e-03 5.242560000000000275e-03 9.752275411733696275e-01
0.000000000000000000e+00 7.162759999999999570e-04 1.130396468613621863e+00
1.250000000000000069e-02 1.962619999999999990e-03 2.506971162215190674e+00
0.000000000000000000e+00 1.126459999999999918e-03 4.744599182852113017e+00
3.125000000000000173e-03 6.801540000000000016e-03 4.891484689408043263e-01
1.562500000000000000e-02 3.863099999999999867e-02 4.908251187551976313e-01
0.000000000000000000e+00 2.468349999999999798e-03 2.158044004604995791e+00
0.000000000000000000e+00 1.142980000000000038e-03 1.509167158107793671e+00
0.000000000000000000e+00 1.080320000000000065e-03 4.403427299170392661e-01
1.250000000000000069e-02 3.597630000000000099e-03 1.618943006138962026e+00
0.000000000000000000e+00 2.232959999999999980e-04 3.485212772126339953e+00
1.250000000000000069e-02 4.733890000000000146e-03 2.346735136378807596e+00
3.125000000000000173e-03 1.638399999999999926e-03 3.892394946261055200e+00
2.500000000000000139e-02 4.012349999999999597e-03 1.122027581912621752e+00
3.125000000000000173e-03 1.380219999999999928e-03 6.444989011196294859e-01
1.874999999999999931e-02 2.268739999999999993e-03 2.650011784339783460e+00
1.562500000000000000e-02 1.898050000000000084e-03 1.099050093526080518e+00
2.187499999999999861e-02 3.005250000000000109e-03 3.990120756824499182e+00
1.250000000000000069e-02 1.089740000000000014e-01 1.853058013970697582e+00
2.187499999999999861e-02 2.585150000000000035e-03 2.427015034425457518e+00
1.562500000000000000e-02 2.516579999999999859e-02 4.960253644574919463e+00
2.187499999999999861e-02 3.257789999999999991e-03 3.795809829546890501e+00
0.000000000000000000e+00 8.998399999999999498e-04 2.640380347000633954e+00
0.000000000000000000e+00 9.119869999999999539e-04 4.891259317936450302e+00
6.250000000000000347e-03 5.778049999999999853e-03 2.158983865387440915e+00
0.000000000000000000e+00 1.215059999999999925e-02 3.335382273492291549e+00
0.000000000000000000e+00 6.884480000000000330e-04 2.308923737517669217e+00
3.125000000000000173e-03 5.056320000000000432e-03 1.644437103775338471e+00
0.000000000000000000e+00 2.972610000000000096e-03 5.139517420320838248e-01
9.374999999999999653e-03 2.626560000000000006e-03 2.556780657567791604e+00
0.000000000000000000e+00 1.785279999999999983e-03 2.966019215955894683e+00
0.000000000000000000e+00 7.350009999999999920e-04 1.108688078926819420e+00
2.500000000000000139e-02 2.394499999999999927e-03 8.211577276095377576e-01
2.500000000000000139e-02 2.410620000000000037e-03 4.698456755793578132e+00
1.250000000000000069e-02 4.665660000000000293e-03 6.034145171991239787e-01
1.562500000000000000e-02 2.488699999999999940e-03 3.001095476081333757e+00
3.125000000000000173e-03 9.297060000000000046e-02 1.776877932628293077e+00
0.000000000000000000e+00 9.831040000000000525e-04 4.647101214475224396e+00
0.000000000000000000e+00 5.251579999999999616e-03 1.118584758186015327e+00
1.874999999999999931e-02 2.419650000000000186e-03 4.343024126966731124e+00
0.000000000000000000e+00 3.980560000000000175e-03 4.376423161463666389e+00
9.374999999999999653e-03 4.448699999999999877e-03 2.817092930531639450e-01
3.125000000000000173e-03 3.337859999999999785e-03 3.567049445989017853e-01
0.000000000000000000e+00 1.093140000000000040e-03 4.798238726289924649e+00
3.125000000000000173e-03 4.285439999999999736e-03 3.535534297600199771e+00
0.000000000000000000e+00 2.312489999999999945e-05 5.910802122756975141e-01
0.000000000000000000e+00 1.612219999999999929e-03 3.724973955844982143e+00
6.250000000000000347e-03 9.703240000000000476e-02 8.960656988172560622e-01
0.000000000000000000e+00 5.452099999999999655e-03 3.981692771210546766e+00
0.000000000000000000e+00 2.530500000000000197e-03 1.904865043373790812e+00
1.562500000000000000e-02 5.167419999999999826e-03 2.811441586881497479e+00
0.000000000000000000e+00 4.086690000000000136e-04 3.203463777099146981e-01
6.250000000000000347e-03 1.014800000000000008e-01 7.725480278346646967e-01
1.250000000000000069e-02 1.691779999999999933e-03 1.903126789417122655e+00
2.812500000000000069e-02 2.218879999999999898e-03 1.421586741732999704e+00
1.250000000000000069e-02 1.426219999999999918e-02 2.855648407593667226e+00
0.000000000000000000e+00 1.906179999999999940e-03 4.291197176674355518e+00
0.000000000000000000e+00 1.839230000000000075e-03 2.702319285812113669e+00
0.000000000000000000e+00 2.846079999999999964e-04 2.708815177034326283e+00
3.125000000000000173e-03 1.029500000000000033e-03 3.826137189034334307e-01
0.000000000000000000e+00 4.669440000000000071e-04 2.314709905324961348e+00
3.125000000000000173e-03 9.395589999999999498e-02 4.743920963857066297e+00
0.000000000000000000e+00 6.189340000000000206e-04 4.480776229058902604e-01
3.125000000000000173e-03 4.431079999999999741e-02 3.220589140645917503e+00
3.125000000000000173e-03 1.491499999999999944e-02 6.716791401283950247e-01
0.000000000000000000e+00 8.965120000000000250e-04 3.883700091094960172e+00
0.000000000000000000e+00 5.754879999999999761e-04 4.507099718144147005e+00
0.000000000000000000e+00 5.575420000000000202e-03 1.666128511044285831e+00
1.250000000000000069e-02 1.821949999999999915e-03 9.078911610886364336e-03
0.000000000000000000e+00 4.890819999999999716e-03 2.313583577025965177e+00
0.000000000000000000e+00 1.629309999999999916e-03 1.370604709191343584e+00
0.000000000000000000e+00 2.585220000000000053e-03 2.533445717029896738e+00
0.000000000000000000e+00 1.578109999999999973e-03 4.095740790338166626e+00
0.000000000000000000e+00 1.384409999999999981e-02 3.134816135925746039e+00
3.125000000000000173e-03 9.553430000000000255e-02 3.458854583998883125e+00
0.000000000000000000e+00 5.074209999999999788e-04 3.396700530122180428e+00
6.250000000000000347e-03 2.415739999999999988e-03 9.639019876224519390e-01
6.250000000000000347e-03 1.851259999999999972e-03 3.876001872685483463e+00
1.562500000000000000e-02 1.329920000000000060e-03 4.896482079031107659e+00
0.000000000000000000e+00 4.152730000000000202e-04 1.642286490043734393e+00
1.874999999999999931e-02 1.988929999999999865e-03 9.679230152364515227e-01
1.874999999999999931e-02 2.544639999999999923e-03 2.827205516279654773e+00
1.874999999999999931e-02 2.405179999999999818e-03 3.459068971512791357e+00
0.000000000000000000e+00 5.358719999999999543e-04 6.611634996016879651e-01
0.000000000000000000e+00 4.760960000000000170e-04 4.153349195422489926e-01
2.187499999999999861e-02 4.480829999999999882e-03 3.701383267002372968e+00
0.000000000000000000e+00 3.965490000000000009e-04 7.085926038260648152e-01
0.000000000000000000e+00 4.096950000000000136e-04 2.777231046777694168e+00
0.000000000000000000e+00 3.455549999999999941e-03 4.608140143628624230e+00
6.250000000000000347e-03 1.507069999999999894e-03 2.511736707769096189e+00
0.000000000000000000e+00 2.824639999999999790e-03 4.215923885928275716e+00
0.000000000000000000e+00 3.553179999999999750e-04 2.898367939425851247e+00
0.000000000000000000e+00 1.778499999999999916e-03 3.519525349428346939e+00
0.000000000000000000e+00 1.956289999999999852e-03 3.463795935068558762e-01
1.562500000000000000e-02 6.339199999999999479e-04 4.248393906348390203e+00
0.000000000000000000e+00 1.559099999999999896e-03 6.075546863491199101e-01
0.000000000000000000e+00 2.041550000000000049e-03 4.389171716537080492e+00
2.187499999999999861e-02 1.556929999999999989e-03 1.072852038656868512e-01
0.000000000000000000e+00 9.548799999999999649e-04 2.367491243799070944e+00
0.000000000000000000e+00 3.963519999999999890e-04 4.638119431265685932e-01
2.500000000000000139e-02 1.774020000000000067e-03 1.053357229281420837e-01
0.000000000000000000e+00 8.910170000000000243e-04 1.717845823283383311e+00
0.000000000000000000e+00 3.246460000000000058e-03 4.486550220925411558e-01
0.000000000000000000e+00 1.110459999999999963e-03 1.942792410325661745e+00
6.250000000000000347e-03 3.693220000000000097e-03 2.488241009639158285e-01
0.000000000000000000e+00 2.229889999999999997e-03 4.269689175759456390e+00
9.374999999999999653e-03 2.384960000000000205e-03 2.986311099693696569e+00
0.000000000000000000e+00 3.008639999999999926e-03 3.900718231134324032e+00
0.000000000000000000e+00 0.000000000000000000e+00 9.626321807571225353e-01
1.562500000000000000e-02 9.172489999999999810e-02 3.148490201425174106e+00
3.125000000000000173e-03 4.919549999999999965e-03 1.195116394434918572e+00
0.000000000000000000e+00 3.958400000000000048e-04 3.198388669341800661e-02
5.000000000000000278e-02 9.275150000000000061e-02 2.194666866737856381e+00
3.125000000000000173e-03 2.409730000000000118e-03 4.235016815020678393e+00
1.250000000000000069e-02 2.278909999999999877e-03 4.922524736043992988e+00
0.000000000000000000e+00 1.378300000000000000e-05 4.265578533526936944e-02
1.250000000000000069e-02 9.260119999999999463e-02 2.930391789813122649e+00
1.562500000000000000e-02 2.008040000000000172e-02 3.377465589610304519e+00
3.125000000000000173e-03 3.813819999999999884e-03 2.706173094194246787e+00
3.125000000000000173e-03 9.605750000000000399e-02 3.602825996523030927e+00
3.437500000000000278e-02 1.060200000000000031e-01 3.261526762176823802e+00
0.000000000000000000e+00 2.955140000000000197e-03 4.455985343187230718e+00
0.000000000000000000e+00 2.723840000000000267e-04 1.381454286989262092e+00
2.812500000000000069e-02 9.336110000000000242e-02 4.333720765426219756e+00
1.250000000000000069e-02 5.107460000000000298e-03 4.267541867518869658e+00
0.000000000000000000e+00 1.190209999999999923e-03 3.809461011651885443e+00
9.374999999999999653e-03 1.837120000000000029e-03 3.258302145924501403e+00
0.000000000000000000e+00 1.179939999999999982e-02 1.846635259515594374e-01
2.187499999999999861e-02 2.744320000000000179e-03 1.571912952505429839e+00
0.000000000000000000e+00 1.257150000000000064e-03 6.621247411996988852e-02
3.125000000000000173e-03 6.532099999999999886e-03 6.856517639951209553e-01
3.125000000000000173e-03 1.931329999999999983e-03 5.513356958415727149e-01
0.000000000000000000e+00 1.256450000000000101e-03 3.749964073401701459e+00
0.000000000000000000e+00 2.838719999999999872e-03 4.780406440408146995e-01
1.874999999999999931e-02 2.080320000000000086e-03 1.347417309418589948e+00
9.374999999999999653e-03 2.378050000000000042e-03 2.013839124524930302e+00
0.000000000000000000e+00 1.474180000000000065e-03 1.549963934563800549e+00
2.500000000000000139e-02 3.238270000000000124e-03 3.120031722806677621e+00
1.250000000000000069e-02 1.146050000000000020e-03 2.417099276106152494e+00
0.000000000000000000e+00 7.753229999999999844e-03 1.260061176073024036e-01
6.250000000000000347e-03 2.117060000000000036e-03 4.035214954482443162e+00
1.250000000000000069e-02 2.846270000000000137e-03 3.218574361521471694e+00
6.250000000000000347e-03 2.683459999999999925e-03 1.207659987261123780e+00
2.187499999999999861e-02 2.995520000000000214e-03 4.199560866244381963e+00
0.000000000000000000e+00 3.806079999999999988e-04 6.124930783903720366e-01
1.874999999999999931e-02 1.984319999999999921e-03 4.636750675534484500e-02
1.562500000000000000e-02 2.035900000000000210e-03 4.152289295975071681e+00
6.250000000000000347e-03 1.290570000000000085e-02 3.749608317502528543e+00
9.374999999999999653e-03 4.704520000000000229e-02 2.592625624447615795e+00
2.812500000000000069e-02 9.490419999999999412e-02 3.205861195411568332e+00
0.000000000000000000e+00 4.033919999999999759e-04 2.377062891529764688e+00
0.000000000000000000e+00 3.730559999999999952e-03 3.031649314724974786e+00
0.000000000000000000e+00 2.595270000000000216e-03 1.486961804405573684e+00
0.000000000000000000e+00 1.643839999999999928e-03 2.231642991098286455e+00
0.000000000000000000e+00 8.222719999999999769e-04 4.119989845117094873e+00
1.250000000000000069e-02 1.435969999999999955e-03 1.189462460081862183e+00
0.000000000000000000e+00 5.341570000000000346e-03 3.672547094043360216e-01
6.250000000000000347e-03 7.930150000000000393e-03 4.983238919359937569e+00
0.000000000000000000e+00 0.000000000000000000e+00 1.855985056880519846e+00
6.250000000000000347e-03 1.400060000000000063e-03 2.247117024175646627e+00
1.250000000000000069e-02 1.052229999999999971e-01 2.016893895787006841e+00
1.562500000000000000e-02 9.897660000000000832e-03 2.775861055005811373e+00
2.812500000000000069e-02 2.010689999999999873e-03 4.163763358938674664e+00
2.187499999999999861e-02 2.046780000000000214e-03 1.197279945532192080e+00
0.000000000000000000e+00 2.988419999999999879e-03 4.349310710557476867e+00
3.125000000000000173e-03 1.673409999999999958e-03 3.981076983708585093e+00
1.562500000000000000e-02 4.637249999999999879e-03 3.327515461263548247e+00
0.000000000000000000e+00 3.790529999999999854e-03 3.103552143868939517e+00
6.250000000000000347e-03 8.191999999999999629e-03 2.748824325932118562e+00
0.000000000000000000e+00 2.776960000000000192e-04 5.340262461744754718e-01
0.000000000000000000e+00 1.658369999999999940e-03 4.259968562900732003e+00
0.000000000000000000e+00 1.508540000000000054e-03 6.312143410511167341e-01
3.125000000000000173e-03 1.723099999999999979e-03 2.654681398433946349e+00
1.250000000000000069e-02 2.015680000000000163e-03 3.760914617144117233e+00
0.000000000000000000e+00 1.266149999999999958e-03 5.081630712008461392e-01
3.125000000000000173e-03 1.988950000000000093e-02 2.290240406091123671e+00
0.000000000000000000e+00 3.853910000000000105e-04 4.900896158729382890e+00
3.125000000000000173e-03 4.246680000000000073e-03 4.680651772757828510e+00
0.000000000000000000e+00 1.845819999999999969e-03 1.702377714035104850e+00
0.000000000000000000e+00 3.745280000000000028e-04 1.615964233858613763e+00
4.687500000000000000e-02 9.192190000000000083e-02 2.626266538217808311e+00
1.562500000000000000e-02 2.058560000000000077e-03 5.347568937954055857e-01
1.874999999999999931e-02 2.974910000000000054e-02 1.220192519300094425e+00
9.374999999999999653e-03 9.601439999999999975e-02 2.299664952270501050e+00
0.000000000000000000e+00 0.000000000000000000e+00 1.924043523185848814e+00
2.187499999999999861e-02 3.402199999999999669e-02 1.514056685466003138e-01
0.000000000000000000e+00 3.636860000000000006e-03 2.112337105485546651e+00
0.000000000000000000e+00 3.813120000000000246e-04 2.783713152451700035e-01
0.000000000000000000e+00 1.830769999999999956e-04 1.268075176586075381e-01
0.000000000000000000e+00 1.355089999999999984e-03 3.606865712814380842e+00
0.000000000000000000e+00 4.374209999999999904e-03 1.945965249478082137e-01
9.374999999999999653e-03 2.549699999999999796e-03 4.610513326660647948e+00
1.874999999999999931e-02 2.779779999999999925e-03 2.919970900939667491e+00
3.125000000000000173e-03 4.558719999999999613e-03 1.756085714806073783e+00
1.250000000000000069e-02 1.651780000000000045e-03 3.623499111308399190e+00
0.000000000000000000e+00 1.512259999999999993e-02 4.056738020512145049e+00
3.125000000000000173e-03 2.091389999999999916e-02 2.334770515924727841e-01
0.000000000000000000e+00 3.502719999999999966e-03 6.864608683907258424e-01
2.187499999999999861e-02 1.836610000000000022e-03 2.997095434981597695e+00
0.000000000000000000e+00 4.168120000000000202e-04 1.789499592602993960e+00
2.500000000000000139e-02 1.753860000000000098e-03 1.341648438954190059e+00
0.000000000000000000e+00 5.924479999999999764e-04 3.986447033997309042e+00
9.374999999999999653e-03 1.408640000000000066e-02 3.020595189198590269e+00
0.000000000000000000e+00 5.105789999999999808e-03 3.489259432067677302e+00
3.125000000000000173e-03 3.181250000000000050e-03 3.120594496899320447e-01
9.374999999999999653e-03 2.524989999999999960e-03 4.296033097783579002e+00
0.000000000000000000e+00 5.115519999999999703e-04 1.730661119354923727e+00
2.812500000000000069e-02 1.179449999999999943e-02 2.899269698423237340e+00
0.000000000000000000e+00 5.016320000000000327e-03 1.636460496950986609e+00
0.000000000000000000e+00 3.372259999999999841e-02 4.985519134487001125e+00
0.000000000000000000e+00 3.737659999999999854e-03 3.666144955679808248e+00
6.250000000000000000e-02 4.108699999999999852e-02 4.477420271868248314e+00
6.250000000000000347e-03 8.847519999999999343e-03 4.590214090651956624e+00
6.250000000000000347e-03 3.061379999999999831e-03 2.530854320662778711e-01
9.374999999999999653e-03 6.979649999999999570e-03 2.872616651724231751e+00
0.000000000000000000e+00 1.035520000000000060e-03 4.336675562198939460e+00
3.125000000000000173e-03 1.417660000000000057e-03 3.374742961527454899e-01
0.000000000000000000e+00 7.143039999999999806e-03 4.505282291656182103e+00
5.000000000000000278e-02 4.017010000000000025e-02 2.944198114300457192e+00
0.000000000000000000e+00 4.070719999999999894e-03 2.048046973830824902e-01
4.687500000000000000e-02 9.297840000000000271e-02 3.318484751626084694e+00
0.000000000000000000e+00 4.401409999999999698e-03 3.708787541560113254e+00
0.000000000000000000e+00 9.000959999999999690e-04 6.456002489773210451e-01
0.000000000000000000e+00 5.158400000000000485e-04 4.778875094204781071e+00
1.250000000000000069e-02 2.122570000000000012e-01 2.937748934066777284e+00
0.000000000000000000e+00 4.010239999999999877e-04 2.334370098237492641e+00
0.000000000000000000e+00 9.813120000000000263e-04 1.735589173908902882e+00
0.000000000000000000e+00 0.000000000000000000e+00 4.776336936872931815e+00
0.000000000000000000e+00 0.000000000000000000e+00 1.282865856206510946e-01
0.000000000000000000e+00 6.013000000000000332e-04 4.457249589376226062e+00
1.562500000000000000e-02 2.432380000000000046e-03 2.125943628464161073e+00
0.000000000000000000e+00 2.589440000000000144e-03 1.921719006883237935e-01
3.125000000000000173e-03 1.022780000000000043e-02 4.610501242173708825e+00
2.500000000000000139e-02 2.809920000000000039e-03 2.706683122239655237e+00
0.000000000000000000e+00 3.390800000000000064e-02 1.719941163078603896e+00
0.000000000000000000e+00 3.984090000000000136e-04 2.491900013364365396e+00
9.374999999999999653e-03 1.927300000000000063e-03 2.604577697267143499e+00
0.000000000000000000e+00 3.000130000000000158e-03 4.444230211915271234e+00
2.187499999999999861e-02 9.506680000000000685e-02 1.851129717913542638e+00
5.312499999999999861e-02 9.060010000000000285e-02 1.987356324855123368e+00
2.812500000000000069e-02 1.948290000000000091e-03 2.065080632110839254e+00
0.000000000000000000e+00 0.000000000000000000e+00 4.867075168352882564e+00
0.000000000000000000e+00 2.861119999999999983e-03 2.545771973061888849e-01
0.000000000000000000e+00 3.969280000000000052e-04 3.811282633167577316e+00
0.000000000000000000e+00 3.890550000000000258e-02 4.950443186886900548e+00
0.000000000000000000e+00 3.538110000000000126e-03 4.126443419266829338e+00
1.250000000000000069e-02 9.902710000000000679e-02 1.010568571428682727e+00
3.125000000000000173e-03 2.497200000000000114e-02 1.117924904617990656e+00
0.000000000000000000e+00 1.146620000000000104e-03 4.233119714001102096e+00
0.000000000000000000e+00 2.951169999999999922e-03 1.745569874693140289e+00
1.562500000000000000e-02 2.315839999999999999e-03 2.356113856590227318e+00
0.000000000000000000e+00 2.185020000000000191e-03 2.510114621152981673e+00
3.125000000000000000e-02 4.148729999999999779e-02 4.034629997609973096e+00
0.000000000000000000e+00 1.572220000000000041e-03 3.615253370884282003e+00
0.000000000000000000e+00 6.302199999999999469e-02 3.255143114794344150e+00
0.000000000000000000e+00 7.367320000000000335e-04 1.325570691218508346e+00
0.000000000000000000e+00 1.006139999999999986e-03 1.670446409295414103e+00
0.000000000000000000e+00 1.182829999999999993e-02 1.619043560154183492e+00
6.250000000000000347e-03 1.055080000000000046e-01 1.977177535646534867e-01
0.000000000000000000e+00 5.524860000000000361e-03 8.050324259765839763e-01
9.374999999999999653e-03 3.881279999999999973e-03 3.805628975074977216e+00
0.000000000000000000e+00 1.336769999999999929e-03 2.266057555005672519e+00
0.000000000000000000e+00 1.971389999999999948e-03 2.361398488731210055e+00
0.000000000000000000e+00 6.574459999999999853e-03 3.932442477708936179e-01
1.250000000000000069e-02 1.732419999999999924e-03 2.258613271340666806e+00
0.000000000000000000e+00 3.086590000000000167e-03 4.290777237565309932e+00
9.374999999999999653e-03 3.166080000000000283e-02 4.434106070006897049e+00
0.000000000000000000e+00 1.342019999999999975e-03 2.010392534086125949e+00
6.250000000000000347e-03 1.031620000000000020e-03 2.925962678444070875e+00
0.000000000000000000e+00 9.110400000000000052e-04 2.662245087304512481e+00
0.000000000000000000e+00 7.333329999999999666e-04 4.209845159442759055e+00
0.000000000000000000e+00 4.348539999999999697e-03 3.457215754873353308e+00
0.000000000000000000e+00 3.840450000000000135e-04 1.979855492344045231e+00
1.562500000000000000e-02 1.936189999999999960e-03 1.907218509465876011e+00
0.000000000000000000e+00 3.132989999999999994e-03 4.875009207458923299e+00
0.000000000000000000e+00 3.909760000000000188e-04 4.089997890696062122e+00
0.000000000000000000e+00 1.666500000000000013e-03 1.879484770400621674e+00
3.125000000000000173e-03 1.747779999999999993e-03 3.522313955509845051e+00
3.125000000000000173e-03 1.079230000000000033e-03 3.133237942091283035e+00
0.000000000000000000e+00 2.044610000000000091e-03 3.382034015104160574e+00
0.000000000000000000e+00 7.445120000000000167e-04 2.760555269208715856e+00
0.000000000000000000e+00 1.259259999999999893e-03 5.488554363314906981e-01
3.125000000000000173e-03 4.697149999999999763e-03 1.960719899672011657e+00
1.562500000000000000e-02 3.132580000000000087e-02 4.053805362927625389e+00
0.000000000000000000e+00 5.494229999999999470e-04 1.865957900997802899e+00
0.000000000000000000e+00 2.064640000000000073e-04 1.206657664169781263e+00
3.125000000000000173e-03 7.863040000000000394e-04 1.912375119598846318e+00
0.000000000000000000e+00 1.508229999999999987e-02 3.808556757265385562e-01
2.500000000000000139e-02 3.143940000000000016e-03 1.522190159258379749e+00
3.125000000000000000e-02 2.479469999999999938e-02 4.132021084965646907e+00
3.125000000000000173e-03 3.765700000000000297e-02 1.049450877447947850e+00
9.374999999999999653e-03 9.762659999999999394e-02 4.464785868035145100e+00
3.437500000000000278e-02 9.076829999999999274e-03 7.769254466517622193e-01
2.500000000000000139e-02 2.909820000000000028e-03 3.218385380295955223e+00
0.000000000000000000e+00 5.582719999999999566e-04 2.960243683061736242e+00
3.125000000000000173e-03 2.265339999999999802e-03 5.284261285974301003e-01
3.125000000000000173e-03 2.153860000000000063e-03 1.885486699090954232e+00
0.000000000000000000e+00 4.158510000000000136e-04 4.241358751753263157e+00
2.187499999999999861e-02 7.824579999999999383e-03 1.846701135435364183e+00
6.250000000000000000e-02 3.771510000000000140e-02 2.471825912414036708e+00
0.000000000000000000e+00 5.206340000000000273e-03 4.985986762073450151e+00
0.000000000000000000e+00 1.899070000000000098e-03 2.022500342289647701e+00
3.125000000000000173e-03 1.666820000000000064e-03 3.506438441394100991e+00
3.125000000000000000e-02 7.929920000000000024e-03 2.482472824901980957e+00
1.874999999999999931e-02 3.124609999999999888e-03 3.065459864400790657e+00
0.000000000000000000e+00 1.284440000000000061e-02 2.742410480419272378e+00
2.187499999999999861e-02 2.414780000000000051e-03 1.888435618153166962e+00
0.000000000000000000e+00 3.373119999999999851e-03 1.388422521210304517e+00
9.375000000000000000e-02 3.808439999999999742e-02 3.904009080133563625e-01
2.500000000000000139e-02 2.531010000000000204e-03 2.800343878132688369e-01
1.562500000000000000e-02 2.099900000000000030e-03 2.610002543024419808e+00
6.250000000000000347e-03 1.961089999999999969e-03 2.022724979293018421e+00
0.000000000000000000e+00 6.693819999999999631e-03 2.282100801012349578e+00
0.000000000000000000e+00 3.788500000000000201e-04 1.674122525844463638e+00
2.187499999999999861e-02 1.851519999999999945e-03 4.708863738457409909e+00
0.000000000000000000e+00 6.705549999999999792e-04 7.918453135492137251e-01
1.000000000000000056e-01 8.114879999999999316e-02 3.546082272098810551e-01
1.562500000000000000e-02 2.435459999999999969e-03 4.243835899441876336e+00
1.250000000000000069e-02 1.508739999999999951e-03 1.207792910149001919e+00
3.125000000000000173e-03 2.080770000000000015e-03 1.397294282223672912e+00
0.000000000000000000e+00 2.666690000000000206e-03 9.193130701370622049e-02
1.874999999999999931e-02 2.465979999999999995e-03 1.209478845890044063e+00
0.000000000000000000e+00 3.084100000000000209e-03 2.029380873943106067e+00
0.000000000000000000e+00 5.437159999999999693e-04 2.068676822560920670e+00
3.125000000000000173e-03 9.477910000000000501e-02 2.778648032917001132e+00
2.812500000000000069e-02 3.559999999999999797e-03 8.551591074658360103e-01
0.000000000000000000e+00 2.291840000000000066e-04 2.871481085693013746e+00
0.000000000000000000e+00 3.682700000000000231e-04 3.239817992501494714e+00
0.000000000000000000e+00 1.012480000000000064e-03 4.843345288837691776e+00
0.000000000000000000e+00 0.000000000000000000e+00 3.934910618953473271e+00
3.125000000000000173e-03 3.821179999999999716e-02 4.299465606607660861e-01
0.000000000000000000e+00 1.951260000000000147e-02 1.911129357650781513e-01
0.000000000000000000e+00 1.067009999999999964e-03 4.103419936901365972e+00
0.000000000000000000e+00 2.612849999999999895e-02 1.797005960463182284e+00
0.000000000000000000e+00 2.075710000000000142e-03 2.176294023992463966e+00
3.125000000000000000e-02 9.275450000000000361e-02 2.759188186326376524e+00
0.000000000000000000e+00 9.302400000000000382e-04 1.779046005199930836e+00
0.000000000000000000e+00 1.666179999999999961e-03 2.922290567028781538e+00
0.000000000000000000e+00 4.059110000000000105e-04 3.440707597427421049e+00
6.250000000000000347e-03 2.336640000000000071e-03 4.795540550943534264e+00
9.374999999999999653e-03 1.952490000000000128e-02 2.736600190702199065e+00
1.250000000000000069e-02 2.512450000000000100e-02 5.191065838575753544e-01
6.250000000000000347e-03 9.421140000000000070e-02 1.817550425815557258e+00
2.500000000000000139e-02 2.252609999999999942e-03 4.503896009472694750e+00
0.000000000000000000e+00 1.496740000000000093e-03 3.058689836990943878e+00
0.000000000000000000e+00 3.613760000000000149e-03 1.057079829301139640e+00
0.000000000000000000e+00 8.643410000000000242e-04 3.215225806848894585e+00
0.000000000000000000e+00 4.426689999999999618e-03 1.550571212804191523e+00
0.000000000000000000e+00 2.946879999999999812e-03 4.143964181904402633e-01
0.000000000000000000e+00 5.083329999999999620e-03 4.352430205614798986e+00
0.000000000000000000e+00 9.745920000000000364e-04 2.931427764823092197e+00
0.000000000000000000e+00 2.288260000000000009e-05 1.980317151972724732e+00
