0.000000000000000000e+00 7.504080000000000472e-02 9.890513001859257969e-01
1.562500000000000000e-02 7.898240000000000816e-03 2.483172773039985515e+00
2.812500000000000069e-02 2.211099999999999871e-02 8.272026204838139885e-01
0.000000000000000000e+00 6.320720000000000505e-02 3.592096355150646847e+00
0.000000000000000000e+00 4.853120000000000047e-04 4.491947147611367264e+00
0.000000000000000000e+00 6.535620000000000014e-04 1.586148529056826684e+00
3.125000000000000173e-03 9.491620000000000612e-02 4.549539251609487245e+00
0.000000000000000000e+00 2.240880000000000134e-05 8.259687050395847496e-01
3.125000000000000173e-03 6.361219999999999895e-03 4.942984228429522453e+00
3.125000000000000173e-03 5.093210000000000098e-02 4.075485341346578139e+00
9.374999999999999653e-03 1.430459999999999935e-03 3.191902623485814994e-01
2.187499999999999861e-02 1.557250000000000040e-03 1.223974342571221730e+00
1.250000000000000069e-02 2.140860000000000072e-03 3.463521887636129115e+00
0.000000000000000000e+00 8.437120000000000427e-04 2.697305875714092416e+00
0.000000000000000000e+00 1.538499999999999937e-03 4.373469454085116226e+00
0.000000000000000000e+00 3.924669999999999895e-03 5.424784752406219823e-01
0.000000000000000000e+00 2.718900000000000006e-04 1.892526381865613949e+00
9.374999999999999653e-03 1.836350000000000048e-03 4.918715107689767940e+00
0.000000000000000000e+00 1.035770000000000024e-01 3.195259950247329339e+00
1.874999999999999931e-02 3.162849999999999689e-02 1.357136481090785551e+00
0.000000000000000000e+00 0.000000000000000000e+00 4.430438535973670433e+00
3.125000000000000173e-03 9.436480000000000562e-03 1.239112707816842462e+00
9.374999999999999653e-03 2.002709999999999907e-02 2.002611963514355331e+00
0.000000000000000000e+00 7.492479999999999930e-04 7.655443112551274520e-01
0.000000000000000000e+00 4.273290000000000009e-04 4.502907607023928449e+00
3.125000000000000173e-03 5.470850000000000192e-03 9.784289088494790843e-01
0.000000000000000000e+00 1.006720000000000011e-03 4.426824971591572400e+00
3.125000000000000173e-03 2.894040000000000154e-02 3.332644479622220324e+00
0.000000000000000000e+00 1.176310000000000073e-03 2.577434176717996905e+00
0.000000000000000000e+00 0.000000000000000000e+00 3.417078212183231489e+00
0.000000000000000000e+00 2.338880000000000212e-03 2.488166055432256663e+00
3.125000000000000173e-03 2.434949999999999962e-03 1.646398395482768340e+00
0.000000000000000000e+00 1.325250000000000039e-03 3.479279787385275213e+00
0.000000000000000000e+00 3.611389999999999913e-03 3.408419445250874258e+00
1.562500000000000000e-02 2.325059999999999887e-03 2.137666006033193788e+00
0.000000000000000000e+00 2.556160000000000029e-03 4.140396072795229365e+00
0.000000000000000000e+00 5.035519999999999927e-04 1.068224375802434567e-01
3.125000000000000173e-03 4.837179999999999952e-03 1.059249678487379054e+00
1.250000000000000069e-02 7.990459999999999577e-03 1.327601218975611452e+00
0.000000000000000000e+00 3.781449999999999785e-04 4.819509643176034253e-01
1.562500000000000000e-02 9.254389999999999838e-02 4.238908810501092361e+00
1.874999999999999931e-02 2.716989999999999857e-03 1.270397749406514398e+00
2.812500000000000069e-02 2.439680000000000060e-03 2.356051139425519025e-01
2.187499999999999861e-02 4.222659999999999608e-03 3.566310810678170462e+00
0.000000000000000000e+00 9.627099999999999764e-04 5.090613608345229135e-02
6.250000000000000347e-03 2.115140000000000162e-03 2.897727582693361281e+00
0.000000000000000000e+00 1.822529999999999940e-03 4.859629948307294889e+00
6.250000000000000347e-03 5.761979999999999880e-03 3.331345139508151032e+00
2.500000000000000139e-02 2.615169999999999995e-03 1.814275170909877000e+00
0.000000000000000000e+00 3.825060000000000135e-04 3.966113421609380740e+00
0.000000000000000000e+00 1.587840000000000030e-04 4.891668444193147280e+00
0.000000000000000000e+00 1.193669999999999974e-02 3.601032633214429346e+00
6.250000000000000347e-03 2.123390000000000173e-03 1.338113623794647378e+00
6.250000000000000347e-03 3.816590000000000260e-02 1.034162489726566214e+00
3.125000000000000173e-03 4.414529999999999843e-03 3.314950686240071942e+00
9.374999999999999653e-03 9.700540000000000551e-02 4.055542192365239273e+00
1.562500000000000000e-02 9.267380000000000062e-02 3.431614179945226439e+00
0.000000000000000000e+00 1.913020000000000085e-03 1.403370256074998768e+00
9.374999999999999653e-03 2.486139999999999965e-03 1.288541116552261556e+00
1.874999999999999931e-02 2.285699999999999885e-03 1.891742343274490645e+00
0.000000000000000000e+00 1.375799999999999940e-03 4.466051723425144893e+00
0.000000000000000000e+00 0.000000000000000000e+00 1.704754441223679695e+00
2.812500000000000069e-02 9.385580000000000311e-02 3.274466155091400044e+00
3.125000000000000173e-03 2.434430000000000014e-03 3.266059616685297762e+00
3.125000000000000173e-03 1.035799999999999915e-02 7.552228842222852290e-01
1.250000000000000069e-02 3.095619999999999882e-03 4.679715361175171395e+00
0.000000000000000000e+00 4.227120000000000009e-04 4.068612853996601331e+00
0.000000000000000000e+00 8.784490000000000050e-04 1.559642504998356438e+00
2.187499999999999861e-02 3.902210000000000140e-03 4.919074062113980794e+00
6.250000000000000347e-03 2.676739999999999935e-03 5.514022988141037418e-01
4.374999999999999722e-02 1.690080000000000054e-03 2.886797724255790065e+00
0.000000000000000000e+00 0.000000000000000000e+00 2.559845298861075591e+00
1.250000000000000069e-02 2.001339999999999890e-03 2.340566528160527682e+00
5.312499999999999861e-02 2.620839999999999975e-02 4.656724563091494851e+00
0.000000000000000000e+00 9.448320000000000503e-04 4.706097124026805467e+00
4.062500000000000139e-02 9.302870000000000583e-02 2.050685638056247484e+00
0.000000000000000000e+00 2.769450000000000037e-02 5.858696628514414861e-01
0.000000000000000000e+00 2.342460000000000202e-03 1.021563829510248489e+00
3.125000000000000173e-03 9.671349999999999392e-02 3.899049526594828841e+00
3.125000000000000173e-03 1.990140000000000051e-03 2.037990514954515664e+00
0.000000000000000000e+00 3.947520000000000044e-04 1.260396426344045917e+00
3.125000000000000173e-03 1.050299999999999984e-01 2.865396740552472732e+00
0.000000000000000000e+00 5.445489999999999662e-04 2.908563001371234247e+00
9.374999999999999653e-03 1.953089999999999991e-03 2.845113531450216726e+00
3.125000000000000173e-03 2.377540000000000035e-03 3.163381262865470944e+00
9.374999999999999653e-03 1.306370000000000057e-03 4.791120909574579478e+00
0.000000000000000000e+00 3.729220000000000104e-03 2.996210210417005637e+00
0.000000000000000000e+00 5.027400000000000011e-04 1.307403452677328826e+00
1.562500000000000000e-02 2.705860000000000036e-03 3.078241334489852044e+00
3.125000000000000173e-03 9.307899999999999160e-03 3.669506802001667456e+00
3.125000000000000173e-03 1.018860000000000078e-02 4.668376337830869360e+00
0.000000000000000000e+00 6.426609999999999918e-04 2.410151149978247975e+00
0.000000000000000000e+00 1.619709999999999900e-03 2.679117427415715902e+00
0.000000000000000000e+00 2.212800000000000010e-03 7.268601222403348050e-01
0.000000000000000000e+00 1.121540000000000080e-03 1.332154269986432382e+00
0.000000000000000000e+00 4.364990000000000233e-04 2.316197569090812536e+00
0.000000000000000000e+00 3.787859999999999882e-04 3.994776095063268251e+00
3.125000000000000173e-03 4.288189999999999884e-03 1.428213099915886630e+00
0.000000000000000000e+00 1.114879999999999951e-03 4.328062283666561427e+00
0.000000000000000000e+00 2.158020000000000077e-03 3.121528893916049263e+00
2.187499999999999861e-02 3.621420000000000194e-02 3.413517559626161990e+00
6.250000000000000347e-03 5.304380000000000032e-03 7.140432189831596999e-01
0.000000000000000000e+00 1.156160000000000044e-03 1.632438505418492003e+00
2.187499999999999861e-02 5.145730000000000269e-03 3.915796252157791812e+00
0.000000000000000000e+00 1.921269999999999922e-02 4.381784171870606315e-01
0.000000000000000000e+00 1.461950000000000055e-03 4.281434881216739541e+00
2.500000000000000139e-02 5.186500000000000138e-03 6.989939562208236090e-01
9.374999999999999653e-03 1.845819999999999969e-03 3.668801756618227827e+00
3.125000000000000173e-03 9.686430000000000040e-02 2.092884038885663323e+00
0.000000000000000000e+00 1.083900000000000054e-03 8.291632527400027985e-01
3.125000000000000173e-03 4.320000000000000055e-03 2.588825279467708462e+00
6.250000000000000347e-03 3.594400000000000199e-03 8.329686610346415110e-01
0.000000000000000000e+00 5.423690000000000108e-04 4.282685157702360357e+00
0.000000000000000000e+00 1.068740000000000098e-03 3.528752120615818999e+00
3.437500000000000278e-02 9.229060000000000041e-02 3.297163989864677180e+00
3.125000000000000173e-03 1.072959999999999973e-03 2.298267374625890369e+00
0.000000000000000000e+00 9.360329999999999605e-04 2.534004468565107970e+00
3.125000000000000173e-03 1.201470000000000055e-03 3.269850254989997040e+00
9.374999999999999653e-03 1.988540000000000012e-03 4.515851720794997526e+00
2.187499999999999861e-02 2.755329999999999845e-03 3.375225851630320406e+00
6.250000000000000347e-03 1.699159999999999907e-02 9.890083303662866587e-02
1.874999999999999931e-02 3.522180000000000189e-03 2.981723659358587186e-01
9.374999999999999653e-03 2.056580000000000127e-03 1.107944299240952724e+00
2.812500000000000069e-02 1.886340000000000022e-03 2.986651061514265848e+00
0.000000000000000000e+00 4.386150000000000010e-04 4.855073110491843202e+00
0.000000000000000000e+00 2.547199999999999939e-05 3.861290559451355797e+00
6.250000000000000347e-03 9.759479999999999544e-02 4.645504649119859941e+00
0.000000000000000000e+00 2.333920000000000092e-02 1.125139892293564037e-01
0.000000000000000000e+00 2.779950000000000216e-03 8.962433053954471651e-01
0.000000000000000000e+00 5.778559999999999643e-04 5.376916810701071192e-01
0.000000000000000000e+00 7.337179999999999570e-04 4.319919161351410075e+00
0.000000000000000000e+00 8.535049999999999538e-04 3.559582095329387741e+00
0.000000000000000000e+00 1.268669999999999954e-03 4.890062187125099769e+00
0.000000000000000000e+00 2.381509999999999836e-05 2.068276803778540396e-01
1.562500000000000000e-02 1.969339999999999979e-03 2.021145177662370784e+00
0.000000000000000000e+00 4.561920000000000124e-04 6.509983428018523144e-01
3.125000000000000000e-02 3.142890000000000267e-02 3.987117117760077711e+00
0.000000000000000000e+00 2.579200000000000242e-04 4.590230155496303865e+00
0.000000000000000000e+00 4.903680000000000322e-04 7.195728214624891317e-01
0.000000000000000000e+00 2.683629999999999783e-04 3.712072543569344241e+00
2.187499999999999861e-02 2.055420000000000077e-03 3.052519021275053479e+00
3.125000000000000173e-03 2.024129999999999853e-03 6.223550894173379699e-01
0.000000000000000000e+00 3.708420000000000032e-03 4.219810490338533171e+00
3.125000000000000173e-03 3.316030000000000193e-03 2.931000367293091990e+00
0.000000000000000000e+00 1.860479999999999914e-04 3.038073513660384251e+00
3.125000000000000000e-02 1.054910000000000049e-02 1.976400152546355926e+00
0.000000000000000000e+00 7.323069999999999666e-04 3.498124084621501151e-01
0.000000000000000000e+00 9.564800000000000038e-04 3.351414297432127043e+00
9.374999999999999653e-03 2.232769999999999807e-03 9.307752615190073575e-01
0.000000000000000000e+00 8.932480000000000238e-04 3.707041402160331511e+00
6.250000000000000347e-03 9.877959999999999519e-02 8.999916465748381000e-01
2.500000000000000139e-02 5.430019999999999812e-03 2.400037008993712639e+00
0.000000000000000000e+00 1.079040000000000077e-03 4.315755097879988789e+00
0.000000000000000000e+00 1.366119999999999965e-03 3.876202966522581672e+00
0.000000000000000000e+00 5.918720000000000144e-04 1.566680047165684542e+00
1.562500000000000000e-02 3.556419999999999807e-03 4.062654346670724337e-01
3.125000000000000173e-03 4.743100000000000094e-03 3.198764791735007496e+00
0.000000000000000000e+00 3.703230000000000063e-03 3.251336550513594048e+00
0.000000000000000000e+00 1.679170000000000012e-03 2.646488091230264850e+00
1.874999999999999931e-02 3.353919999999999818e-03 3.614558205713077399e+00
3.125000000000000173e-03 9.925710000000000088e-02 4.705379806518457997e+00
0.000000000000000000e+00 1.182139999999999927e-03 4.546667811678352322e+00
3.125000000000000173e-03 9.393759999999999610e-02 3.433647303150287211e+00
0.000000000000000000e+00 1.546239999999999887e-04 2.838981995346445686e+00
0.000000000000000000e+00 1.140420000000000062e-03 4.333284478219374236e+00
0.000000000000000000e+00 5.271549999999999847e-03 1.448285287571311475e+00
0.000000000000000000e+00 4.177100000000000431e-03 1.508486132074368768e+00
0.000000000000000000e+00 3.589730000000000069e-04 4.663024636446009730e+00
3.125000000000000173e-03 4.438590000000000070e-03 4.029982113820953948e+00
3.125000000000000000e-02 3.139139999999999899e-03 1.100002393370458798e+00
0.000000000000000000e+00 4.154019999999999913e-04 3.632258887261387681e+00
1.250000000000000069e-02 4.079489999999999852e-03 1.514745025543674517e+00
0.000000000000000000e+00 8.920959999999999914e-04 1.244668764758494195e+00
0.000000000000000000e+00 3.497699999999999854e-03 9.297064015540346116e-01
0.000000000000000000e+00 0.000000000000000000e+00 3.875251039145289234e+00
0.000000000000000000e+00 3.898800000000000009e-04 4.510218371333751364e+00
9.374999999999999653e-03 9.376439999999999775e-02 2.066311272731176985e+00
0.000000000000000000e+00 1.959680000000000048e-04 3.729772039131646455e+00
2.812500000000000069e-02 2.248449999999999928e-03 5.513671578421036612e-01
1.874999999999999931e-02 1.056060000000000054e-01 4.671323856669717500e+00
0.000000000000000000e+00 2.163199999999999889e-04 3.975538714107193616e+00
0.000000000000000000e+00 9.503969999999999606e-04 4.441050489578141303e+00
0.000000000000000000e+00 2.264010000000000030e-05 2.432403319618179349e+00
0.000000000000000000e+00 2.396350000000000216e-03 4.499088945175009790e+00
4.374999999999999722e-02 8.050689999999999236e-03 4.305597415498890967e+00
3.125000000000000173e-03 2.558910000000000178e-03 2.576797872436821457e+00
0.000000000000000000e+00 4.207239999999999786e-04 4.166380333417770920e+00
0.000000000000000000e+00 2.639769999999999964e-02 3.205186814983183030e+00
3.125000000000000173e-03 4.038800000000000029e-02 4.723013857797591974e+00
0.000000000000000000e+00 1.117179999999999953e-03 1.174135614770821512e-01
0.000000000000000000e+00 2.346749999999999851e-05 4.193035160141430850e+00
0.000000000000000000e+00 2.520189999999999843e-03 2.341870472697074046e+00
0.000000000000000000e+00 1.660800000000000091e-04 1.816696029150161040e+00
1.562500000000000000e-02 1.733570000000000033e-03 1.992356818096348015e+00
9.374999999999999653e-03 9.719270000000000687e-02 4.412645413266623073e+00
0.000000000000000000e+00 1.018110000000000022e-03 4.584860471298635609e+00
0.000000000000000000e+00 4.969049999999999596e-04 4.404480154571978723e+00
2.187499999999999861e-02 4.266370000000000232e-03 3.009863284129621341e+00
0.000000000000000000e+00 9.378430000000000100e-03 4.883156541464596323e+00
1.250000000000000069e-02 1.592639999999999985e-03 3.960778257438914096e+00
0.000000000000000000e+00 2.412159999999999890e-04 2.146845129851717715e+00
0.000000000000000000e+00 2.222589999999999982e-03 2.180880118223300190e+00
0.000000000000000000e+00 3.097729999999999928e-03 1.611419617382172653e+00
6.250000000000000347e-03 3.809529999999999861e-02 4.766563791646697190e+00
0.000000000000000000e+00 8.208000000000000018e-04 2.702699835362905034e+00
0.000000000000000000e+00 3.223299999999999776e-02 2.876937882321659590e+00
0.000000000000000000e+00 8.287519999999999826e-04 5.530540192586003156e-01
3.125000000000000173e-03 5.059069999999999713e-03 4.797887792647252958e+00
0.000000000000000000e+00 7.635359999999999890e-04 4.228378973506247140e-01
0.000000000000000000e+00 7.421829999999999920e-04 2.524627349970072654e+00
0.000000000000000000e+00 4.632769999999999597e-03 4.995523394919467286e+00
1.250000000000000069e-02 7.261439999999999648e-04 3.939065511482425785e-01
0.000000000000000000e+00 2.702979999999999793e-03 2.630688042114533332e+00
0.000000000000000000e+00 2.233339999999999978e-02 2.036921480453061761e+00
0.000000000000000000e+00 7.642420000000000463e-04 4.195072086484880280e+00
0.000000000000000000e+00 1.709699999999999978e-03 4.620760838886352140e+00
3.125000000000000173e-03 2.504699999999999895e-03 4.310739586820849789e-01
0.000000000000000000e+00 1.036859999999999908e-03 2.087662987398092307e-01
1.250000000000000069e-02 2.528639999999999968e-03 4.783553467585111463e+00
5.625000000000000139e-02 6.150459999999999955e-03 9.877954687538770262e-02
0.000000000000000000e+00 6.714090000000000336e-02 4.033801780368579948e+00
3.125000000000000173e-03 1.085629999999999972e-03 1.227983688573641707e+00
0.000000000000000000e+00 3.558359999999999995e-03 4.808684126092431121e+00
0.000000000000000000e+00 3.743100000000000073e-03 3.817782647841326593e+00
1.562500000000000000e-02 2.036860000000000146e-03 2.079642554070931126e+00
9.374999999999999653e-03 2.691330000000000024e-03 3.652584858265238044e+00
1.250000000000000069e-02 5.808630000000000390e-03 7.303065075257469951e-01
0.000000000000000000e+00 1.067709999999999926e-03 1.843045147424056562e+00
0.000000000000000000e+00 8.625600000000000628e-03 3.024136868382528043e+00
0.000000000000000000e+00 1.015620000000000064e-03 1.107439131703403135e+00
0.000000000000000000e+00 2.032130000000000047e-03 2.052376749168450143e+00
0.000000000000000000e+00 4.152320000000000251e-04 3.841048550914412107e+00
0.000000000000000000e+00 1.128639999999999982e-03 4.987196157730455326e+00
9.374999999999999653e-03 2.683580000000000080e-03 2.259096593142582154e+00
0.000000000000000000e+00 4.511189999999999883e-04 4.216039653510686769e+00
3.125000000000000173e-03 5.073410000000000419e-03 5.981835288648901239e-01
1.250000000000000069e-02 4.089019999999999634e-03 5.569969527855678226e-01
6.250000000000000347e-03 1.375420000000000028e-03 3.366060228268430432e-01
0.000000000000000000e+00 3.502460000000000209e-03 3.354726365212866046e+00
0.000000000000000000e+00 2.921089999999999885e-03 1.549289338404813421e-01
1.250000000000000069e-02 2.373060000000000187e-03 4.437355234093530498e+00
0.000000000000000000e+00 3.516629999999999973e-04 3.628174478915900281e+00
0.000000000000000000e+00 5.201820000000000012e-04 4.224999810670852618e+00
0.000000000000000000e+00 1.577599999999999966e-03 1.847763030630255709e+00
1.562500000000000000e-02 1.809470000000000089e-03 1.827718324500606784e+00
3.125000000000000173e-03 4.059710000000000228e-03 1.766651327658328441e+00
1.250000000000000069e-02 1.878519999999999843e-02 1.651778181833583048e+00
0.000000000000000000e+00 2.547329999999999994e-03 3.542331520944166368e+00
1.250000000000000069e-02 1.695679999999999974e-03 4.662472177073105684e+00
1.562500000000000000e-02 4.357699999999999942e-03 6.814712775600945127e-01
0.000000000000000000e+00 1.164480000000000072e-03 2.774806736660400563e+00
0.000000000000000000e+00 4.903680000000000322e-04 4.190208617751187248e+00
0.000000000000000000e+00 1.169489999999999939e-02 2.284618092868696770e+00
0.000000000000000000e+00 1.098430000000000066e-03 3.575757052613837139e-01
6.250000000000000347e-03 1.163460000000000058e-03 2.478324959370622693e+00
3.125000000000000000e-02 9.826269999999999449e-02 3.242360627145135066e+00
2.187499999999999861e-02 2.238270000000000103e-03 2.455266486796045644e+00
0.000000000000000000e+00 1.506120000000000028e-02 4.544504457414938470e-01
6.250000000000000347e-03 1.096130000000000021e-02 2.024718177040206513e+00
0.000000000000000000e+00 2.680690000000000156e-02 4.234494464590516039e+00
2.500000000000000139e-02 2.072580000000000082e-03 5.186886899817028107e-01
0.000000000000000000e+00 2.187650000000000185e-03 1.485577168209495369e-01
0.000000000000000000e+00 1.678460000000000108e-03 4.396504593357552615e+00
0.000000000000000000e+00 5.064590000000000107e-04 3.540425822731510408e+00
0.000000000000000000e+00 5.812480000000000294e-04 9.157536398976956482e-01
0.000000000000000000e+00 6.366789999999999949e-02 2.633835543012871927e+00
9.374999999999999653e-03 2.271420000000000123e-03 3.580486972352565189e+00
0.000000000000000000e+00 7.280750000000000112e-04 1.929263691618449128e-01
3.125000000000000173e-03 1.638399999999999926e-03 1.579507076918431618e+00
0.000000000000000000e+00 2.547199999999999939e-05 5.745394500169964669e-01
2.500000000000000139e-02 9.154560000000000388e-04 2.999146454264294270e+00
0.000000000000000000e+00 9.372799999999999708e-04 3.621976932664835225e+00
0.000000000000000000e+00 3.781120000000000011e-04 1.228224953212024850e+00
3.437500000000000278e-02 9.369929999999999926e-02 9.780994468591619473e-01
6.250000000000000347e-03 2.211330000000000066e-03 3.720282117163503877e+00
1.562500000000000000e-02 2.122020000000000017e-01 9.637985714103508572e-01
6.250000000000000347e-03 9.604780000000000262e-02 3.138156340257618027e+00
3.125000000000000173e-03 1.667010000000000020e-03 1.773510172353487846e+00
2.500000000000000139e-02 2.876350000000000174e-03 4.681165836789960899e+00
3.125000000000000000e-02 9.257410000000000638e-03 2.470629865246936951e+00
0.000000000000000000e+00 2.250100000000000022e-05 1.949279428156263094e+00
0.000000000000000000e+00 7.837679999999999647e-03 4.701275843414711275e+00
3.125000000000000173e-03 1.348419999999999914e-03 1.305327961251816493e+00
0.000000000000000000e+00 3.951359999999999790e-04 4.557511175396021130e+00
0.000000000000000000e+00 4.450110000000000177e-03 2.840936472906068655e+00
1.874999999999999931e-02 5.500670000000000039e-03 2.248454182322387584e+00
2.187499999999999861e-02 3.749890000000000081e-03 1.913753834252991393e+00
0.000000000000000000e+00 1.767679999999999989e-04 3.873870390989230916e+00
0.000000000000000000e+00 9.754240000000000176e-04 2.595197621898707396e+00
0.000000000000000000e+00 1.718659999999999893e-03 3.695392495003248179e+00
0.000000000000000000e+00 5.543679999999999615e-04 3.271083886126633367e+00
0.000000000000000000e+00 1.548670000000000038e-03 1.253169736470805429e+00
0.000000000000000000e+00 3.780480000000000233e-04 3.051664441812920625e+00
6.250000000000000347e-03 2.140480000000000160e-03 2.580178923001910096e+00
0.000000000000000000e+00 3.035330000000000146e-03 3.533612560030150007e+00
2.187499999999999861e-02 4.139559999999999768e-02 4.728997353579061924e-01
1.250000000000000069e-02 3.276929999999999947e-03 2.997728413158978755e-01
0.000000000000000000e+00 2.553090000000000047e-03 3.831012816327406423e+00
1.250000000000000069e-02 2.814080000000000054e-03 9.139376700043277957e-01
3.125000000000000173e-03 1.236480000000000088e-03 4.112077078102301719e+00
0.000000000000000000e+00 4.760320000000000176e-03 1.098899878102496119e+00
9.374999999999999653e-03 1.643520000000000094e-03 2.793859114900255847e+00
1.874999999999999931e-02 9.242050000000000265e-02 4.896755071504654833e-01
0.000000000000000000e+00 7.370529999999999920e-04 2.546971492118923930e+00
5.625000000000000139e-02 9.404270000000000684e-02 1.536298438478522765e-01
0.000000000000000000e+00 2.448810000000000049e-03 7.454773564981997946e-01
1.874999999999999931e-02 9.086459999999999329e-03 2.268272635929506009e+00
1.562500000000000000e-02 2.550660000000000167e-03 3.763757715623660793e+00
0.000000000000000000e+00 7.457100000000000143e-04 9.839666698660959332e-01
2.187499999999999861e-02 2.238270000000000103e-03 3.745438552230542228e+00
2.812500000000000069e-02 2.600320000000000149e-03 4.782926499962794509e+00
2.500000000000000139e-02 3.889860000000000192e-03 8.253653290576534740e-02
3.125000000000000173e-03 4.299329999999999645e-03 3.277699408535488690e+00
3.125000000000000173e-03 1.452589999999999958e-02 3.873227360620295379e+00
2.500000000000000139e-02 5.905089999999999992e-03 1.743782466784919549e+00
2.500000000000000139e-02 2.292540000000000029e-03 1.177605186924631786e+00
2.812500000000000069e-02 6.119359999999999904e-03 2.533127894375747147e+00
1.874999999999999931e-02 2.591490000000000113e-03 4.630871853158197382e+00
2.187499999999999861e-02 4.712179999999999841e-02 4.555351955173044587e+00
0.000000000000000000e+00 1.089219999999999902e-03 4.046534156555653405e-01
2.500000000000000139e-02 2.376510000000000081e-03 4.053736251823678138e+00
0.000000000000000000e+00 9.848319999999999384e-04 2.511895155273103697e+00
0.000000000000000000e+00 9.228160000000000225e-04 1.198840877240274327e+00
0.000000000000000000e+00 6.676360000000000627e-02 4.747496160860475101e+00
3.125000000000000173e-03 9.439670000000000005e-02 1.821259471056367207e+00
0.000000000000000000e+00 1.783620000000000084e-03 3.232993339338265493e+00
3.125000000000000173e-03 1.056710000000000010e-01 2.420022330799163512e+00
0.000000000000000000e+00 1.225919999999999918e-03 1.053563602095935359e+00
0.000000000000000000e+00 3.212930000000000126e-03 2.883988598047410035e-01
3.125000000000000173e-03 9.830399999999999121e-04 3.714511827937576616e+00
0.000000000000000000e+00 1.019460000000000028e-03 3.478948491065802617e+00
0.000000000000000000e+00 1.729279999999999923e-03 4.170081117900000578e+00
0.000000000000000000e+00 1.639680000000000130e-04 4.902360063469329843e-01
0.000000000000000000e+00 1.000379999999999932e-03 2.505241042451402222e+00
6.250000000000000347e-03 2.296579999999999889e-03 6.213667082148716103e-01
0.000000000000000000e+00 3.644479999999999855e-03 4.945848289466185044e+00
0.000000000000000000e+00 3.781120000000000011e-04 3.885176796311921699e+00
2.812500000000000069e-02 1.552769999999999975e-03 4.243961781961251845e+00
1.250000000000000069e-02 2.052539999999999833e-03 3.302812461560309831e+00
0.000000000000000000e+00 7.855179999999999801e-03 4.596199932856087855e+00
6.250000000000000000e-02 3.934409999999999991e-02 4.045845939392521906e+00
2.187499999999999861e-02 3.772349999999999835e-03 2.490092690763501260e-01
0.000000000000000000e+00 1.768320000000000037e-04 4.467356060594680933e+00
6.250000000000000347e-03 3.579460000000000020e-03 5.186973942020456363e-01
0.000000000000000000e+00 8.719080000000000146e-04 2.553743681895552786e+00
2.187499999999999861e-02 2.894460000000000175e-03 9.501073965220857565e-01
0.000000000000000000e+00 1.120640000000000004e-03 3.924251729714415049e+00
0.000000000000000000e+00 1.061890000000000013e-03 2.182233027542629600e+00
0.000000000000000000e+00 3.823619999999999797e-03 2.045335205170269344e+00
0.000000000000000000e+00 1.454980000000000032e-03 4.049213427608698623e+00
8.749999999999999445e-02 2.921500000000000138e-02 2.908355044478329710e+00
1.562500000000000000e-02 2.749119999999999862e-03 8.829689501679044428e-01
2.500000000000000139e-02 2.412420000000000189e-03 7.768415687180552087e-01
0.000000000000000000e+00 4.089090000000000086e-03 1.516086569064555301e+00
1.874999999999999931e-02 2.643389999999999802e-03 3.452097302722946459e+00
0.000000000000000000e+00 5.101139999999999885e-04 6.944821648799709424e-01
3.125000000000000173e-03 5.121660000000000101e-03 3.609407829350200991e+00
0.000000000000000000e+00 1.688700000000000010e-03 3.920954718369962233e+00
0.000000000000000000e+00 3.827839999999999997e-04 4.651239011213230690e+00
0.000000000000000000e+00 6.926779999999999569e-04 2.058763061577309372e+00
1.874999999999999931e-02 2.517249999999999956e-03 1.153273676735747655e+00
0.000000000000000000e+00 3.313729999999999974e-03 3.454852148251220889e+00
3.437500000000000278e-02 1.976699999999999985e-02 1.786677059258912070e-01
9.374999999999999653e-03 6.889020000000000039e-03 3.470191961167285122e+00
2.500000000000000139e-02 2.329410000000000074e-03 3.955263156412064385e-01
3.125000000000000173e-03 1.114879999999999951e-03 1.272200140979395488e+00
4.062500000000000139e-02 9.162610000000000199e-02 3.855447174044273062e+00
0.000000000000000000e+00 1.735489999999999906e-03 7.868385778073305747e-02
0.000000000000000000e+00 3.657050000000000231e-04 3.852525591035265151e+00
0.000000000000000000e+00 2.652159999999999761e-04 4.783519957772566222e+00
1.562500000000000000e-02 2.352899999999999783e-03 4.101567153276008071e+00
2.187499999999999861e-02 6.604350000000000151e-03 4.121838780741527763e+00
0.000000000000000000e+00 1.013119999999999949e-04 4.810750095501444612e+00
0.000000000000000000e+00 1.079679999999999963e-03 2.304565435866950285e+00
0.000000000000000000e+00 7.219830000000000431e-04 4.609527766752023581e+00
0.000000000000000000e+00 1.100220000000000061e-03 4.400432575469898744e+00
0.000000000000000000e+00 2.558459999999999814e-03 1.129403031923077450e+00
0.000000000000000000e+00 9.487360000000000454e-04 1.566768995072335802e+00
0.000000000000000000e+00 1.145339999999999900e-03 1.561663058866727960e+00
0.000000000000000000e+00 1.174719999999999931e-02 4.737677381335759996e+00
2.500000000000000139e-02 2.956160000000000211e-03 1.906199066634826522e+00
3.125000000000000173e-03 1.318330000000000023e-02 1.098078039027949870e-01
2.500000000000000139e-02 2.551229999999999817e-03 1.162893338362238183e+00
0.000000000000000000e+00 1.485250000000000025e-03 1.018697857521623895e+00
9.374999999999999653e-03 1.745859999999999903e-03 2.974328296979867226e+00
0.000000000000000000e+00 4.066049999999999873e-03 3.289501806580121368e+00
9.374999999999999653e-03 1.095099999999999893e-03 2.806251328378834842e+00
2.187499999999999861e-02 2.651140000000000180e-03 2.745747323718581434e+00
0.000000000000000000e+00 2.488259999999999951e-03 1.636824202652589655e+00
0.000000000000000000e+00 9.358409999999999732e-04 2.471923812578679769e+00
0.000000000000000000e+00 2.203650000000000140e-03 2.212743303371520476e+00
6.250000000000000347e-03 1.468219999999999898e-03 4.287206076490880591e+00
2.500000000000000139e-02 2.443579999999999884e-03 4.227379876263470670e+00
0.000000000000000000e+00 7.618559999999999915e-04 1.914744327856483963e+00
3.125000000000000173e-03 2.100289999999999883e-03 3.670050463487692483e+00
0.000000000000000000e+00 9.449600000000000057e-04 8.086139426651123285e-01
1.874999999999999931e-02 2.430399999999999922e-02 3.974305692230194254e+00
6.250000000000000347e-03 1.779390000000000051e-03 4.772728670866429823e+00
0.000000000000000000e+00 3.222279999999999784e-04 1.640655875278177467e+00
3.125000000000000173e-03 9.621300000000000685e-02 9.366577884473109572e-01
1.874999999999999931e-02 4.126849999999999616e-03 8.266385004568865824e-01
1.562500000000000000e-02 9.149129999999999763e-02 1.645491462675535033e+00
2.187499999999999861e-02 3.292540000000000050e-03 1.392479950731358995e+00
2.187499999999999861e-02 2.144960000000000009e-03 4.610006571906613893e+00
0.000000000000000000e+00 4.109769999999999786e-04 2.849214151440744303e+00
9.374999999999999653e-03 2.726979999999999942e-03 4.142742798018587358e+00
3.125000000000000173e-03 7.532350000000000156e-03 2.666532641603346576e+00
1.562500000000000000e-02 2.414659999999999897e-03 1.681436873622945249e+00
1.250000000000000069e-02 1.270590000000000044e-03 3.850321475363168489e+00
0.000000000000000000e+00 3.598210000000000124e-03 9.010882782465923224e-01
3.125000000000000173e-03 2.021500000000000033e-02 9.171596155635508563e-01
0.000000000000000000e+00 2.868610000000000170e-03 9.439005950817180857e-01
0.000000000000000000e+00 2.019850000000000118e-04 4.887863106960432802e+00
3.125000000000000173e-03 1.656310000000000074e-02 3.296699098962636132e+00
6.250000000000000347e-03 1.587780000000000007e-03 9.786853454151051013e-01
3.125000000000000173e-03 1.676659999999999956e-02 2.244530114216250816e+00
1.562500000000000000e-02 2.011900000000000060e-03 4.998457132420658366e-01
1.250000000000000069e-02 1.536150000000000015e-02 2.323296298356186895e+00
0.000000000000000000e+00 1.476419999999999989e-03 1.990879642383132531e+00
9.374999999999999653e-03 2.941309999999999931e-03 1.750820931271621639e+00
0.000000000000000000e+00 3.802110000000000038e-03 3.623583491307562188e+00
0.000000000000000000e+00 4.178380000000000202e-04 4.360786165816184834e+00
3.125000000000000173e-03 2.597120000000000071e-03 4.563029865212551606e+00
0.000000000000000000e+00 2.053310000000000031e-03 3.917521630185601289e+00
3.749999999999999861e-02 3.222819999999999852e-02 3.004057194493892080e-01
0.000000000000000000e+00 1.495680000000000100e-03 2.303027375684813638e+00
0.000000000000000000e+00 1.620670000000000053e-03 1.696851363566800774e+00
0.000000000000000000e+00 3.553280000000000240e-04 1.691038965070105204e+00
2.500000000000000139e-02 1.426879999999999945e-03 2.842753675151224346e+00
0.000000000000000000e+00 3.748479999999999998e-04 4.262545572989926868e+00
9.374999999999999653e-03 2.087170000000000171e-03 3.822441865177899079e+00
0.000000000000000000e+00 2.939519999999999937e-04 1.252581955038514216e+00
3.437500000000000278e-02 8.569729999999999362e-03 3.880190281733125524e+00
0.000000000000000000e+00 4.061379999999999851e-03 3.355087202810416613e+00
2.812500000000000069e-02 9.042430000000000606e-03 4.886068612822874080e+00
1.562500000000000000e-02 1.805760000000000004e-03 2.588887943595342023e+00
6.250000000000000347e-03 9.651210000000000344e-02 1.025473833057708450e+00
3.125000000000000173e-03 2.744700000000000091e-03 3.006537611691367573e+00
3.125000000000000173e-03 4.172799999999999947e-03 6.170039943461103071e-01
0.000000000000000000e+00 1.077819999999999950e-03 8.105723246524138004e-01
0.000000000000000000e+00 5.996969999999999471e-04 1.064503968352102925e+00
1.562500000000000000e-02 5.594240000000000324e-03 1.153469101235048422e+00
3.125000000000000173e-03 4.035140000000000428e-03 1.831098169248544405e+00
0.000000000000000000e+00 9.690880000000000024e-04 1.754252797352973126e-01
9.374999999999999653e-03 1.490559999999999932e-03 2.099708982151644587e+00
0.000000000000000000e+00 5.338880000000000492e-04 3.869390376000594323e+00
6.250000000000000347e-03 2.053249999999999954e-03 3.993510132601932217e+00
0.000000000000000000e+00 9.769600000000000246e-04 4.078120073709529336e+00
0.000000000000000000e+00 4.477140000000000113e-03 1.549005053770759588e+00
0.000000000000000000e+00 1.651069999999999925e-03 2.326646984366714133e+00
2.500000000000000139e-02 9.244220000000000215e-02 2.857984278437953218e+00
3.125000000000000173e-03 2.517119999999999861e-03 2.492652730253957394e+00
3.125000000000000173e-03 1.602560000000000052e-03 1.541059445788869331e+00
0.000000000000000000e+00 4.138880000000000055e-04 4.361281935353899186e+00
0.000000000000000000e+00 2.041690000000000098e-05 3.996692881280189624e+00
6.250000000000000347e-03 1.000650000000000012e-01 3.222559470374132928e+00
2.187499999999999861e-02 9.292350000000000609e-02 3.619916325080530406e+00
0.000000000000000000e+00 1.022020000000000003e-03 9.144939994573103581e-01
2.812500000000000069e-02 5.860670000000000116e-03 4.502390873226340240e+00
1.562500000000000000e-02 2.516579999999999859e-02 1.878566118760515158e+00
5.625000000000000139e-02 9.275100000000000011e-02 1.041204455410104091e+00
0.000000000000000000e+00 1.006509999999999957e-03 4.869425874915047636e+00
0.000000000000000000e+00 1.055549999999999934e-03 2.876400515322466767e+00
2.500000000000000139e-02 3.008059999999999901e-03 2.706483044064567078e-02
0.000000000000000000e+00 4.309839999999999787e-04 2.320621462023897408e+00
6.250000000000000347e-03 2.477759999999999858e-03 7.933411415194013827e-01
0.000000000000000000e+00 1.151869999999999934e-03 1.903609946241580086e+00
3.125000000000000173e-03 3.228219999999999961e-03 3.490029499945128677e+00
3.125000000000000173e-03 1.713279999999999968e-03 2.092780773765851032e-01
0.000000000000000000e+00 1.367490000000000068e-03 4.957988262937305990e+00
2.500000000000000139e-02 3.413439999999999790e-03 4.136065226926405991e+00
3.125000000000000173e-03 1.160390000000000033e-02 6.132008711216607733e-02
2.812500000000000069e-02 1.977599999999999844e-02 4.977052573801159951e+00
3.125000000000000173e-03 7.830880000000000132e-03 1.429929341999963022e+00
0.000000000000000000e+00 1.813310000000000052e-03 2.535426376617851751e+00
9.374999999999999653e-03 1.169279999999999972e-03 4.493341068073035238e+00
0.000000000000000000e+00 1.170749999999999916e-03 2.425359197722834370e+00
0.000000000000000000e+00 6.114319999999999694e-04 4.191146611119147103e+00
0.000000000000000000e+00 1.418250000000000066e-02 2.060671590408066578e+00
0.000000000000000000e+00 0.000000000000000000e+00 5.891930441558290710e-01
1.874999999999999931e-02 1.059559999999999946e-01 5.725606395877586019e-01
1.562500000000000000e-02 2.331329999999999947e-03 6.985966284244016222e-01
0.000000000000000000e+00 1.429210000000000029e-02 3.798039923647583027e+00
6.250000000000000347e-03 2.065680000000000016e-01 1.416007322947495650e+00
0.000000000000000000e+00 2.318130000000000115e-05 3.110529740858287706e+00
0.000000000000000000e+00 4.175820000000000009e-04 1.912501627377192204e+00
4.062500000000000139e-02 1.071529999999999982e-01 1.550309500975939336e+00
0.000000000000000000e+00 4.109440000000000011e-04 1.445185421628130573e+00
2.812500000000000069e-02 1.621309999999999939e-03 4.847256326353039491e+00
3.125000000000000173e-03 1.238460000000000038e-03 7.499925949708458051e-01
0.000000000000000000e+00 5.977089999999999790e-04 1.382902965250297100e+00
4.374999999999999722e-02 8.022659999999999167e-03 4.825321007630742010e+00
1.874999999999999931e-02 6.444029999999999897e-03 3.176782889366038809e+00
3.125000000000000173e-03 3.272830000000000183e-02 2.712009417938885836e+00
9.374999999999999653e-03 1.483600000000000023e-02 2.433009750389736325e+00
2.812500000000000069e-02 4.715389999999999859e-02 3.959612248122875933e+00
7.499999999999999722e-02 4.955240000000000339e-02 1.909595153555733837e+00
2.187499999999999861e-02 2.032190000000000125e-03 1.240788173376661252e+00
1.874999999999999931e-02 3.322110000000000080e-03 2.424789672582003508e+00
0.000000000000000000e+00 5.476029999999999787e-03 7.728854076995628208e-01
0.000000000000000000e+00 8.306560000000000376e-04 3.074960933399152552e+00
3.125000000000000173e-03 9.985330000000000594e-02 7.012988516779755654e-01
1.874999999999999931e-02 4.221250000000000176e-03 3.142252921223475770e+00
0.000000000000000000e+00 3.838520000000000105e-04 1.085932680494087199e+00
1.250000000000000069e-02 2.821699999999999903e-03 4.607655250058600771e+00
5.625000000000000139e-02 3.459190000000000181e-02 1.123481514625793043e+00
0.000000000000000000e+00 2.309800000000000145e-05 4.712149821425296814e+00
0.000000000000000000e+00 1.385149999999999923e-03 3.639832426459819192e+00
1.874999999999999931e-02 1.488900000000000032e-03 4.080568345698622146e+00
0.000000000000000000e+00 1.072899999999999895e-03 1.856926292622635977e+00
0.000000000000000000e+00 9.200639999999999513e-04 1.500048381076524162e+00
0.000000000000000000e+00 1.188800000000000056e-03 1.442150782146836008e+00
3.125000000000000173e-03 4.538300000000000320e-03 7.285237782374665017e-01
6.250000000000000347e-03 2.184769999999999941e-03 3.236328930879958765e+00
1.874999999999999931e-02 2.379329999999999813e-03 3.152628963308465870e+00
2.812500000000000069e-02 2.124480000000000205e-03 2.115201256176799660e+00
2.500000000000000139e-02 1.950530000000000016e-03 4.524416824316929153e-01
1.562500000000000000e-02 3.644479999999999855e-03 1.061229459017720700e-01
0.000000000000000000e+00 3.774270000000000142e-03 3.009150629382336017e+00
3.125000000000000173e-03 4.240260000000000036e-03 3.807761870323977949e-01
9.374999999999999653e-03 1.949570000000000079e-03 1.052144585526881837e-01
0.000000000000000000e+00 3.946239999999999947e-04 1.489374808473161060e+00
0.000000000000000000e+00 8.876160000000000343e-04 2.015260033836563824e+00
0.000000000000000000e+00 3.712700000000000201e-03 4.025905597409120240e+00
0.000000000000000000e+00 2.385920000000000087e-04 1.035791785930566533e+00
3.125000000000000173e-03 1.064559999999999951e-01 2.263478581109884535e-01
6.250000000000000347e-03 1.244160000000000014e-03 2.039037464692560864e+00
0.000000000000000000e+00 1.036159999999999946e-03 1.008245116664494567e+00
0.000000000000000000e+00 2.462410000000000163e-04 4.173101430653952670e-01
0.000000000000000000e+00 9.484159999999999943e-04 5.821093166258478613e-01
0.000000000000000000e+00 2.724540000000000121e-03 2.286988225500145688e+00
0.000000000000000000e+00 2.143100000000000213e-03 3.307758288802481461e-01
4.062500000000000139e-02 2.118700000000000028e-01 6.501298134774952109e-01
2.500000000000000139e-02 1.986180000000000150e-03 1.908482189425835696e+00
0.000000000000000000e+00 7.191619999999999697e-04 4.065180755269880208e+00
3.125000000000000173e-03 1.990140000000000051e-03 2.372129746684452645e+00
0.000000000000000000e+00 3.646149999999999912e-04 2.296887801159232190e+00
3.125000000000000173e-03 1.737730000000000047e-03 2.435976249546378369e+00
3.125000000000000173e-03 4.194179999999999610e-03 4.687822569165634334e+00
0.000000000000000000e+00 4.287359999999999826e-04 2.658136547915063375e+00
0.000000000000000000e+00 3.508480000000000127e-04 1.540594601699593724e+00
2.187499999999999861e-02 2.537339999999999908e-03 4.943422330699548617e+00
2.812500000000000069e-02 2.073409999999999923e-03 1.101333842048096034e+00
1.874999999999999931e-02 2.295939999999999787e-03 2.298237699820404600e-02
0.000000000000000000e+00 2.255210000000000046e-05 1.244873797917957603e+00
2.187499999999999861e-02 2.820670000000000122e-02 1.004080610054122191e+00
0.000000000000000000e+00 6.152790000000000429e-04 4.178170816432069667e-02
9.374999999999999653e-03 3.519620000000000214e-03 2.209356895721841241e+00
2.187499999999999861e-02 5.537089999999999720e-03 1.647032111019316458e+00
1.562500000000000000e-02 9.238939999999999653e-02 1.358985049034914239e+00
9.374999999999999653e-03 2.042430000000000027e-03 1.855829035859095644e+00
0.000000000000000000e+00 9.467520000000000102e-03 1.203424354097758497e+00
1.874999999999999931e-02 1.926339999999999910e-03 4.389074499977419386e+00
0.000000000000000000e+00 2.219520000000000000e-03 2.929986558007371400e+00
0.000000000000000000e+00 9.735679999999999595e-04 1.633670944017577398e+00
0.000000000000000000e+00 5.987839999999999916e-04 1.607078869430749180e+00
0.000000000000000000e+00 1.060610000000000025e-03 2.403778175007181162e+00
0.000000000000000000e+00 1.049220000000000014e-03 2.121095725625688377e+00
3.125000000000000173e-03 9.802980000000000027e-02 2.741597773081295042e+00
9.374999999999999653e-03 1.074080000000000035e-01 1.503749678021230718e+00
2.500000000000000139e-02 2.397059999999999903e-03 3.674160411430087869e+00
3.125000000000000173e-03 3.916349999999999866e-03 1.907463681817711532e-02
3.749999999999999861e-02 6.463680000000000293e-03 3.430713243108561183e+00
0.000000000000000000e+00 8.384350000000000049e-04 2.789502273893064377e+00
3.125000000000000000e-02 6.304510000000000149e-03 4.485207059961989984e+00
1.250000000000000069e-02 2.203520000000000045e-03 4.118212392483923345e+00
0.000000000000000000e+00 2.636519999999999836e-02 1.225712458729992793e+00
0.000000000000000000e+00 1.788110000000000063e-05 4.258098125185100002e+00
3.125000000000000173e-03 2.596929999999999898e-03 3.942352652925962264e-01
0.000000000000000000e+00 1.263650000000000060e-03 8.316863864095969117e-01
0.000000000000000000e+00 5.130240000000000538e-04 4.350342434157626670e+00
0.000000000000000000e+00 7.251259999999999824e-04 3.905822695178262638e-01
1.250000000000000069e-02 2.466369999999999847e-03 7.167409617543174516e-01
3.125000000000000000e-02 3.714429999999999815e-02 1.984085512161798404e-01
1.874999999999999931e-02 3.328960000000000165e-03 1.122882875441193029e+00
6.250000000000000347e-03 9.774099999999999455e-02 2.497442246951769196e+00
0.000000000000000000e+00 3.806910000000000155e-03 3.679592640194000897e+00
3.125000000000000000e-02 1.971579999999999860e-02 4.809466715362727740e+00
0.000000000000000000e+00 4.241870000000000232e-04 2.991541607812736814e+00
6.250000000000000347e-03 4.159170000000000228e-03 4.962963557137888948e+00
6.250000000000000347e-03 8.673800000000000607e-03 7.844900169445429006e-01
0.000000000000000000e+00 8.814619999999999574e-04 2.384919666850219944e+00
0.000000000000000000e+00 4.165880000000000277e-03 2.072916098750765546e+00
0.000000000000000000e+00 7.510330000000000174e-04 3.881456397538994185e+00
2.187499999999999861e-02 3.131329999999999877e-03 3.298507988338933217e+00
6.250000000000000347e-03 4.254080000000000361e-03 4.546867067882663704e+00
0.000000000000000000e+00 1.203779999999999998e-03 3.780216777048112764e+00
1.250000000000000069e-02 1.815420000000000098e-03 9.823713981024989605e-01
0.000000000000000000e+00 3.957760000000000271e-04 2.053135048232092696e+00
3.125000000000000000e-02 1.062379999999999991e-01 2.121587307287668978e+00
0.000000000000000000e+00 5.049839999999999884e-04 2.354513725049840911e+00
2.812500000000000069e-02 2.278590000000000042e-03 4.507547639582011101e+00
3.125000000000000173e-03 1.005500000000000100e-03 3.849822316996621030e+00
2.187499999999999861e-02 1.663940000000000037e-03 4.305988092330955475e+00
1.250000000000000069e-02 8.106620000000000145e-03 1.597765555416224448e+00
3.125000000000000173e-03 7.853769999999999502e-03 3.341971264709319822e+00
3.125000000000000173e-03 1.055510000000000059e-01 4.510471708414694803e+00
0.000000000000000000e+00 2.293560000000000111e-05 5.684585905024142072e-01
6.250000000000000347e-03 5.732349999999999772e-03 1.899509050493736861e+00
0.000000000000000000e+00 8.754360000000000527e-04 4.873416503635171537e+00
1.874999999999999931e-02 2.705149999999999916e-03 1.049720420203125171e+00
3.125000000000000173e-03 9.485979999999999412e-02 4.451574083614207922e+00
2.812500000000000069e-02 2.894530000000000193e-03 4.982090360417283037e+00
0.000000000000000000e+00 1.666559999999999982e-04 4.676369880951292579e+00
1.562500000000000000e-02 1.744579999999999916e-03 2.407703044853521490e+00
0.000000000000000000e+00 2.595180000000000056e-02 4.216139263792244130e+00
0.000000000000000000e+00 1.672319999999999872e-04 1.011855206210053870e+00
2.500000000000000139e-02 1.935040000000000067e-03 1.161303266700233650e+00
1.874999999999999931e-02 4.613500000000000413e-03 5.767699168639317531e-01
1.250000000000000069e-02 2.153539999999999795e-03 3.794755265307175884e-01
0.000000000000000000e+00 9.913739999999999445e-04 2.824182538509032447e+00
2.812500000000000069e-02 4.177410000000000324e-03 4.495958115533513322e+00
1.250000000000000069e-02 2.303299999999999879e-03 1.520148192705195189e+00
0.000000000000000000e+00 9.359999999999999831e-04 9.291098262354535731e-01
9.374999999999999653e-03 9.467770000000000352e-02 1.288529079840334823e+00
0.000000000000000000e+00 5.584000000000000205e-04 4.481305918641131036e+00
9.374999999999999653e-03 1.778429999999999898e-03 2.259462870345868568e-01
0.000000000000000000e+00 1.912050000000000099e-05 5.152905175316480069e-01
0.000000000000000000e+00 2.301590000000000100e-05 2.413654714591660699e+00
3.125000000000000173e-03 2.785380000000000147e-02 2.112924050714703128e+00
3.125000000000000173e-03 6.655209999999999945e-03 3.183341260237562143e+00
0.000000000000000000e+00 7.286519999999999889e-04 3.293508812766995142e+00
0.000000000000000000e+00 9.068799999999999908e-04 1.322521333978854852e+00
0.000000000000000000e+00 3.947520000000000044e-04 2.473877925089444041e+00
2.187499999999999861e-02 1.359739999999999907e-03 1.095580413106339579e+00
0.000000000000000000e+00 9.828479999999999248e-04 2.875199449538503149e+00
6.250000000000000347e-03 5.055099999999999871e-03 4.561314391394487799e+00
1.562500000000000000e-02 2.549060000000000128e-03 9.636919870682691958e-01
0.000000000000000000e+00 5.608959999999999640e-04 3.049991019455881691e+00
3.125000000000000173e-03 1.638399999999999926e-03 7.732343233115113179e-02
4.062500000000000139e-02 9.364129999999999676e-02 2.148073723436677795e+00
0.000000000000000000e+00 5.115009999999999696e-03 3.109097873250959321e+00
1.562500000000000000e-02 2.808259999999999923e-03 4.615101182934373547e+00
0.000000000000000000e+00 7.596890000000000240e-04 1.782399949044028986e+00
2.500000000000000139e-02 6.063940000000000302e-03 4.475756307846791238e+00
0.000000000000000000e+00 7.277549999999999601e-04 1.583619650139189705e+00
0.000000000000000000e+00 8.611200000000000495e-04 3.398725617316156633e+00
0.000000000000000000e+00 1.176699999999999925e-03 4.753985400160479990e+00
6.250000000000000347e-03 7.527759999999999660e-03 7.149803314042463276e-01
0.000000000000000000e+00 2.057020000000000116e-03 2.546776823699496539e+00
