3.125000000000000173e-03 1.310719999999999941e-02 3.716839197249138138e+00
2.812500000000000069e-02 2.113849999999999896e-01 6.945838900164691410e-01
0.000000000000000000e+00 2.463819999999999899e-02 3.943112519201567245e+00
0.000000000000000000e+00 5.933569999999999990e-03 4.000915087660336766e+00
1.874999999999999931e-02 1.903299999999999914e-03 2.931141872323669517e+00
0.000000000000000000e+00 3.809279999999999958e-04 2.806173076303609903e+00
0.000000000000000000e+00 3.928960000000000004e-04 3.557479263588954055e+00
1.874999999999999931e-02 2.598340000000000198e-03 3.266891899004388922e+00
3.125000000000000173e-03 7.126590000000000355e-03 3.636378078583260010e+00
0.000000000000000000e+00 1.171870000000000030e-02 1.732536781265859194e+00
3.125000000000000173e-03 1.925549999999999831e-02 1.158007166872938587e+00
3.125000000000000173e-03 2.273280000000000027e-04 1.471044771218419811e+00
3.125000000000000173e-03 1.075970000000000095e-03 4.780461537017029805e+00
6.250000000000000347e-03 9.291109999999999647e-02 4.397538670008550810e+00
9.374999999999999653e-03 1.454140000000000033e-03 3.923243400885272791e+00
3.125000000000000173e-03 4.469250000000000132e-03 2.239077863898886633e+00
6.250000000000000347e-03 9.803420000000000190e-02 1.878438430307251661e+00
1.250000000000000069e-02 2.054530000000000158e-03 2.901923688183265071e+00
0.000000000000000000e+00 1.384409999999999981e-02 4.171234140100301246e+00
6.250000000000000347e-03 4.849980000000000263e-03 3.333375360211482397e-01
3.125000000000000173e-03 5.474240000000000009e-03 1.616197614080572276e-01
0.000000000000000000e+00 1.096729999999999971e-03 2.034416392073301605e+00
1.562500000000000000e-02 2.343549999999999800e-03 3.463969297903142674e+00
1.874999999999999931e-02 4.511549999999999588e-03 4.623118332428585830e+00
0.000000000000000000e+00 4.590719999999999849e-04 3.664621306705561743e+00
0.000000000000000000e+00 2.302899999999999923e-05 2.445107587858275089e+00
0.000000000000000000e+00 6.475200000000000400e-03 4.532790191943982805e+00
2.187499999999999861e-02 2.659649999999999948e-03 1.132337899592196884e+00
2.500000000000000139e-02 9.042290000000000050e-02 1.114107762748471231e+00
3.125000000000000173e-03 2.763900000000000124e-03 4.709752247163237371e+00
0.000000000000000000e+00 8.763519999999999470e-04 1.139915264482480595e+00
0.000000000000000000e+00 8.679039999999999628e-04 3.331490540611760753e+00
1.562500000000000000e-02 2.308099999999999995e-03 3.150723300852189546e+00
0.000000000000000000e+00 1.428710000000000082e-04 3.949363890447492142e+00
0.000000000000000000e+00 1.241020000000000014e-03 3.083281111228170168e+00
0.000000000000000000e+00 4.018560000000000231e-04 7.561894249513895216e-01
0.000000000000000000e+00 5.738430000000000093e-03 2.325940846642554627e-01
0.000000000000000000e+00 1.510399999999999937e-02 6.000761859508846330e-01
3.125000000000000173e-03 1.902339999999999977e-03 4.162899290757740012e+00
0.000000000000000000e+00 1.847550000000000104e-03 1.318619449500127994e+00
6.250000000000000347e-03 1.057469999999999938e-01 1.172235525939932632e+00
0.000000000000000000e+00 1.027050000000000012e-02 2.043616138523503878e+00
0.000000000000000000e+00 5.030139999999999785e-03 1.468377577390001409e+00
0.000000000000000000e+00 9.541179999999999800e-03 1.674676112417274876e+00
3.125000000000000173e-03 2.288319999999999937e-03 2.621887901411129818e+00
0.000000000000000000e+00 7.746559999999999774e-04 1.213395153874186505e+00
1.874999999999999931e-02 1.057700000000000029e-01 3.964601314364496254e+00
6.250000000000000347e-03 3.903100000000000059e-03 2.238619130152245784e+00
0.000000000000000000e+00 3.129339999999999986e-03 2.552985886475725330e+00
0.000000000000000000e+00 1.165240000000000026e-02 2.766280698738859734e+00
0.000000000000000000e+00 6.429170000000000110e-04 3.871245220671696963e+00
0.000000000000000000e+00 5.121280000000000407e-04 1.310819840682015514e+00
1.874999999999999931e-02 6.480960000000000019e-03 7.795962527370409179e-01
3.125000000000000173e-03 7.454080000000000298e-04 2.567940770244145021e+00
0.000000000000000000e+00 1.006659999999999933e-03 2.167597426173488717e+00
2.500000000000000139e-02 2.771899999999999885e-03 3.279337431432942207e+00
0.000000000000000000e+00 4.566980000000000106e-04 3.323305077342109115e-01
0.000000000000000000e+00 1.753399999999999848e-05 3.430947738245630596e+00
1.250000000000000069e-02 1.322819999999999942e-03 3.926429599882119703e+00
0.000000000000000000e+00 4.128639999999999827e-04 3.492584406969304389e+00
6.250000000000000347e-03 1.504059999999999989e-03 4.833370705991328009e+00
6.250000000000000347e-03 2.040960000000000083e-03 3.648737017649806180e+00
0.000000000000000000e+00 4.261749999999999913e-04 2.561339189967595242e+00
2.500000000000000139e-02 5.257979999999999772e-03 4.642413120938609694e+00
0.000000000000000000e+00 7.569960000000000144e-04 4.378424147148527013e+00
0.000000000000000000e+00 5.714180000000000127e-03 3.558448206159090077e+00
2.812500000000000069e-02 2.889220000000000069e-03 1.459047131592490221e+00
6.250000000000000347e-03 1.063619999999999982e-01 9.662269838249976095e-01
0.000000000000000000e+00 9.651199999999999753e-04 2.685094967138677458e+00
1.250000000000000069e-02 2.413820000000000115e-03 2.260001497947565774e+00
2.500000000000000139e-02 1.868029999999999908e-03 1.144541675663874880e+00
6.250000000000000347e-03 2.245120000000000188e-03 1.030229279741332160e+00
0.000000000000000000e+00 6.579840000000000211e-04 4.413767964819563794e+00
0.000000000000000000e+00 4.107210000000000136e-04 4.139674863153021356e+00
0.000000000000000000e+00 9.721600000000000163e-04 4.684216478207786416e+00
0.000000000000000000e+00 7.318589999999999601e-04 3.090665038608546134e+00
0.000000000000000000e+00 1.223740000000000071e-03 1.921461210919448881e+00
2.812500000000000069e-02 8.489409999999999318e-03 7.542726879648575800e-02
3.125000000000000173e-03 2.059949999999999976e-02 8.403846712315504730e-01
3.125000000000000000e-02 9.209820000000000506e-02 5.841314731450664155e-03
1.562500000000000000e-02 2.117819999999999980e-01 4.154923823654193882e+00
0.000000000000000000e+00 1.341629999999999906e-03 2.750574900552261060e+00
3.125000000000000173e-03 1.646850000000000050e-03 3.502442664882281509e+00
0.000000000000000000e+00 3.436540000000000081e-03 3.749815956874779310e+00
0.000000000000000000e+00 7.322430000000000432e-04 4.329096824453957382e+00
3.125000000000000173e-03 9.135100000000000164e-03 1.226138733527031732e+00
2.812500000000000069e-02 2.371260000000000034e-03 4.712778985505273965e+00
0.000000000000000000e+00 2.182499999999999856e-05 7.427747353293034926e-01
3.125000000000000173e-03 2.602829999999999987e-03 3.446344513712801039e+00
2.812500000000000069e-02 2.186430000000000057e-03 1.460628048519617028e+00
0.000000000000000000e+00 2.517629999999999868e-03 3.498846659884539356e+00
1.874999999999999931e-02 9.158189999999999387e-02 1.872531060677972148e+00
0.000000000000000000e+00 6.881250000000000431e-04 3.444026854484936617e+00
0.000000000000000000e+00 1.594300000000000101e-03 4.576346214328470552e+00
0.000000000000000000e+00 9.036159999999999895e-04 3.862669616830267660e+00
0.000000000000000000e+00 7.244839999999999570e-04 4.394563584797878120e-01
0.000000000000000000e+00 1.503649999999999952e-02 1.912373477309374348e+00
0.000000000000000000e+00 2.788609999999999960e-03 4.559465682038672085e+00
0.000000000000000000e+00 2.415229999999999981e-03 7.511453541004786683e-01
1.562500000000000000e-02 2.755520000000000018e-03 4.077064626657337598e+00
2.812500000000000069e-02 3.582019999999999996e-03 3.393470512586033827e+00
1.250000000000000069e-02 3.855290000000000106e-02 4.567066919521995061e+00
0.000000000000000000e+00 4.376340000000000265e-03 1.501655239596891178e+00
0.000000000000000000e+00 1.123969999999999960e-03 3.454055206749306883e-01
0.000000000000000000e+00 1.018110000000000022e-03 4.392440933926248015e+00
3.125000000000000173e-03 9.627299999999999747e-02 1.184706230169609853e+00
1.250000000000000069e-02 4.815739999999999778e-03 3.781708225884411689e+00
6.250000000000000347e-03 2.758850000000000191e-03 2.475263895743100573e+00
6.250000000000000347e-03 1.047020000000000034e-01 4.898324761295095975e+00
1.874999999999999931e-02 2.046909999999999875e-03 4.381983200004874845e+00
0.000000000000000000e+00 2.924480000000000135e-03 3.858030354658917638e+00
0.000000000000000000e+00 1.609529999999999988e-02 2.523321387224531254e+00
0.000000000000000000e+00 1.034049999999999900e-03 2.145457266358580251e-01
6.250000000000000347e-03 1.069350000000000023e-01 2.555911527346714340e+00
0.000000000000000000e+00 1.798400000000000129e-04 3.217399772436083438e+00
0.000000000000000000e+00 7.585599999999999635e-03 4.214428313576516594e+00
2.187499999999999861e-02 9.539840000000000819e-03 9.682177038164641036e-01
2.187499999999999861e-02 2.006659999999999954e-03 3.270468543103765668e+00
0.000000000000000000e+00 7.273060000000000462e-04 2.341234419438287251e-01
0.000000000000000000e+00 4.562369999999999620e-03 1.361391092693038818e+00
1.874999999999999931e-02 2.902849999999999788e-03 3.034128375077649320e+00
1.874999999999999931e-02 2.736769999999999915e-03 1.635265980244184458e+00
0.000000000000000000e+00 8.904320000000000290e-04 4.322262886305625607e+00
0.000000000000000000e+00 2.044159999999999890e-04 2.189377750651739785e+00
3.125000000000000173e-03 1.708539999999999929e-03 4.623116785431457210e+00
0.000000000000000000e+00 6.287800000000000333e-02 9.526126474366947150e-01
1.250000000000000069e-02 9.184860000000000246e-02 2.292228520014343740e+00
3.125000000000000173e-03 1.989929999999999997e-03 2.644600552888303202e+00
0.000000000000000000e+00 7.064649999999999793e-04 1.222947214453546927e+00
0.000000000000000000e+00 2.249730000000000132e-03 1.540119278329245001e+00
0.000000000000000000e+00 0.000000000000000000e+00 3.320103638077052999e+00
0.000000000000000000e+00 1.723649999999999965e-03 3.616852187275420683e+00
2.812500000000000069e-02 2.658499999999999839e-03 3.778607894435238812e+00
0.000000000000000000e+00 7.307039999999999889e-04 3.656538015395768948e+00
6.250000000000000347e-03 3.511999999999999931e-03 9.252337154027112653e-01
9.374999999999999653e-03 1.856959999999999947e-03 3.724520063542407833e+00
2.500000000000000139e-02 2.022209999999999980e-03 2.358066872791775292e+00
1.874999999999999931e-02 1.582910000000000090e-03 4.307769418944889850e+00
0.000000000000000000e+00 3.998189999999999882e-04 1.095742587563408144e+00
0.000000000000000000e+00 1.605380000000000001e-03 1.361938960814571553e+00
0.000000000000000000e+00 2.012540000000000162e-03 3.641232121828379853e+00
9.375000000000000000e-02 2.915670000000000067e-02 3.934571083876010178e+00
2.187499999999999861e-02 3.153920000000000161e-03 2.099236778654689495e+00
0.000000000000000000e+00 9.270559999999999955e-04 3.033428211297837240e+00
0.000000000000000000e+00 1.007419999999999973e-03 8.230755953714208317e-01
3.125000000000000173e-03 8.856509999999999730e-03 2.635852025235363882e+00
3.125000000000000000e-02 9.165539999999999798e-02 1.187626799707197645e+00
2.500000000000000139e-02 3.221439999999999894e-03 3.200787200923937981e-01
0.000000000000000000e+00 5.675520000000000304e-04 3.275246706917833706e-01
0.000000000000000000e+00 3.463399999999999942e-04 2.083132599449275091e+00
1.874999999999999931e-02 6.790639999999999697e-03 2.631018814291861130e+00
9.374999999999999653e-03 6.766079999999999837e-04 3.060111947203900673e+00
1.874999999999999931e-02 5.972540000000000140e-03 1.643546885587012785e+00
3.125000000000000173e-03 1.269119999999999970e-02 3.620994757766347938e+00
1.031249999999999944e-01 1.847719999999999918e-02 1.386815560124130542e+00
0.000000000000000000e+00 1.049220000000000014e-03 2.506295866570893871e+00
0.000000000000000000e+00 1.058130000000000008e-03 3.144468042771335625e+00
0.000000000000000000e+00 1.991170000000000006e-03 2.454967233162359541e+00
0.000000000000000000e+00 2.329459999999999886e-05 4.269435691884211792e+00
0.000000000000000000e+00 1.262300000000000054e-03 4.118376527551361299e+00
6.250000000000000347e-03 9.300219999999999668e-03 1.452174497026590405e+00
0.000000000000000000e+00 2.648360000000000102e-04 9.684158837795742159e-01
0.000000000000000000e+00 3.792000000000000015e-04 1.575207589416914189e+00
2.500000000000000139e-02 4.669440000000000396e-03 3.824187117986676654e+00
0.000000000000000000e+00 3.549970000000000165e-04 3.065102939224288114e+00
2.187499999999999861e-02 9.380220000000000224e-02 5.987531718608313236e-01
0.000000000000000000e+00 1.075250000000000034e-03 6.948113691993312857e-01
0.000000000000000000e+00 1.928550000000000026e-05 1.135088458834876413e+00
2.812500000000000069e-02 2.336060000000000046e-03 1.625365315828666279e+00
0.000000000000000000e+00 1.129929999999999997e-02 1.951359922108811151e+00
3.125000000000000173e-03 1.842749999999999987e-03 2.450295929202270351e+00
1.874999999999999931e-02 1.013179999999999983e-02 3.501259837276760489e+00
0.000000000000000000e+00 2.289449999999999908e-05 4.410428359542758692e+00
2.187499999999999861e-02 1.988800000000000203e-03 1.559587836119402660e+00
3.125000000000000173e-03 3.024450000000000142e-03 1.930422564197982194e+00
0.000000000000000000e+00 5.846399999999999861e-04 4.229013488385122699e+00
0.000000000000000000e+00 1.021449999999999919e-03 3.358069264674929943e+00
0.000000000000000000e+00 8.981990000000000243e-04 4.928267621592298475e+00
0.000000000000000000e+00 4.936770000000000047e-03 1.702277565208648591e+00
0.000000000000000000e+00 1.756799999999999985e-03 3.349795427768502254e+00
0.000000000000000000e+00 7.704959999999999630e-04 2.583563181038444512e+00
3.125000000000000173e-03 1.059199999999999942e-03 2.371110891609862215e-01
3.125000000000000173e-03 9.596799999999999732e-04 4.171856096724247287e+00
0.000000000000000000e+00 3.591000000000000008e-04 3.876489167750898801e+00
0.000000000000000000e+00 1.584579999999999930e-03 1.192012971680057598e+00
0.000000000000000000e+00 3.017279999999999789e-03 1.960600934767895431e+00
0.000000000000000000e+00 7.110830000000000492e-04 2.063098993117987945e+00
0.000000000000000000e+00 7.419520000000000412e-04 3.128586786822044719e+00
0.000000000000000000e+00 4.718639999999999640e-03 2.462750425804705046e+00
0.000000000000000000e+00 4.322819999999999788e-03 1.924003665663789331e+00
0.000000000000000000e+00 2.334080000000000096e-03 2.846101136051783165e+00
3.437500000000000278e-02 9.242780000000000440e-02 1.440925297110855929e+00
0.000000000000000000e+00 4.024480000000000201e-04 4.952931776292016863e+00
0.000000000000000000e+00 1.067779999999999944e-03 1.614649676390431221e+00
0.000000000000000000e+00 4.466819999999999818e-03 6.900486439599307076e-01
0.000000000000000000e+00 3.424260000000000151e-03 1.823516265329642172e+00
1.562500000000000000e-02 2.305600000000000097e-03 3.463774977575307279e+00
3.125000000000000173e-03 1.895489999999999892e-03 2.266263015188521912e+00
0.000000000000000000e+00 1.522680000000000040e-02 2.597835080750789505e+00
0.000000000000000000e+00 9.730560000000000294e-04 4.969001074280108732e+00
9.374999999999999653e-03 6.931199999999999774e-04 1.909376739481017937e+00
0.000000000000000000e+00 3.003439999999999929e-02 3.945080814388446822e+00
0.000000000000000000e+00 2.176659999999999966e-03 1.979617119997151287e+00
0.000000000000000000e+00 7.459020000000000017e-04 3.370419637707798177e+00
0.000000000000000000e+00 9.840000000000000656e-04 1.363140969495047372e+00
0.000000000000000000e+00 1.311550000000000086e-03 2.506145345715921069e-01
0.000000000000000000e+00 1.026690000000000024e-03 5.445548680728823365e-01
2.187499999999999861e-02 1.735739999999999939e-03 4.328674969532540828e+00
0.000000000000000000e+00 6.710680000000000334e-04 4.088690338001224944e+00
3.125000000000000173e-03 9.584059999999999802e-02 2.247133200938997266e+00
0.000000000000000000e+00 2.277109999999999955e-05 1.228471709224238095e-01
2.187499999999999861e-02 1.290879999999999892e-03 1.752300347447207640e+00
3.125000000000000173e-03 2.301819999999999995e-03 5.088698532815794096e-01
0.000000000000000000e+00 5.228799999999999811e-04 2.682781565685446346e+00
1.874999999999999931e-02 2.965950000000000183e-03 1.554922891274263641e+00
1.562500000000000000e-02 9.878720000000000556e-03 3.740231065057562532e+00
2.812500000000000069e-02 2.158849999999999918e-03 1.136214409759486621e+00
1.874999999999999931e-02 3.039619999999999822e-03 1.642546001153326163e+00
1.250000000000000069e-02 1.674179999999999939e-03 2.050599851166123866e+00
0.000000000000000000e+00 8.464640000000000055e-04 2.678142773811198030e+00
6.250000000000000347e-03 1.080900000000000055e-01 3.385499108545719338e+00
0.000000000000000000e+00 8.903039999999999652e-04 4.613935759411356585e+00
0.000000000000000000e+00 1.112829999999999982e-03 2.045607507145307480e+00
0.000000000000000000e+00 3.783039999999999884e-04 4.896945433147128490e+00
0.000000000000000000e+00 1.234499999999999920e-03 4.557660345691087578e+00
0.000000000000000000e+00 5.738560000000000189e-03 1.773834373188784674e+00
1.562500000000000000e-02 3.231229999999999866e-03 3.264498759896757196e+00
1.250000000000000069e-02 4.634300000000000051e-03 2.772490140446477902e+00
0.000000000000000000e+00 7.871360000000000206e-04 1.379936193201236172e+00
0.000000000000000000e+00 9.025629999999999981e-04 3.092372473998741711e+00
0.000000000000000000e+00 2.232319999999999932e-04 2.962260217656035088e+00
0.000000000000000000e+00 2.284509999999999918e-05 1.994687139474623505e+00
1.562500000000000000e-02 2.222660000000000000e-03 1.373547466720621557e+00
0.000000000000000000e+00 2.041410000000000013e-03 2.215075331124778835e+00
2.187499999999999861e-02 2.445440000000000114e-03 3.395877925399664043e+00
0.000000000000000000e+00 1.114240000000000065e-03 3.508500492473642485e+00
0.000000000000000000e+00 1.443899999999999914e-03 3.895916276048230209e+00
1.250000000000000069e-02 1.664319999999999949e-03 4.515353118055952741e+00
1.874999999999999931e-02 2.224190000000000021e-03 2.964806532022313146e+00
2.812500000000000069e-02 9.260859999999999925e-02 3.975524090905327768e+00
0.000000000000000000e+00 2.575359999999999954e-04 9.122630220247590627e-01
0.000000000000000000e+00 4.103040000000000073e-04 2.043914826847155641e+00
3.749999999999999861e-02 9.706539999999999613e-03 2.944067272556080361e+00
3.125000000000000000e-02 5.329470000000000214e-03 4.575534497694335734e+00
0.000000000000000000e+00 2.579779999999999834e-03 8.148042092358459554e-01
9.374999999999999653e-03 9.628570000000000184e-02 1.123876209081973609e+00
0.000000000000000000e+00 8.703370000000000203e-03 3.428595468136097946e+00
1.874999999999999931e-02 3.039619999999999822e-03 4.633178625560691266e+00
0.000000000000000000e+00 9.672320000000000527e-04 2.540545123355891777e-01
0.000000000000000000e+00 9.584129999999999733e-04 2.495449042046427479e+00
0.000000000000000000e+00 9.780999999999999764e-04 2.720996113747549128e+00
0.000000000000000000e+00 3.902719999999999930e-04 3.131497678837862342e+00
3.125000000000000173e-03 1.058999999999999941e-01 3.316514468606146515e+00
0.000000000000000000e+00 1.146560000000000027e-03 4.048763792169140174e+00
2.187499999999999861e-02 3.878369999999999734e-02 2.402273669890166996e+00
0.000000000000000000e+00 2.307010000000000126e-05 1.440938559804727070e+00
1.250000000000000069e-02 9.582300000000000539e-02 5.622805624087146015e-01
0.000000000000000000e+00 1.174020000000000011e-03 2.633543718484030016e+00
1.562500000000000000e-02 1.662779999999999987e-03 1.450146674664563484e+00
0.000000000000000000e+00 8.282880000000000494e-04 1.624760978916962584e+00
0.000000000000000000e+00 1.440899999999999950e-03 1.085228126851632169e+00
0.000000000000000000e+00 1.132830000000000035e-03 3.687757190495017490e+00
2.500000000000000139e-02 1.550139999999999981e-03 4.320170694364762198e+00
0.000000000000000000e+00 1.018110000000000022e-03 2.815968263421585682e+00
0.000000000000000000e+00 3.745539999999999785e-04 2.336370909536986673e+00
0.000000000000000000e+00 6.766350000000000142e-02 2.848646989799586304e+00
0.000000000000000000e+00 1.219199999999999928e-03 3.372153597342518516e+00
2.500000000000000139e-02 5.470080000000000428e-03 2.656474500004092576e+00
0.000000000000000000e+00 4.155939999999999786e-04 3.304217019449844361e+00
0.000000000000000000e+00 6.610000000000000207e-04 2.076744118695815544e+00
0.000000000000000000e+00 4.442070000000000220e-03 2.629617519608273390e+00
0.000000000000000000e+00 4.325760000000000000e-04 1.887226764938449541e+00
9.374999999999999653e-03 1.307519999999999950e-03 4.807663705307827939e+00
0.000000000000000000e+00 1.114940000000000028e-03 4.551777954176312591e+00
2.187499999999999861e-02 2.700800000000000162e-03 3.962748710213813030e+00
0.000000000000000000e+00 9.660159999999999884e-04 3.474737737956893113e+00
0.000000000000000000e+00 4.023039999999999754e-04 3.355308789802891489e+00
0.000000000000000000e+00 4.218300000000000348e-03 2.817781688449914945e+00
6.250000000000000347e-03 1.627329999999999966e-03 1.144077956933536866e-01
0.000000000000000000e+00 5.229570000000000225e-03 3.656152161172507409e+00
0.000000000000000000e+00 9.623039999999999806e-04 3.644880106454081670e+00
0.000000000000000000e+00 4.650940000000000109e-03 2.311383021703918850e+00
0.000000000000000000e+00 7.275619999999999570e-04 9.511388877174525858e-01
1.000000000000000056e-01 9.297700000000000409e-02 2.683488406147746641e+00
0.000000000000000000e+00 9.125569999999999515e-03 2.022787968416821514e+00
0.000000000000000000e+00 1.135139999999999977e-03 3.234535791067451704e+00
0.000000000000000000e+00 3.583810000000000207e-03 3.990227036443178665e+00
9.374999999999999653e-03 1.408130000000000059e-03 4.272726455159777004e+00
0.000000000000000000e+00 9.169889999999999985e-04 4.574135766740804243e+00
0.000000000000000000e+00 1.586500000000000020e-03 2.461979682161548055e+00
0.000000000000000000e+00 1.457600000000000085e-03 4.207393711049624230e+00
0.000000000000000000e+00 1.234690000000000093e-03 4.589593064775183251e+00
0.000000000000000000e+00 2.339839999999999878e-04 4.798894892640625187e+00
0.000000000000000000e+00 9.831650000000000372e-04 1.365435438809416979e+00
9.374999999999999653e-03 2.064579999999999887e-03 3.582163118360742082e+00
3.125000000000000173e-03 1.258940000000000059e-03 3.161590341742392951e-01
0.000000000000000000e+00 1.003619999999999990e-03 4.705090539877870848e-01
3.125000000000000173e-03 2.001220000000000169e-03 3.759610721345616469e+00
0.000000000000000000e+00 1.020290000000000086e-03 4.474625510405947360e+00
0.000000000000000000e+00 9.715839999999999459e-04 4.056662104635913479e+00
3.437500000000000278e-02 9.281839999999999535e-02 1.675214731024032400e+00
3.125000000000000173e-03 1.284680000000000023e-02 3.398516600337803784e+00
0.000000000000000000e+00 1.751849999999999837e-05 4.501699870801906478e+00
9.374999999999999653e-03 2.999869999999999967e-03 3.420107484331571523e+00
0.000000000000000000e+00 2.222869999999999946e-05 2.945242708590546599e+00
2.500000000000000139e-02 2.858050000000000000e-03 4.102562545818838835e+00
2.812500000000000069e-02 1.243069999999999982e-03 2.670662020385019098e+00
1.562500000000000000e-02 1.720259999999999932e-03 2.092700220503966868e+00
2.500000000000000139e-02 3.477060000000000133e-03 2.119527519519452508e+00
2.812500000000000069e-02 2.132090000000000096e-01 3.444441707562999611e+00
0.000000000000000000e+00 2.141629999999999836e-03 2.398795030496642333e+00
0.000000000000000000e+00 9.293009999999999986e-04 1.368032879168217697e+00
0.000000000000000000e+00 1.094340000000000070e-03 3.897467471525234428e-01
0.000000000000000000e+00 3.897090000000000276e-02 3.880690276632184244e+00
0.000000000000000000e+00 5.489410000000000123e-03 8.905166168800249249e-01
0.000000000000000000e+00 0.000000000000000000e+00 1.335695658447045853e+00
0.000000000000000000e+00 1.683140000000000070e-03 2.544532638809167580e+00
2.187499999999999861e-02 1.524160000000000098e-03 1.154330496308125786e+00
9.374999999999999653e-03 1.712259999999999954e-03 4.967713666336925904e+00
0.000000000000000000e+00 3.115070000000000165e-03 4.083982662341398395e+00
3.125000000000000173e-03 1.433339999999999961e-03 2.216070877324578081e+00
2.187499999999999861e-02 4.718499999999999778e-02 2.171690170326283198e+00
0.000000000000000000e+00 3.492899999999999846e-04 1.803823668851936457e+00
0.000000000000000000e+00 9.418239999999999598e-04 3.911013929389237198e+00
0.000000000000000000e+00 4.268799999999999786e-04 3.330425333950414846e+00
3.125000000000000173e-03 1.063820000000000043e-01 3.126536222228907924e+00
0.000000000000000000e+00 1.059899999999999905e-03 3.304674887884908596e+00
2.500000000000000139e-02 2.549249999999999867e-03 1.960453565170394263e+00
0.000000000000000000e+00 7.240350000000000431e-04 1.974011217155112741e+00
1.562500000000000000e-02 1.678140000000000057e-03 2.902028678129208394e+00
2.187499999999999861e-02 2.333379999999999916e-03 3.717582329413775533e+00
1.250000000000000069e-02 2.030530000000000009e-03 1.845363272141861133e+00
0.000000000000000000e+00 1.115520000000000053e-03 1.603202441416977653e+00
0.000000000000000000e+00 4.798319999999999669e-02 1.269847908265679504e+00
0.000000000000000000e+00 0.000000000000000000e+00 3.504199548124460328e+00
0.000000000000000000e+00 1.182230000000000086e-02 2.998653327210629715e+00
6.250000000000000347e-03 6.782980000000000086e-03 1.571561103877197496e+00
0.000000000000000000e+00 3.058620000000000175e-03 4.007728794500122760e+00
6.250000000000000347e-03 1.798270000000000033e-03 3.733148864666540945e+00
0.000000000000000000e+00 9.518719999999999829e-04 4.378879062759542862e+00
0.000000000000000000e+00 1.072169999999999894e-03 1.119407266822669555e+00
1.250000000000000069e-02 1.688129999999999926e-03 3.478434682561855507e+00
0.000000000000000000e+00 3.447490000000000103e-03 4.780984400575545301e+00
0.000000000000000000e+00 1.735739999999999939e-03 2.233334890639762538e+00
0.000000000000000000e+00 1.384409999999999981e-02 4.791091769113540622e+00
3.125000000000000173e-03 9.792380000000000528e-02 3.107000549888538909e-01
0.000000000000000000e+00 4.297020000000000136e-04 4.429187253482401054e+00
0.000000000000000000e+00 1.160540000000000052e-03 3.483048130573815460e+00
3.125000000000000173e-03 9.562260000000000204e-02 2.611355993234513839e+00
0.000000000000000000e+00 2.825020000000000135e-03 5.011554465960660343e-01
2.187499999999999861e-02 2.241920000000000111e-03 3.404914032344716013e+00
0.000000000000000000e+00 3.373620000000000134e-04 4.306193500344249969e+00
0.000000000000000000e+00 1.504800000000000061e-02 3.386631338821948667e+00
1.874999999999999931e-02 5.390400000000000053e-03 4.890339105948864784e+00
1.250000000000000069e-02 1.151810000000000073e-03 6.016503989669436114e-01
2.500000000000000139e-02 2.114819999999999894e-03 9.122723128750953592e-02
9.374999999999999653e-03 3.784899999999999896e-03 3.565349341923779392e+00
0.000000000000000000e+00 7.283320000000000462e-04 4.097433213506346261e-01
0.000000000000000000e+00 3.548049999999999750e-04 2.564332670946567916e+00
0.000000000000000000e+00 7.028740000000000335e-04 1.174200352098715427e+00
0.000000000000000000e+00 5.761629999999999790e-04 4.619724870907926828e+00
1.250000000000000069e-02 9.545600000000000222e-04 1.467311808977092458e+00
3.125000000000000173e-03 8.211200000000000530e-04 4.026181855636331797e+00
0.000000000000000000e+00 9.349119999999999826e-04 2.411023918646853836e+00
0.000000000000000000e+00 1.409919999999999945e-04 4.654913915580301875e+00
6.250000000000000347e-03 1.856739999999999953e-03 2.232523363539868910e+00
0.000000000000000000e+00 1.729220000000000063e-03 3.996188830052569418e+00
1.874999999999999931e-02 6.831489999999999958e-03 3.323779026260363256e+00
3.125000000000000000e-02 9.205000000000000682e-02 4.668193408576691183e+00
3.125000000000000000e-02 2.653309999999999870e-03 3.682301271241341656e+00
3.125000000000000173e-03 9.477380000000000526e-03 1.102847382492975647e+00
4.374999999999999722e-02 9.353060000000000540e-02 2.029964573191472166e+00
0.000000000000000000e+00 1.811069999999999911e-03 9.168425652593709119e-01
0.000000000000000000e+00 9.983999999999999819e-04 1.741959230021394411e+00
0.000000000000000000e+00 3.987840000000000091e-04 2.509272736118377534e+00
3.125000000000000173e-03 2.806559999999999958e-02 5.270495895318222379e-01
0.000000000000000000e+00 1.541889999999999971e-03 1.485076333289235162e+00
3.125000000000000173e-03 1.903229999999999896e-03 2.658415873672851149e+00
2.500000000000000139e-02 4.082299999999999644e-03 3.529982337470782827e-01
0.000000000000000000e+00 3.399740000000000054e-03 3.759802637925462321e+00
0.000000000000000000e+00 1.961260000000000087e-02 3.462607630139111325e+00
5.000000000000000278e-02 2.595329999999999859e-02 4.638916477270415228e+00
1.874999999999999931e-02 2.407359999999999882e-03 4.135328598674864686e+00
0.000000000000000000e+00 1.558050000000000060e-03 5.684327854249382472e-02
4.062500000000000139e-02 9.388100000000000611e-02 1.021759323294790800e-01
2.187499999999999861e-02 1.830140000000000065e-03 1.481854638160355897e+00
2.812500000000000069e-02 3.624340000000000200e-03 2.454500129334399983e+00
0.000000000000000000e+00 3.855840000000000135e-04 5.886655901472231944e-01
2.812500000000000069e-02 2.115329999999999901e-03 3.191116366352740208e+00
0.000000000000000000e+00 1.595140000000000099e-03 4.755953961138969177e+00
0.000000000000000000e+00 8.830650000000000435e-04 3.090214700912676804e+00
1.250000000000000069e-02 1.783679999999999944e-03 4.323767824451747899e+00
1.562500000000000000e-02 2.174080000000000110e-03 1.999467453766134994e-01
0.000000000000000000e+00 7.285119999999999530e-04 3.067362542472460873e+00
1.874999999999999931e-02 5.642239999999999756e-03 1.654743497446929945e+00
2.500000000000000139e-02 2.257410000000000059e-03 2.358667851384739222e+00
0.000000000000000000e+00 2.294340000000000181e-03 4.321398776242654449e+00
0.000000000000000000e+00 5.494229999999999470e-04 1.884419103795021311e+00
0.000000000000000000e+00 9.730560000000000294e-04 4.697409345797581182e+00
1.250000000000000069e-02 1.222849999999999935e-03 4.961437435028916987e+00
2.187499999999999861e-02 9.147660000000000513e-02 2.152237137988658233e+00
0.000000000000000000e+00 2.125440000000000033e-04 1.735252895753504054e+00
0.000000000000000000e+00 4.002559999999999842e-04 4.049855909160201328e+00
0.000000000000000000e+00 9.026560000000000529e-04 3.224712158984867294e+00
0.000000000000000000e+00 5.936829999999999712e-03 2.027891135704324554e+00
0.000000000000000000e+00 9.174400000000000523e-04 2.131582908614228167e+00
0.000000000000000000e+00 2.909119999999999848e-03 3.027693839825528421e+00
0.000000000000000000e+00 9.863079999999999764e-04 1.872116379580712753e+00
7.812500000000000000e-02 1.540979999999999954e-02 4.748748140795899797e-02
0.000000000000000000e+00 6.726390000000000147e-02 2.097929101638406735e+00
0.000000000000000000e+00 4.714470000000000010e-04 2.095614797832826781e+00
0.000000000000000000e+00 2.325139999999999900e-05 1.248475127472002288e+00
0.000000000000000000e+00 1.578840000000000104e-02 1.905537657426318976e+00
0.000000000000000000e+00 5.443579999999999947e-03 4.104173211163693935e+00
0.000000000000000000e+00 1.706499999999999901e-03 2.240573123331046634e-01
0.000000000000000000e+00 8.620960000000000211e-04 3.569366216137757952e+00
9.374999999999999653e-03 1.139959999999999932e-02 2.610995139553667244e+00
0.000000000000000000e+00 1.268170000000000061e-02 4.169105377763152376e+00
1.250000000000000069e-02 9.543489999999999959e-03 2.619743110639585648e+00
0.000000000000000000e+00 1.013570000000000096e-03 2.334185791593387016e+00
0.000000000000000000e+00 9.465600000000000446e-04 4.118203559667134250e+00
0.000000000000000000e+00 6.711679999999999816e-04 2.966299551913076371e-03
0.000000000000000000e+00 0.000000000000000000e+00 2.938795888491393171e+00
1.062499999999999972e-01 2.485800000000000162e-02 2.588895978182053081e+00
0.000000000000000000e+00 8.618370000000000197e-03 3.733261530763356539e+00
0.000000000000000000e+00 2.998020000000000112e-03 5.820831344139321128e-01
3.125000000000000173e-03 9.615990000000000648e-02 1.837560449371289373e-01
0.000000000000000000e+00 9.397119999999999909e-04 3.057034777026986561e+00
0.000000000000000000e+00 2.450759999999999893e-05 1.159362619223039959e+00
0.000000000000000000e+00 3.775680000000000008e-04 2.957117762745431033e+00
9.374999999999999653e-03 1.472699999999999964e-03 4.129900811573498309e+00
0.000000000000000000e+00 1.180220000000000054e-03 1.097632600963123206e+00
1.562500000000000000e-02 2.685499999999999953e-03 4.787583955160439331e+00
0.000000000000000000e+00 3.482639999999999846e-04 2.269554922764419835e+00
0.000000000000000000e+00 5.136000000000000157e-04 1.730161906373600678e+00
0.000000000000000000e+00 0.000000000000000000e+00 1.970018334309990848e+00
1.874999999999999931e-02 2.355460000000000192e-03 3.455571613882869819e+00
0.000000000000000000e+00 1.214779999999999940e-03 3.817778283908367598e+00
0.000000000000000000e+00 2.207170000000000052e-03 3.158398998703444871e+00
0.000000000000000000e+00 2.131200000000000195e-03 3.493713536106112016e+00
0.000000000000000000e+00 2.903359999999999795e-03 2.751439402087933583e+00
0.000000000000000000e+00 1.180220000000000054e-03 1.787470641603977617e+00
3.125000000000000173e-03 1.696000000000000025e-03 2.552251740048167017e-01
0.000000000000000000e+00 2.962060000000000040e-02 2.366049333295853430e+00
0.000000000000000000e+00 1.839230000000000075e-03 1.477772788397074155e+00
2.812500000000000069e-02 9.336070000000000479e-02 8.635569188185843181e-01
6.250000000000000347e-03 1.537540000000000000e-03 2.776466064973350800e+00
2.812500000000000069e-02 9.919040000000000495e-03 1.536114814809542706e+00
3.125000000000000173e-03 1.578820000000000093e-03 3.320042072412134893e+00
0.000000000000000000e+00 3.544199999999999846e-04 3.851129192026653270e-01
0.000000000000000000e+00 2.707520000000000152e-03 9.926886639437348947e-01
1.250000000000000069e-02 1.697410000000000108e-03 2.494101880523353909e+00
1.874999999999999931e-02 2.053249999999999954e-03 9.628569387462082574e-01
0.000000000000000000e+00 4.153380000000000136e-04 6.551017414953652640e-01
0.000000000000000000e+00 1.508160000000000056e-02 1.955633119498898509e+00
0.000000000000000000e+00 1.637309999999999894e-03 3.603470825827852053e+00
2.812500000000000069e-02 2.402819999999999956e-03 4.536183339894964917e+00
0.000000000000000000e+00 5.623680000000000475e-04 2.509749338197282853e+00
0.000000000000000000e+00 5.056639999999999616e-04 2.814823539080348436e+00
0.000000000000000000e+00 9.575680000000000042e-04 3.077655580792885814e+00
0.000000000000000000e+00 1.147840000000000015e-03 1.591407198450426996e+00
0.000000000000000000e+00 2.904959999999999834e-03 2.862158068487474782e-01
1.874999999999999931e-02 2.145540000000000034e-03 6.485126863942236586e-01
5.625000000000000139e-02 4.670269999999999803e-03 3.487459953798541346e+00
0.000000000000000000e+00 7.252540000000000462e-04 6.470757967437218428e-01
0.000000000000000000e+00 3.245699999999999801e-03 3.848058561814367007e+00
0.000000000000000000e+00 3.919360000000000096e-04 4.308180195655249456e+00
1.874999999999999931e-02 2.046270000000000207e-03 3.194230855377120371e+00
0.000000000000000000e+00 3.757440000000000129e-04 4.021983704636958201e+00
1.250000000000000069e-02 4.142359999999999792e-02 1.418079503165264210e+00
0.000000000000000000e+00 5.866880000000000315e-04 2.509367606264349959e+00
2.812500000000000069e-02 2.260100000000000130e-03 2.972946031866059879e+00
0.000000000000000000e+00 2.152700000000000013e-03 1.129385217694918619e+00
7.499999999999999722e-02 9.283479999999999510e-02 4.290217810816253419e+00
1.874999999999999931e-02 1.749569999999999988e-03 1.937971928860271920e+00
0.000000000000000000e+00 3.429120000000000128e-04 1.825514855777934375e+00
0.000000000000000000e+00 1.328259999999999944e-03 4.997430338284876150e+00
0.000000000000000000e+00 1.496450000000000080e-03 1.871485406991001410e+00
0.000000000000000000e+00 3.976319999999999768e-04 3.261128550390630210e+00
9.374999999999999653e-03 2.386179999999999898e-03 2.610540957238205451e+00
0.000000000000000000e+00 3.478779999999999785e-04 3.552420751302840518e+00
0.000000000000000000e+00 9.313770000000000729e-03 3.620813052758161454e+00
0.000000000000000000e+00 1.675650000000000099e-03 3.892293468892557673e+00
0.000000000000000000e+00 3.315010000000000179e-03 4.098363697884034984e+00
0.000000000000000000e+00 1.590459999999999921e-03 7.945932462173965760e-01
2.500000000000000139e-02 2.658300000000000159e-03 3.039389665205761037e+00
0.000000000000000000e+00 9.305239999999999345e-03 2.144228673240879957e+00
1.562500000000000000e-02 9.293120000000000547e-02 8.159346185488830505e-01
0.000000000000000000e+00 4.196979999999999786e-04 3.802759751629626095e+00
0.000000000000000000e+00 5.876100000000000420e-03 2.696223172325221018e+00
1.000000000000000056e-01 8.015799999999999315e-02 4.966829769071337886e+00
0.000000000000000000e+00 1.110529999999999981e-03 4.633304208776076294e+00
0.000000000000000000e+00 2.220479999999999936e-03 1.006964214694274329e+00
0.000000000000000000e+00 3.253869999999999679e-02 2.224551761982435760e+00
1.562500000000000000e-02 2.274749999999999862e-03 4.136885325771205935e+00
6.250000000000000347e-03 3.452619999999999995e-03 1.235181752368208485e-01
0.000000000000000000e+00 4.483649999999999615e-03 2.577686011969817947e+00
0.000000000000000000e+00 1.010819999999999948e-03 3.493725081591951831e+00
3.125000000000000000e-02 9.338639999999999441e-02 2.051004198596709127e+00
0.000000000000000000e+00 1.004129999999999997e-03 4.708057177107541236e+00
0.000000000000000000e+00 9.912320000000000939e-04 4.703244912689474866e-02
6.250000000000000347e-03 1.106049999999999915e-03 2.897711066698702265e+00
0.000000000000000000e+00 1.054849999999999972e-03 4.216750200549279626e+00
1.562500000000000000e-02 1.374339999999999937e-03 2.549965283530133853e+00
3.125000000000000000e-02 9.353229999999999877e-02 3.693168506454756361e+00
0.000000000000000000e+00 1.911420000000000046e-03 1.238205760496528640e+00
0.000000000000000000e+00 1.963009999999999842e-03 4.416770112547474980e+00
2.500000000000000139e-02 2.017600000000000036e-03 5.907532563724759989e-01
0.000000000000000000e+00 4.800900000000000306e-03 2.827081910615966365e+00
4.062500000000000139e-02 9.341170000000000029e-02 2.790161932724108063e+00
0.000000000000000000e+00 1.799229999999999970e-03 1.649525933304494263e+00
0.000000000000000000e+00 1.060289999999999974e-03 9.496269741238350104e-02
6.250000000000000347e-03 2.051249999999999948e-02 2.909813086442334384e+00
0.000000000000000000e+00 2.976509999999999920e-03 2.172351151443862705e+00
3.125000000000000173e-03 7.676799999999999683e-04 5.071172462572104411e-02
0.000000000000000000e+00 5.264379999999999928e-03 4.943417094416702184e+00
0.000000000000000000e+00 3.457340000000000153e-03 1.326413038903032637e+00
0.000000000000000000e+00 1.236169999999999977e-02 2.906046685870440349e+00
0.000000000000000000e+00 9.752959999999999538e-04 2.836044480069260798e-01
0.000000000000000000e+00 1.529470000000000005e-03 3.554186804355909945e+00
6.250000000000000347e-03 8.650750000000000453e-03 4.463458210992504505e+00
0.000000000000000000e+00 1.611009999999999959e-03 2.741532894328225112e+00
0.000000000000000000e+00 3.167679999999999975e-03 2.122114844284590962e+00
0.000000000000000000e+00 2.801860000000000201e-03 4.095577463727847700e+00
0.000000000000000000e+00 6.142079999999999849e-04 3.620384711958030799e+00
0.000000000000000000e+00 1.819010000000000055e-05 1.278172305046554325e-01
0.000000000000000000e+00 4.156799999999999775e-04 1.877337877001304944e+00
0.000000000000000000e+00 1.248640000000000080e-03 1.339795343355583146e+00
0.000000000000000000e+00 5.625340000000000375e-03 2.312929129360997926e+00
1.874999999999999931e-02 2.012289999999999912e-03 2.573663627576666002e+00
0.000000000000000000e+00 1.610880000000000135e-04 3.377590469741336143e+00
0.000000000000000000e+00 1.754880000000000112e-04 9.865681175723822749e-01
6.250000000000000347e-03 9.758920000000000095e-02 1.697242107583594617e+00
6.250000000000000347e-03 5.050559999999999945e-03 3.284063752019179550e+00
2.812500000000000069e-02 3.168059999999999887e-03 4.531306061159201981e+00
0.000000000000000000e+00 1.168189999999999940e-03 3.134228095662836999e+00
3.125000000000000173e-03 1.801660000000000067e-03 1.696786288750200100e+00
0.000000000000000000e+00 1.182080000000000066e-03 2.536029723502092104e+00
0.000000000000000000e+00 4.037120000000000270e-04 3.994940424164777237e+00
3.125000000000000173e-03 3.037950000000000199e-03 2.722074793149947158e+00
0.000000000000000000e+00 6.285689999999999333e-02 2.116410823048440637e+00
0.000000000000000000e+00 5.564930000000000050e-03 7.139464467666056802e-02
2.500000000000000139e-02 9.241739999999999677e-02 1.881202111754216144e+00
3.125000000000000173e-03 3.831230000000000139e-03 2.153746796468950286e+00
0.000000000000000000e+00 4.879360000000000121e-03 2.341118327641382280e+00
0.000000000000000000e+00 3.580799999999999868e-04 1.810932323448271042e+00
0.000000000000000000e+00 1.691330000000000004e-03 4.603230851625761400e-01
0.000000000000000000e+00 9.168639999999999820e-04 3.006200786627966970e+00
0.000000000000000000e+00 2.217980000000000038e-03 2.031517529792826071e+00
2.187499999999999861e-02 1.887229999999999941e-03 4.593497478723638672e+00
0.000000000000000000e+00 1.119360000000000016e-03 2.389353495161100405e+00
0.000000000000000000e+00 1.143810000000000096e-03 3.985200965542643470e+00
2.812500000000000069e-02 3.697859999999999862e-03 2.614385058282602703e+00
0.000000000000000000e+00 1.064770000000000039e-03 1.290531606687319144e+00
2.500000000000000139e-02 2.324740000000000053e-03 2.506782775244941863e+00
0.000000000000000000e+00 5.108200000000000457e-04 2.450159029431136393e+00
0.000000000000000000e+00 2.596480000000000185e-04 3.274286374325978244e+00
2.187499999999999861e-02 3.736699999999999917e-03 2.987983062022286695e+00
0.000000000000000000e+00 1.081850000000000086e-03 3.296881628519488405e+00
2.187499999999999861e-02 3.085119999999999876e-02 1.800236835785685052e+00
9.374999999999999653e-03 9.916650000000000464e-02 1.897602014946731419e+00
0.000000000000000000e+00 4.638159999999999787e-04 4.422196981497955592e-01
2.187499999999999861e-02 9.303530000000000133e-02 2.836674265953091023e+00
0.000000000000000000e+00 3.925760000000000035e-04 7.104177951015039350e-01
0.000000000000000000e+00 1.891200000000000053e-04 8.686511308713823487e-01
1.874999999999999931e-02 1.631550000000000058e-03 1.396990775645527982e+00
0.000000000000000000e+00 1.241340000000000065e-03 3.032794911453775999e+00
1.250000000000000069e-02 8.908930000000000668e-03 5.155874904371871015e-01
0.000000000000000000e+00 1.329019999999999984e-03 3.754485603565311358e+00
2.187499999999999861e-02 3.063039999999999947e-03 2.535994701775013738e+00
0.000000000000000000e+00 1.433470000000000057e-03 1.136489989236799669e-01
0.000000000000000000e+00 7.628799999999999601e-04 3.764715025190847442e+00
0.000000000000000000e+00 5.783680000000000028e-04 5.928907378701570030e-01
0.000000000000000000e+00 7.708930000000000123e-03 4.517070478355370788e+00
0.000000000000000000e+00 4.410880000000000161e-04 2.842886397523176623e+00
0.000000000000000000e+00 2.203519999999999936e-04 2.593330142839469499e+00
2.187499999999999861e-02 1.598339999999999960e-03 3.291055434141008540e+00
3.125000000000000173e-03 9.019389999999999352e-02 4.641196633533003713e+00
2.187499999999999861e-02 1.921659999999999948e-03 3.050097105547935339e+00
0.000000000000000000e+00 9.722240000000000482e-04 3.540656292596096488e+00
0.000000000000000000e+00 3.820080000000000003e-02 4.733174903765457131e+00
1.250000000000000069e-02 1.861760000000000064e-03 3.643255646996518493e+00
1.250000000000000069e-02 1.191999999999999917e-03 3.166200859821577840e+00
0.000000000000000000e+00 5.494869999999999789e-04 3.850584885527021051e+00
0.000000000000000000e+00 2.278110000000000115e-05 4.445828762571629511e+00
0.000000000000000000e+00 5.195520000000000346e-03 3.363520089977532379e+00
0.000000000000000000e+00 3.551250000000000261e-04 2.158569992873962562e+00
0.000000000000000000e+00 1.608019999999999895e-05 1.956219408152726214e-01
0.000000000000000000e+00 3.525119999999999751e-04 3.013145589840685368e+00
0.000000000000000000e+00 5.731710000000000103e-03 4.306284156690023401e+00
1.874999999999999931e-02 1.835459999999999913e-03 2.685845369994002585e+00
1.874999999999999931e-02 1.904639999999999979e-03 2.443623390729121159e+00
0.000000000000000000e+00 6.570249999999999918e-04 4.532561600037025684e+00
0.000000000000000000e+00 4.063599999999999786e-04 1.656740879079614981e+00
0.000000000000000000e+00 5.715989999999999960e-02 2.345050883598431835e-01
0.000000000000000000e+00 7.056319999999999823e-04 7.106815480437611576e-01
3.125000000000000173e-03 1.252480000000000043e-03 3.896049607090396716e+00
0.000000000000000000e+00 1.187389999999999973e-03 4.264457146501815510e-01
0.000000000000000000e+00 2.693119999999999802e-03 2.724861492483433345e+00
0.000000000000000000e+00 1.069220000000000066e-03 1.490941006172195493e+00
0.000000000000000000e+00 1.552510000000000001e-03 1.162907129062074052e+00
0.000000000000000000e+00 7.347840000000000447e-04 2.821919166284749370e+00
9.374999999999999653e-03 1.904829999999999935e-03 1.201297962850131462e+00
9.374999999999999653e-03 9.245340000000000502e-02 4.995065247387046270e+00
0.000000000000000000e+00 7.323069999999999666e-04 2.472431427367860479e-01
1.874999999999999931e-02 1.736960000000000066e-03 4.545016238548609699e+00
1.874999999999999931e-02 2.155579999999999823e-03 2.259817746216002954e-01
0.000000000000000000e+00 9.816960000000000009e-04 4.387647158888697163e+00
0.000000000000000000e+00 8.764600000000000212e-04 8.159909628180661567e-01
9.374999999999999653e-03 2.009790000000000014e-03 1.179133667852882983e-02
0.000000000000000000e+00 1.173379999999999909e-03 4.031290513525603858e-01
3.437500000000000278e-02 5.086260000000000087e-02 2.218310122021646791e+00
0.000000000000000000e+00 1.129879999999999990e-03 2.841030827240767387e+00
1.250000000000000069e-02 1.695810000000000069e-03 3.951822410930567742e+00
1.250000000000000069e-02 3.334210000000000212e-03 4.720633666837009690e-01
6.250000000000000347e-03 1.056590000000000029e-01 7.014861373115521825e-02
3.125000000000000173e-03 1.659290000000000070e-02 4.242970020767299566e+00
0.000000000000000000e+00 3.855999999999999944e-04 4.462937843763087109e+00
0.000000000000000000e+00 2.199570000000000016e-05 2.624330282704817385e+00
0.000000000000000000e+00 1.115010000000000046e-03 2.121707826693979282e+00
3.125000000000000000e-02 5.365179999999999776e-03 2.206146304829760929e+00
0.000000000000000000e+00 1.159099999999999931e-03 2.499944511835296979e+00
1.250000000000000069e-02 2.677759999999999949e-03 5.336388776936168421e-01
0.000000000000000000e+00 9.761280000000000434e-04 1.665790102916866466e+00
0.000000000000000000e+00 9.319930000000000575e-03 3.099446940089507940e+00
1.250000000000000069e-02 1.060799999999999981e-03 3.240394279904741826e+00
0.000000000000000000e+00 1.008620000000000003e-03 3.621804124108882750e+00
0.000000000000000000e+00 7.377580000000000335e-04 3.343516647009007414e+00
1.874999999999999931e-02 2.086399999999999973e-03 2.934697483064076629e+00
1.874999999999999931e-02 2.327810000000000035e-03 1.613220186936104472e+00
0.000000000000000000e+00 2.764159999999999773e-04 9.844311428688112819e-01
0.000000000000000000e+00 2.291970000000000013e-05 9.345323612604361507e-01
9.374999999999999653e-03 1.065450000000000008e-01 3.449042298546426188e+00
0.000000000000000000e+00 9.310499999999999332e-03 1.779453567223873156e+00
0.000000000000000000e+00 2.300139999999999970e-05 2.388966721279404570e+00
1.250000000000000069e-02 9.178959999999999897e-02 4.943927916782560494e+00
0.000000000000000000e+00 3.319679999999999766e-04 4.243037070380397680e+00
0.000000000000000000e+00 1.121660000000000018e-03 3.923375697941485996e+00
0.000000000000000000e+00 0.000000000000000000e+00 2.738429760946004432e+00
3.749999999999999861e-02 9.241699999999999915e-02 4.628198640073253323e+00
