3.125000000000000173e-03 1.053219999999999990e-01 1.820227459458199082e+00
1.562500000000000000e-02 1.378429999999999933e-03 4.360051327733198256e+00
1.062499999999999972e-01 8.144120000000000525e-02 9.093071374337702295e-01
9.374999999999999653e-03 1.197439999999999919e-03 4.283561091760168082e+00
0.000000000000000000e+00 1.184960000000000093e-03 4.149356846857842562e+00
3.125000000000000173e-03 1.709060000000000093e-03 3.228354388765253269e-01
3.125000000000000000e-02 1.084210000000000035e-02 3.500244448866062896e+00
0.000000000000000000e+00 2.712899999999999860e-03 2.171932048649307667e+00
3.125000000000000173e-03 2.444860000000000089e-03 2.341710796156753371e+00
0.000000000000000000e+00 3.121919999999999817e-04 3.325964388654712334e+00
1.250000000000000069e-02 9.178959999999999897e-02 4.697186185053655372e+00
3.125000000000000173e-03 9.779939999999999467e-02 1.709564453151307672e-01
6.250000000000000347e-03 3.065860000000000113e-03 2.282450296188287098e+00
0.000000000000000000e+00 1.019139999999999976e-03 2.974825529062600005e+00
2.187499999999999861e-02 9.598919999999999675e-02 4.750132289122777962e+00
3.125000000000000173e-03 4.102780000000000316e-03 6.358446830848235587e-01
0.000000000000000000e+00 4.850239999999999586e-03 1.649428257174567314e+00
0.000000000000000000e+00 3.975040000000000214e-04 3.374648359311872348e+00
0.000000000000000000e+00 2.650369999999999983e-03 4.978985016161109556e+00
0.000000000000000000e+00 6.650399999999999888e-04 1.209000815191442202e+00
0.000000000000000000e+00 3.687100000000000013e-03 2.562806123192173935e-01
3.125000000000000173e-03 2.134219999999999867e-02 5.898706593029473533e-01
1.562500000000000000e-02 1.653439999999999944e-03 4.469321295711641717e+00
2.187499999999999861e-02 3.160510000000000055e-03 1.940025515923694543e+00
0.000000000000000000e+00 2.676990000000000185e-03 2.811174528601951828e+00
3.125000000000000000e-02 9.132010000000000127e-02 4.066460475208162784e+00
6.250000000000000347e-03 3.587649999999999954e-03 1.775929293787766872e+00
0.000000000000000000e+00 1.029380000000000095e-03 3.154680650191266089e+00
2.812500000000000069e-02 2.273540000000000109e-03 1.246705850879881172e-02
0.000000000000000000e+00 1.167230000000000004e-03 3.606979854246578299e+00
2.500000000000000139e-02 9.254590000000000038e-02 3.183216790867367862e+00
0.000000000000000000e+00 0.000000000000000000e+00 1.702918460686031477e+00
1.250000000000000069e-02 1.427310000000000037e-02 6.616857522132407743e-01
0.000000000000000000e+00 9.157119999999999496e-04 1.318067208458475026e+00
0.000000000000000000e+00 2.913279999999999863e-04 2.042808297700370979e+00
1.562500000000000000e-02 1.867970000000000047e-03 4.145862487799992557e+00
2.812500000000000069e-02 3.112320000000000017e-03 3.609233976556975421e+00
1.874999999999999931e-02 2.868739999999999832e-03 1.867459763374391013e+00
9.374999999999999653e-03 9.736759999999999859e-02 1.366499399270348913e+00
1.874999999999999931e-02 2.555009999999999920e-03 1.131234223311027964e+00
3.125000000000000000e-02 2.909060000000000205e-03 4.809960283752084953e-01
0.000000000000000000e+00 1.452989999999999924e-03 3.365552529102022294e+00
2.500000000000000139e-02 3.278399999999999891e-03 1.809628710865037071e+00
3.125000000000000173e-03 1.860339999999999910e-02 3.869792237230805121e+00
0.000000000000000000e+00 3.642599999999999988e-05 1.258420053046612086e+00
3.125000000000000173e-03 1.049820000000000059e-01 3.390560705917036621e+00
2.187499999999999861e-02 2.915459999999999927e-03 2.391625774953605177e+00
1.874999999999999931e-02 4.024190000000000406e-03 1.522155540130396112e+00
0.000000000000000000e+00 4.619970000000000153e-03 4.405499699309373796e+00
0.000000000000000000e+00 1.124290000000000012e-03 4.700734465149937868e+00
0.000000000000000000e+00 1.182529999999999996e-03 4.444770342097442928e+00
0.000000000000000000e+00 7.313460000000000143e-04 6.168628973587714226e-01
0.000000000000000000e+00 9.223680000000000160e-04 1.089806327320276935e+00
0.000000000000000000e+00 1.654109999999999991e-05 4.499967757417977499e-01
0.000000000000000000e+00 4.991489999999999469e-04 3.475217898564610941e+00
3.749999999999999861e-02 9.376020000000000187e-02 4.506186625596978246e+00
0.000000000000000000e+00 3.112960000000000033e-02 3.551690920632379012e+00
0.000000000000000000e+00 0.000000000000000000e+00 7.869964365997261790e-01
3.125000000000000173e-03 9.744609999999999383e-02 1.643048205105613890e+00
0.000000000000000000e+00 1.026299999999999955e-03 2.420837301115890572e+00
1.125000000000000028e-01 9.307210000000000483e-02 1.495984060180459707e+00
0.000000000000000000e+00 1.001790000000000016e-03 3.789910258130413823e+00
3.125000000000000173e-03 9.825720000000000287e-02 2.893080070415830374e+00
1.562500000000000000e-02 2.628609999999999974e-03 7.815819204545987331e-01
1.562500000000000000e-02 1.808190000000000101e-03 3.761313866057018451e+00
3.125000000000000173e-03 1.793990000000000168e-02 7.376627558579074151e-01
0.000000000000000000e+00 1.473909999999999934e-03 4.963931616589582596e+00
3.125000000000000173e-03 9.262679999999999525e-02 3.700474621893668381e+00
0.000000000000000000e+00 4.156580000000000105e-04 4.360411851642967740e+00
6.250000000000000347e-03 4.406779999999999899e-03 1.123630690165256407e+00
9.374999999999999653e-03 2.656449999999999870e-03 4.213244195142451520e-01
3.125000000000000173e-03 9.861219999999999708e-02 8.352193795583340297e-01
0.000000000000000000e+00 1.062980000000000045e-03 2.305550863282080254e+00
2.812500000000000069e-02 1.798340000000000051e-03 8.521185893025762237e-01
0.000000000000000000e+00 1.484419999999999967e-03 1.818956422718536192e+00
0.000000000000000000e+00 3.987420000000000200e-03 1.938121640044441651e+00
0.000000000000000000e+00 1.017920000000000066e-03 1.581987787163341430e-01
0.000000000000000000e+00 1.363779999999999984e-03 4.389754270149551552e+00
2.187499999999999861e-02 1.016509999999999983e-02 4.593959837362445064e+00
3.125000000000000000e-02 9.323149999999999493e-02 1.802614611943301748e+00
1.874999999999999931e-02 2.607229999999999964e-02 1.640141245267141112e+00
1.250000000000000069e-02 1.978109999999999938e-03 2.268393349523569302e+00
0.000000000000000000e+00 7.305120000000000016e-04 4.450250568197465562e+00
1.874999999999999931e-02 1.485060000000000069e-03 3.153269200354706925e+00
0.000000000000000000e+00 9.986199999999999764e-04 2.686465123395181287e+00
0.000000000000000000e+00 2.694980000000000032e-03 4.429998135604855669e+00
6.250000000000000347e-03 7.535489999999999723e-03 1.019131165318171162e+00
6.250000000000000347e-03 3.184380000000000110e-03 7.480940862761964461e-01
1.874999999999999931e-02 2.006270000000000102e-03 7.782391330238869198e-01
0.000000000000000000e+00 5.255680000000000421e-03 1.066353105364572063e+00
1.562500000000000000e-02 4.525890000000000295e-03 1.367019203613645262e-01
3.125000000000000173e-03 1.173889999999999916e-03 2.055522868663545166e-01
0.000000000000000000e+00 5.767549999999999760e-03 4.070979786763892605e+00
0.000000000000000000e+00 2.260559999999999919e-05 2.913525619097583341e+00
0.000000000000000000e+00 1.442820000000000040e-03 3.105617954586727514e+00
6.250000000000000347e-03 4.415230000000000023e-03 3.832982820591288586e+00
1.562500000000000000e-02 9.989679999999999394e-02 1.852294697954217195e+00
1.562500000000000000e-02 2.682499999999999989e-03 1.293074839467811987e+00
0.000000000000000000e+00 1.066820000000000008e-03 4.498194727907956825e+00
0.000000000000000000e+00 1.143799999999999938e-03 2.120829923440057385e+00
1.874999999999999931e-02 1.972989999999999987e-03 4.598390302604330238e+00
1.562500000000000000e-02 9.782639999999999392e-02 1.960318631247368160e+00
2.187499999999999861e-02 9.398439999999999572e-02 4.353197723179270007e+00
6.250000000000000347e-03 2.919230000000000089e-03 4.531482293172967246e+00
0.000000000000000000e+00 1.330980000000000054e-03 4.888961372562616869e-01
0.000000000000000000e+00 9.541120000000000156e-04 9.777897955286585230e-01
0.000000000000000000e+00 5.092809999999999915e-04 3.643188346427076674e+00
0.000000000000000000e+00 6.156640000000000333e-04 2.954109943035887476e+00
2.187499999999999861e-02 2.977019999999999927e-03 8.602467024666327067e-02
3.749999999999999861e-02 9.430660000000000431e-02 1.491982578097099221e+00
1.562500000000000000e-02 1.796099999999999910e-03 4.356398455504203682e+00
9.374999999999999653e-03 1.925120000000000000e-03 5.284656692984723847e-02
3.125000000000000173e-03 1.516200000000000013e-02 4.802127660229010608e+00
0.000000000000000000e+00 1.680960000000000006e-03 2.280954965946556889e+00
2.500000000000000139e-02 3.194370000000000195e-03 5.228099745788949981e-01
1.562500000000000000e-02 2.206459999999999932e-03 2.813641442644760460e+00
2.187499999999999861e-02 1.537469999999999982e-03 6.134558585348376392e-01
0.000000000000000000e+00 0.000000000000000000e+00 1.938721923505865696e+00
0.000000000000000000e+00 1.140100000000000011e-03 2.969127501618654019e+00
0.000000000000000000e+00 1.581440000000000092e-04 3.004984024070617821e+00
0.000000000000000000e+00 1.217479999999999951e-02 2.231732370630515216e+00
0.000000000000000000e+00 1.269120000000000100e-03 7.035070265331405670e-01
0.000000000000000000e+00 1.495840000000000017e-03 2.030278975298634325e+00
1.250000000000000069e-02 2.210820000000000059e-03 1.288215823624011547e+00
0.000000000000000000e+00 1.164000000000000104e-03 1.621422228649883612e+00
0.000000000000000000e+00 4.166840000000000105e-04 3.315831262620402065e+00
1.250000000000000069e-02 9.346160000000000578e-02 3.371812136933604265e+00
0.000000000000000000e+00 4.265790000000000207e-03 6.807058236403706886e-01
3.125000000000000173e-03 1.677499999999999955e-03 8.657625007262992334e-01
0.000000000000000000e+00 1.450989999999999919e-02 4.806509272721835480e+00
0.000000000000000000e+00 2.889599999999999981e-03 1.456840662061018588e+00
0.000000000000000000e+00 1.058750000000000012e-03 1.800893922175593076e+00
3.125000000000000173e-03 1.061200000000000060e-01 9.572349074212171960e-02
0.000000000000000000e+00 3.412160000000000019e-03 3.973463611411232499e+00
6.250000000000000347e-03 1.490529999999999980e-02 2.650550352681435129e+00
0.000000000000000000e+00 9.143590000000000051e-04 2.674203112752445932e+00
0.000000000000000000e+00 1.139760000000000079e-03 5.249183310478366948e-01
0.000000000000000000e+00 8.353559999999999892e-04 9.560365872039405799e-01
1.562500000000000000e-02 2.516579999999999859e-02 1.714234171482820646e+00
9.374999999999999653e-03 9.746789999999999621e-02 2.760361938430730522e+00
0.000000000000000000e+00 2.795210000000000229e-04 3.906195465998600458e+00
9.374999999999999653e-03 1.890750000000000069e-03 1.943226714390304810e+00
2.187499999999999861e-02 3.037250000000000019e-03 1.265209740370772939e+00
3.125000000000000173e-03 4.467650000000000093e-03 1.791441141275933902e+00
0.000000000000000000e+00 1.015740000000000002e-03 4.682917245771039738e+00
0.000000000000000000e+00 9.263360000000000431e-04 7.388642094168645924e-01
3.125000000000000173e-03 1.858239999999999935e-03 4.680217898673271648e+00
2.812500000000000069e-02 3.167329999999999885e-03 3.656520761312986867e-01
9.374999999999999653e-03 3.830529999999999959e-03 1.077058034108892004e+00
6.250000000000000347e-03 4.498689999999999634e-03 4.686379200664237743e+00
9.374999999999999653e-03 1.024950000000000028e-01 2.463995201587035222e+00
0.000000000000000000e+00 1.355859999999999965e-03 4.541180452572552539e+00
1.562500000000000000e-02 4.781180000000000326e-03 2.228766410497944328e+00
0.000000000000000000e+00 1.637500000000000067e-03 2.082857716522779512e+00
6.562500000000000278e-02 4.059349999999999764e-02 1.979937643452423401e+00
0.000000000000000000e+00 2.309630000000000016e-03 3.199500581264996146e+00
0.000000000000000000e+00 4.448900000000000424e-03 1.386211263186524212e+00
0.000000000000000000e+00 2.095359999999999942e-04 1.221400168495370586e+00
3.125000000000000173e-03 7.115580000000000516e-02 3.495325578941208988e+00
0.000000000000000000e+00 2.283889999999999914e-05 4.488183541464938031e+00
0.000000000000000000e+00 4.195059999999999913e-04 1.344780162836897830e+00
2.187499999999999861e-02 2.361980000000000069e-03 9.439129449637612135e-01
0.000000000000000000e+00 1.066110000000000104e-03 4.684912715634547808e+00
0.000000000000000000e+00 5.296640000000000029e-04 2.200155559776593162e+00
0.000000000000000000e+00 1.115139999999999925e-03 2.182770519577854618e+00
0.000000000000000000e+00 6.261119999999999576e-04 1.763776319598936437e+00
0.000000000000000000e+00 3.173890000000000045e-02 3.265418167763762813e+00
0.000000000000000000e+00 8.339200000000000388e-05 1.202051375077066719e+00
0.000000000000000000e+00 1.623040000000000073e-03 7.997267008604019844e-01
3.125000000000000000e-02 1.310719999999999941e-02 3.728455674418762467e-02
0.000000000000000000e+00 3.539069999999999846e-04 2.549127331379374972e-01
0.000000000000000000e+00 7.417339999999999697e-04 1.970104048545165965e+00
6.250000000000000347e-03 1.817220000000000033e-03 1.326117299003817251e+00
1.562500000000000000e-02 2.621179999999999864e-03 9.345271053233639158e-01
5.625000000000000139e-02 9.250859999999999639e-02 9.310581267000883621e-01
1.562500000000000000e-02 1.754240000000000009e-03 1.284942815180096787e+00
0.000000000000000000e+00 1.488000000000000119e-04 2.746568622307917096e+00
6.250000000000000347e-03 2.679099999999999798e-03 2.368304701010048863e+00
3.125000000000000173e-03 4.693570000000000207e-03 1.500115541241040962e+00
0.000000000000000000e+00 1.108669999999999968e-03 2.911416221776953250e+00
0.000000000000000000e+00 6.724790000000000238e-04 4.642753318204240198e-01
3.437500000000000278e-02 9.198119999999999907e-02 2.285934506616259299e+00
0.000000000000000000e+00 7.133260000000000208e-04 5.260429650424891523e-02
1.874999999999999931e-02 3.532930000000000098e-03 3.460915712143914469e+00
3.125000000000000173e-03 1.588159999999999919e-03 4.859848249874555215e+00
0.000000000000000000e+00 1.410010000000000083e-02 2.462730661443057745e-01
0.000000000000000000e+00 3.762820000000000054e-03 4.326430863126612181e+00
1.562500000000000000e-02 1.746050000000000076e-03 1.247035422867626586e+00
2.500000000000000139e-02 2.499840000000000135e-03 9.880679548558141123e-01
0.000000000000000000e+00 4.150170000000000009e-04 1.797800503867593047e+00
0.000000000000000000e+00 7.240989999999999666e-04 2.203924838241650530e+00
1.874999999999999931e-02 1.858049999999999979e-03 3.031844299009493149e+00
0.000000000000000000e+00 4.539710000000000273e-02 1.695452820289591767e+00
0.000000000000000000e+00 2.223670000000000006e-05 9.631903433771782375e-01
2.187499999999999861e-02 1.585730000000000039e-03 8.867187897267064800e-01
1.250000000000000069e-02 1.131389999999999913e-03 2.326329387124292936e-01
0.000000000000000000e+00 4.213010000000000106e-04 4.715997296440300524e+00
0.000000000000000000e+00 4.944829999999999885e-03 1.172278297800284808e+00
1.562500000000000000e-02 2.057470000000000045e-03 1.747618111562072141e+00
3.125000000000000173e-03 4.126340000000000043e-03 2.779591027890597310e+00
2.812500000000000069e-02 1.917759999999999907e-03 7.946807945336425982e-01
3.125000000000000173e-03 6.689520000000000015e-03 6.746878837734349155e-01
3.125000000000000173e-03 1.743559999999999902e-03 2.988273186904399470e+00
0.000000000000000000e+00 2.307760000000000077e-05 3.959134041509325019e+00
3.125000000000000173e-03 8.388610000000000511e-02 4.082844424258739835e+00
1.562500000000000000e-02 9.664849999999999830e-02 2.373159555521151098e+00
6.250000000000000347e-03 1.012350000000000055e-01 3.588323934630708756e+00
3.125000000000000173e-03 1.566019999999999912e-02 1.779116072329569143e+00
0.000000000000000000e+00 4.949819999999999741e-03 4.457887518462118948e+00
0.000000000000000000e+00 5.067160000000000457e-04 8.633846994942490083e-01
0.000000000000000000e+00 9.462300000000000528e-04 3.923194490382890809e+00
3.125000000000000000e-02 1.514809999999999941e-02 1.212649531812786119e+00
3.125000000000000173e-03 1.270269999999999993e-03 2.940685256911418577e+00
0.000000000000000000e+00 1.675899999999999916e-03 2.412043620016710133e+00
0.000000000000000000e+00 7.271779999999999824e-04 1.784320860771933415e+00
0.000000000000000000e+00 4.174539999999999913e-04 4.788405872732644397e+00
3.125000000000000173e-03 1.846269999999999899e-03 3.449487368693056055e+00
2.500000000000000139e-02 2.144899999999999932e-03 2.107446549115604029e+00
0.000000000000000000e+00 4.465019999999999883e-04 2.498609656087435127e+00
1.562500000000000000e-02 1.904899999999999953e-03 4.484099189329167956e+00
0.000000000000000000e+00 3.706879999999999854e-04 2.178457887755497424e+00
0.000000000000000000e+00 1.001340000000000086e-03 4.744568993918664823e+00
0.000000000000000000e+00 1.409220000000000091e-03 1.955424364606412890e+00
6.250000000000000347e-03 3.417859999999999995e-03 1.376170662575860071e+00
2.187499999999999861e-02 1.826619999999999936e-03 1.924973287443493941e+00
3.125000000000000173e-03 3.389060000000000163e-03 3.048091320022339179e+00
0.000000000000000000e+00 1.114689999999999995e-03 1.411545509114781050e-01
1.250000000000000069e-02 2.018240000000000138e-03 3.218955570506367270e+00
0.000000000000000000e+00 1.167550000000000055e-03 2.745573867400075141e-01
0.000000000000000000e+00 5.279999999999999971e-03 3.807373560902146181e+00
0.000000000000000000e+00 4.114770000000000233e-03 3.738497367359931545e+00
0.000000000000000000e+00 1.074819999999999985e-03 3.760514971783753602e+00
6.250000000000000347e-03 9.835979999999999723e-02 3.153587544204641269e+00
0.000000000000000000e+00 4.134780000000000009e-04 8.438862215460390948e-01
3.125000000000000173e-03 1.802620000000000004e-03 7.015377901465552624e-01
1.562500000000000000e-02 9.728000000000000536e-02 3.180343038300128988e+00
0.000000000000000000e+00 1.221779999999999915e-02 7.537606933823509658e-01
0.000000000000000000e+00 2.261759999999999812e-03 7.750107140156392571e-01
0.000000000000000000e+00 1.057219999999999991e-03 1.278473171501126604e+00
3.125000000000000173e-03 1.551489999999999987e-03 3.244318454174216493e-01
0.000000000000000000e+00 1.023500000000000104e-03 3.617272092474066891e+00
0.000000000000000000e+00 9.406080000000000040e-04 3.180100046043754958e+00
0.000000000000000000e+00 5.094400000000000013e-04 1.477032335827991316e+00
0.000000000000000000e+00 5.258050000000000224e-03 2.840862968086750318e+00
0.000000000000000000e+00 3.818690000000000018e-03 3.656664977952922557e-01
0.000000000000000000e+00 3.750030000000000008e-04 1.887790260009961640e+00
3.437500000000000278e-02 1.068090000000000012e-01 3.333773811452849678e+00
0.000000000000000000e+00 1.179039999999999949e-02 3.245684524182769870e+00
1.562500000000000000e-02 1.071160000000000029e-01 1.174000007253002575e+00
0.000000000000000000e+00 9.850239999999999257e-04 1.539727332893195966e+00
3.125000000000000173e-03 7.253500000000000399e-03 3.924709994119757184e-03
0.000000000000000000e+00 2.799680000000000137e-03 2.946733343216040524e+00
2.500000000000000139e-02 3.506110000000000216e-03 1.956851399483072296e+00
2.500000000000000139e-02 3.088829999999999874e-03 3.492549368670853305e+00
1.562500000000000000e-02 1.520379999999999995e-03 2.710383075775317785e+00
0.000000000000000000e+00 1.543169999999999958e-03 4.957607399643611856e+00
0.000000000000000000e+00 4.499840000000000068e-04 3.740338818414202571e+00
0.000000000000000000e+00 1.109629999999999905e-03 1.505189159528260712e+00
3.125000000000000173e-03 3.756980000000000042e-03 4.630395970952325690e+00
2.812500000000000069e-02 2.493470000000000061e-02 3.407237950371855728e+00
0.000000000000000000e+00 2.287109999999999859e-05 2.224038526704589902e+00
0.000000000000000000e+00 2.302099999999999863e-05 7.442202483173715466e-01
0.000000000000000000e+00 1.944929999999999923e-02 1.137112805775337243e+00
0.000000000000000000e+00 6.340480000000000118e-04 1.075052126610420711e+00
0.000000000000000000e+00 1.033889999999999983e-03 3.460393058301620695e+00
1.874999999999999931e-02 9.325329999999999731e-02 3.782477045805928029e+00
0.000000000000000000e+00 1.034369999999999951e-03 1.598065163914111908e+00
0.000000000000000000e+00 1.742079999999999963e-04 4.557131027089896591e+00
0.000000000000000000e+00 1.200380000000000023e-03 2.926871668133584903e-01
1.250000000000000069e-02 2.632830000000000066e-03 1.244448876094406575e+00
3.125000000000000173e-03 3.255399999999999960e-02 4.459631236378934993e+00
3.125000000000000173e-03 1.511229999999999908e-03 1.213342388785975112e+00
2.187499999999999861e-02 2.218239999999999795e-03 1.255956488872153054e+00
0.000000000000000000e+00 1.000959999999999957e-03 2.722024646041451668e+00
2.500000000000000139e-02 3.305789999999999857e-03 3.986089204884726289e+00
0.000000000000000000e+00 7.075550000000000112e-04 1.230638466178624046e+00
0.000000000000000000e+00 3.651010000000000106e-03 3.590972170984923384e+00
3.125000000000000173e-03 9.222210000000000130e-02 3.991842448550273925e+00
1.562500000000000000e-02 1.557119999999999945e-03 4.642329357055911210e+00
9.374999999999999653e-03 1.494909999999999902e-03 4.188144041896368464e+00
1.562500000000000000e-02 1.761149999999999955e-03 3.458122186829060141e-02
0.000000000000000000e+00 1.022139999999999941e-03 3.872031604190274479e+00
6.250000000000000347e-03 1.683199999999999931e-03 1.957027830078635899e+00
2.187499999999999861e-02 1.144899999999999911e-03 4.746777059863199533e+00
0.000000000000000000e+00 1.046140000000000091e-03 3.260588461115010439e-01
0.000000000000000000e+00 7.718399999999999827e-04 2.449833504839276532e+00
7.499999999999999722e-02 4.073109999999999925e-02 9.919328447576802876e-01
0.000000000000000000e+00 3.764780000000000231e-04 7.338470070192376626e-01
0.000000000000000000e+00 1.911679999999999966e-04 2.970188304862146467e+00
0.000000000000000000e+00 0.000000000000000000e+00 3.606990500917723885e+00
8.437500000000000555e-02 8.059669999999999335e-02 3.517843474144046301e+00
2.187499999999999861e-02 1.070099999999999940e-01 2.998728577874523182e+00
0.000000000000000000e+00 7.831679999999999935e-04 5.002814172732239495e-02
3.125000000000000000e-02 4.742129999999999956e-02 4.071305467903723496e+00
7.187499999999999445e-02 4.013860000000000344e-02 5.797683550175819489e-01
6.250000000000000347e-03 1.743619999999999979e-03 1.921640176936432631e+00
0.000000000000000000e+00 1.072639999999999922e-03 1.234917942806263991e+00
0.000000000000000000e+00 9.199359999999999959e-04 4.149613362652819326e+00
0.000000000000000000e+00 4.344770000000000403e-03 5.990882678964570829e-01
3.749999999999999861e-02 9.167079999999999673e-02 8.259384754092602421e-01
0.000000000000000000e+00 2.365859999999999838e-02 4.415921544729458859e+00
0.000000000000000000e+00 9.914880000000000047e-04 3.246037206517737417e+00
0.000000000000000000e+00 1.039739999999999935e-03 2.956901140264707184e+00
0.000000000000000000e+00 4.252770000000000009e-04 1.815278229860839421e-01
0.000000000000000000e+00 2.255400000000000113e-02 2.671433745650975133e-01
9.374999999999999653e-03 2.210049999999999862e-03 2.439456647835723579e+00
2.500000000000000139e-02 4.156189999999999884e-02 6.143424596494861945e-01
0.000000000000000000e+00 7.107199999999999716e-04 2.526622824399799017e-01
1.874999999999999931e-02 3.148670000000000115e-03 4.193356167082865404e+00
0.000000000000000000e+00 1.207579999999999938e-02 2.256923968340221798e+00
0.000000000000000000e+00 4.545919999999999735e-04 5.245170863093140401e-01
0.000000000000000000e+00 1.117699999999999900e-03 2.052534143594637150e+00
0.000000000000000000e+00 1.032380000000000060e-03 2.701275572073900122e+00
0.000000000000000000e+00 7.321790000000000112e-04 2.532614064626603767e+00
1.250000000000000069e-02 3.106590000000000046e-02 3.758566847972954594e+00
0.000000000000000000e+00 7.917449999999999488e-03 4.199019165687227328e+00
0.000000000000000000e+00 7.308329999999999601e-04 1.997358124683505487e+00
4.374999999999999722e-02 9.292279999999999984e-02 1.373954557632867779e+00
0.000000000000000000e+00 1.000000000000000021e-03 7.544375118932689084e-02
0.000000000000000000e+00 3.937920000000000136e-04 4.597474700870690434e+00
0.000000000000000000e+00 6.467900000000000385e-03 7.300998327310237457e-02
0.000000000000000000e+00 2.532480000000000256e-04 2.056420158542971333e+00
6.250000000000000347e-03 9.607350000000000612e-02 2.648085440255321110e-01
1.874999999999999931e-02 2.126719999999999913e-03 7.902276310818129312e-01
0.000000000000000000e+00 6.293920000000000070e-02 1.720839416381910070e+00
0.000000000000000000e+00 4.045650000000000136e-04 3.407933200411532138e+00
3.125000000000000173e-03 4.854080000000000200e-03 5.420637893626972792e-01
9.374999999999999653e-03 1.693309999999999954e-03 3.575186123785805581e+00
1.874999999999999931e-02 2.448060000000000166e-03 5.319905643880296076e-02
0.000000000000000000e+00 1.305340000000000103e-03 1.632859550838027918e+00
0.000000000000000000e+00 6.726069999999999792e-04 3.928066873566457673e+00
0.000000000000000000e+00 5.859150000000000035e-04 1.000695742440953495e+00
2.812500000000000069e-02 2.323459999999999848e-03 5.375442487757714494e-01
0.000000000000000000e+00 9.596799999999999732e-04 4.527717104614496613e+00
0.000000000000000000e+00 1.155079999999999952e-03 4.519661493272175701e-01
0.000000000000000000e+00 3.609670000000000240e-02 4.938370333068118789e+00
3.125000000000000173e-03 5.768729999999999691e-02 5.081324230963690791e-01
0.000000000000000000e+00 5.837310000000000068e-03 1.628038066297762931e+00
0.000000000000000000e+00 9.783680000000000761e-04 4.194412631471847952e+00
0.000000000000000000e+00 1.021629999999999934e-03 4.173090456465296860e+00
2.812500000000000069e-02 3.219389999999999925e-03 3.078931416201691196e-01
1.874999999999999931e-02 1.767359999999999938e-03 3.356894340286515455e+00
3.125000000000000173e-03 1.133310000000000003e-03 2.100299775092534738e+00
0.000000000000000000e+00 2.233600000000000028e-04 3.530607959453170963e+00
0.000000000000000000e+00 1.133059999999999970e-03 1.583819586455370576e-02
3.125000000000000173e-03 1.516610000000000050e-03 5.803171985646737863e-01
6.250000000000000347e-03 1.731120000000000055e-03 1.726931666948919863e+00
2.812500000000000069e-02 2.797379999999999919e-03 1.286404140682225750e+00
0.000000000000000000e+00 1.159300000000000044e-03 1.727431962307972579e+00
0.000000000000000000e+00 4.485699999999999583e-03 3.895731632560490265e+00
3.125000000000000173e-03 2.260030000000000112e-03 4.001816900350588568e+00
0.000000000000000000e+00 2.178559999999999958e-03 4.828250718478803272e+00
3.125000000000000173e-03 1.926929999999999962e-02 6.821050802430583815e-01
6.250000000000000347e-03 9.688869999999999427e-02 1.529929201709814279e+00
0.000000000000000000e+00 9.171200000000000012e-04 2.600182930419601579e+00
6.250000000000000347e-03 1.860609999999999955e-03 3.150964582009893711e+00
2.187499999999999861e-02 2.163899999999999851e-03 2.747616201077990983e+00
3.125000000000000173e-03 2.650819999999999912e-03 1.540385740994561381e+00
1.562500000000000000e-02 1.400580000000000011e-03 1.425359164386681865e+00
0.000000000000000000e+00 1.035260000000000086e-03 3.896015847399556087e+00
0.000000000000000000e+00 4.958660000000000151e-03 4.437450645445506492e-01
0.000000000000000000e+00 6.451840000000000352e-04 1.127007620035049396e+00
1.874999999999999931e-02 2.965629999999999915e-03 4.766384059761660907e+00
0.000000000000000000e+00 4.427839999999999727e-03 2.833147794986184298e+00
0.000000000000000000e+00 5.785919999999999952e-03 4.436177629514824083e+00
0.000000000000000000e+00 2.991359999999999766e-04 2.274434365762179056e-01
0.000000000000000000e+00 1.941419999999999951e-02 1.970249756848769795e+00
0.000000000000000000e+00 3.903360000000000250e-04 3.586101018133363016e+00
0.000000000000000000e+00 4.427959999999999882e-03 2.869891666966097432e+00
0.000000000000000000e+00 1.828030000000000019e-03 4.107306999375694545e+00
0.000000000000000000e+00 8.416639999999999972e-04 4.252733294867956815e+00
2.500000000000000139e-02 1.733310000000000059e-03 4.067731832462458286e+00
0.000000000000000000e+00 3.753339999999999975e-03 3.598355501041544890e+00
2.500000000000000139e-02 2.954940000000000084e-03 4.618536954723212240e+00
0.000000000000000000e+00 1.496100000000000034e-02 3.689105433426794090e+00
9.374999999999999653e-03 9.172760000000000635e-02 3.238489706233700360e+00
2.187499999999999861e-02 9.565400000000000291e-02 4.872460960404808361e+00
0.000000000000000000e+00 4.046930000000000232e-04 2.617498968424896155e+00
0.000000000000000000e+00 4.107849999999999913e-04 4.357718264904926642e+00
0.000000000000000000e+00 1.916029999999999990e-03 1.236778637449560403e+00
3.125000000000000000e-02 4.137339999999999768e-03 4.666302607892325316e-01
3.125000000000000173e-03 1.722970000000000100e-03 2.343550205281943910e+00
6.250000000000000347e-03 2.479199999999999980e-03 7.263530447930749423e-01
0.000000000000000000e+00 4.327410000000000284e-03 1.651556683183716956e+00
1.250000000000000069e-02 3.814459999999999986e-03 3.258126844840242287e-01
0.000000000000000000e+00 2.730250000000000038e-03 2.930292095765151927e+00
0.000000000000000000e+00 2.869759999999999846e-03 7.481913802190193197e-01
0.000000000000000000e+00 7.210860000000000143e-04 4.297123044183004392e-01
1.874999999999999931e-02 2.462080000000000171e-03 3.487071761332501296e+00
0.000000000000000000e+00 1.752450000000000015e-03 2.939264127679774852e+00
0.000000000000000000e+00 1.440770000000000071e-03 2.285707146167565540e+00
0.000000000000000000e+00 8.958720000000000312e-04 4.513915409726729777e+00
3.125000000000000173e-03 3.805820000000000123e-03 3.286967716105123394e+00
2.187499999999999861e-02 3.604609999999999845e-03 4.191416781777117961e+00
0.000000000000000000e+00 7.927680000000000100e-04 4.307592224033472306e+00
6.250000000000000347e-03 2.143299999999999893e-03 4.558581245350116440e+00
0.000000000000000000e+00 3.183160000000000199e-04 2.686982713117302524e+00
1.874999999999999931e-02 2.897020000000000151e-03 3.649616647296695326e+00
2.187499999999999861e-02 2.448189999999999828e-03 1.697046954345229786e+00
2.500000000000000139e-02 2.713090000000000033e-03 4.203843499595420141e+00
0.000000000000000000e+00 7.180720000000000462e-04 4.344673045865818040e+00
1.562500000000000000e-02 9.585280000000000493e-04 2.738664629663345451e-01
2.187499999999999861e-02 2.314109999999999865e-03 4.350692519080295639e+00
9.374999999999999653e-03 1.225729999999999962e-03 3.081865343188515016e+00
1.562500000000000000e-02 2.582399999999999887e-03 4.636526125053765490e+00
3.125000000000000173e-03 4.796670000000000274e-03 4.317262422729943872e+00
0.000000000000000000e+00 4.409880000000000137e-04 2.007409057670681563e+00
3.125000000000000173e-03 1.945979999999999932e-03 2.675958890833902259e+00
0.000000000000000000e+00 5.287750000000000089e-02 9.971530900573744027e-01
1.562500000000000000e-02 2.435969999999999976e-03 2.147382484152815518e-01
3.125000000000000173e-03 1.726569999999999971e-03 1.588367056636310171e+00
3.125000000000000173e-03 1.881410000000000027e-03 4.362375214544585766e+00
0.000000000000000000e+00 1.010229999999999982e-03 3.778698342730279158e+00
4.374999999999999722e-02 9.313219999999999832e-02 3.049398041353894140e+00
0.000000000000000000e+00 6.279680000000000158e-04 3.376277445268160982e+00
1.562500000000000000e-02 2.643009999999999891e-03 4.636015098655414945e+00
0.000000000000000000e+00 2.633600000000000264e-04 8.187554599825047630e-01
0.000000000000000000e+00 9.596949999999999925e-04 3.442994734848298100e-01
1.250000000000000069e-02 2.536259999999999817e-03 4.989241424140674397e+00
0.000000000000000000e+00 4.640000000000000027e-04 2.259340386591469851e+00
0.000000000000000000e+00 3.792000000000000015e-04 3.813730531748266150e-01
3.125000000000000173e-03 9.993960000000000343e-02 3.458942576788152756e+00
0.000000000000000000e+00 9.153920000000000069e-04 3.810736710026391805e+00
0.000000000000000000e+00 6.877819999999999767e-03 2.685536466569077518e+00
9.374999999999999653e-03 1.152639999999999915e-03 1.321958560620184908e+00
0.000000000000000000e+00 8.972799999999999743e-04 3.487147991104300626e+00
1.562500000000000000e-02 2.994559999999999843e-03 7.309381611895676700e-01
9.374999999999999653e-03 1.694210000000000030e-03 1.860305429046642534e+00
6.250000000000000347e-03 9.671409999999999729e-02 7.497390838003575864e-01
0.000000000000000000e+00 1.194879999999999944e-03 7.805820339243763062e-01
1.562500000000000000e-02 2.465469999999999988e-03 4.208124555777055242e+00
0.000000000000000000e+00 1.063939999999999981e-03 1.110082313662426490e+00
0.000000000000000000e+00 5.891159999999999886e-04 9.024054313882878819e-01
1.250000000000000069e-02 2.740929999999999929e-03 2.835696002564087159e+00
0.000000000000000000e+00 9.886719999999999016e-04 2.159498858106874142e+00
0.000000000000000000e+00 5.644930000000000260e-03 4.460287836756611668e+00
2.187499999999999861e-02 2.867199999999999870e-03 4.973560242658362718e+00
0.000000000000000000e+00 3.657539999999999923e-03 4.731332478341138348e+00
0.000000000000000000e+00 2.356099999999999861e-03 4.403931274437565158e+00
4.062500000000000139e-02 1.031370000000000030e-02 2.695012868204897938e+00
2.187499999999999861e-02 1.820159999999999920e-03 2.518129472073264097e+00
3.125000000000000173e-03 1.867259999999999927e-03 1.328487723739687487e+00
1.874999999999999931e-02 9.308299999999999907e-02 9.475281088063186585e-01
0.000000000000000000e+00 2.278519999999999997e-05 2.078077714968401546e-01
0.000000000000000000e+00 2.600059999999999958e-03 7.102822941098391185e-01
4.687500000000000000e-02 9.143439999999999901e-02 2.810941968193667595e+00
2.187499999999999861e-02 2.132419999999999888e-03 2.236395794609538967e+00
0.000000000000000000e+00 1.569109999999999949e-02 5.764955804996724220e-01
0.000000000000000000e+00 6.614490000000000430e-04 4.507992690756455367e+00
2.187499999999999861e-02 3.050429999999999808e-03 4.593566950641381652e+00
0.000000000000000000e+00 4.505600000000000230e-04 2.328064234205112548e+00
1.250000000000000069e-02 2.082300000000000036e-03 4.021479556548874790e+00
0.000000000000000000e+00 1.775099999999999942e-03 3.969549807957184484e-01
5.937499999999999722e-02 1.052270000000000011e-01 3.191722929002836828e+00
1.562500000000000000e-02 2.219969999999999929e-03 4.786821236426780368e-01
3.125000000000000173e-03 9.076890000000000652e-03 5.382704183706848999e-01
0.000000000000000000e+00 4.628479999999999921e-03 2.259969529414543210e+00
3.749999999999999861e-02 9.084449999999999470e-02 4.148988962892768306e+00
0.000000000000000000e+00 6.001459999999999694e-04 4.981926793851448876e-01
0.000000000000000000e+00 2.497660000000000071e-03 3.457150834402973327e+00
1.874999999999999931e-02 3.280379999999999841e-03 4.976077150863988940e-01
0.000000000000000000e+00 4.915839999999999880e-04 2.810673860000671542e+00
0.000000000000000000e+00 4.555440000000000010e-04 3.303280610014401653e+00
0.000000000000000000e+00 3.642369999999999809e-03 1.518897196550522688e-01
0.000000000000000000e+00 1.098879999999999996e-03 3.953575209698759085e+00
0.000000000000000000e+00 2.794819999999999943e-03 6.071238768144032738e-01
0.000000000000000000e+00 1.497820000000000054e-02 4.865419665406445215e-01
2.500000000000000139e-02 5.129220000000000307e-03 1.624618631159073345e+00
0.000000000000000000e+00 1.877760000000000128e-04 1.910337129815322221e+00
3.125000000000000173e-03 1.961589999999999862e-02 6.181405684263230338e-02
0.000000000000000000e+00 1.166719999999999997e-03 1.207060764753842719e+00
6.250000000000000347e-03 3.689790000000000084e-03 5.088609040856129084e-01
9.062499999999999722e-02 3.538199999999999679e-02 4.243772473711615589e-01
0.000000000000000000e+00 5.351040000000000050e-04 2.022951223820470990e+00
0.000000000000000000e+00 1.578879999999999899e-04 4.007747043404862097e+00
3.125000000000000173e-03 3.660669999999999983e-03 4.269948941151517019e+00
0.000000000000000000e+00 1.637250000000000033e-03 1.846523467143017072e+00
1.250000000000000069e-02 1.067019999999999948e-02 3.210820704886228061e+00
3.125000000000000173e-03 8.826419999999999752e-03 3.096302752690660576e+00
0.000000000000000000e+00 1.657590000000000167e-05 3.154159612263346624e+00
3.125000000000000000e-02 9.549910000000000343e-02 4.905888017476850438e-01
6.250000000000000347e-03 2.080770000000000015e-03 4.068766642988247639e+00
2.187499999999999861e-02 1.948609999999999925e-03 9.101370098967814792e-01
1.093750000000000000e-01 7.610440000000000260e-02 2.913122807441942186e+00
0.000000000000000000e+00 2.230700000000000044e-02 3.473427556446822884e+00
2.187499999999999861e-02 2.797060000000000084e-03 2.550640012571046000e+00
0.000000000000000000e+00 2.614850000000000160e-03 4.998581623967838006e+00
3.125000000000000173e-03 1.796290000000000083e-03 1.348845291734616092e+00
0.000000000000000000e+00 2.761410000000000167e-03 4.255002771713641607e+00
0.000000000000000000e+00 3.683529999999999964e-03 1.505535512964796263e+00
3.749999999999999861e-02 9.196450000000000458e-02 1.627326042151550745e+00
3.125000000000000173e-03 2.891519999999999854e-03 4.543151609710815109e+00
0.000000000000000000e+00 1.677380000000000017e-03 2.040996953876805797e+00
1.874999999999999931e-02 5.854929999999999857e-02 1.287476710421980197e+00
0.000000000000000000e+00 1.083380000000000037e-01 4.356820250010837725e+00
0.000000000000000000e+00 1.509779999999999976e-02 2.679253252535310104e+00
0.000000000000000000e+00 1.441730000000000008e-03 1.734607537436315017e+00
2.500000000000000139e-02 3.440830000000000190e-03 4.399421367588860932e+00
0.000000000000000000e+00 3.845839999999999675e-02 4.432917627698951257e+00
5.937499999999999722e-02 1.061229999999999951e-01 1.281813243185448981e+00
6.250000000000000347e-03 3.082619999999999891e-03 3.212572186791038842e+00
0.000000000000000000e+00 4.099509999999999786e-04 4.359700860373155740e-01
2.187499999999999861e-02 2.643899999999999809e-03 2.100671529684956962e+00
0.000000000000000000e+00 4.052060000000000232e-04 4.084592013729526627e+00
3.125000000000000173e-03 4.606459999999999722e-03 4.246074588883892886e+00
2.500000000000000139e-02 3.137979999999999849e-03 2.500050404386644054e+00
0.000000000000000000e+00 3.408449999999999935e-03 4.514593416082552046e+00
0.000000000000000000e+00 1.053499999999999966e-03 1.642388325980183694e+00
9.375000000000000000e-02 9.180889999999999884e-02 1.932425066550367276e+00
3.125000000000000173e-03 1.628859999999999987e-03 1.085682849847324771e-01
0.000000000000000000e+00 6.810880000000000493e-04 1.291485786977541572e+00
3.125000000000000173e-03 9.755310000000000370e-02 2.467816637577819439e+00
9.374999999999999653e-03 2.696060000000000123e-03 4.131739366675455827e+00
2.187499999999999861e-02 2.130839999999999956e-01 4.427458893370755710e+00
9.374999999999999653e-03 8.556800000000000473e-04 4.431984040227088251e+00
0.000000000000000000e+00 7.946879999999999916e-04 4.523991638287106376e+00
0.000000000000000000e+00 7.330769999999999474e-04 2.861313109805838195e+00
0.000000000000000000e+00 1.046910000000000071e-03 2.864470938179994430e+00
0.000000000000000000e+00 4.096300000000000201e-04 1.099096183257515236e+00
0.000000000000000000e+00 1.005309999999999928e-03 4.590356560283959109e-01
7.812500000000000000e-02 2.885889999999999983e-02 1.687947485619652355e+00
0.000000000000000000e+00 7.151360000000000052e-04 2.946275325076908036e-02
0.000000000000000000e+00 3.772469999999999882e-04 2.137830198225188383e+00
2.812500000000000069e-02 2.675900000000000153e-03 2.606592275797976033e+00
2.187499999999999861e-02 3.289919999999999997e-03 2.573794705136994043e+00
0.000000000000000000e+00 1.456999999999999962e-02 1.219338036309652207e+00
1.250000000000000069e-02 2.473219999999999932e-03 2.951299156467435125e+00
0.000000000000000000e+00 2.616380000000000181e-03 1.135410968773200135e+00
0.000000000000000000e+00 7.818880000000000058e-04 1.150968196555961054e+00
1.000000000000000056e-01 1.006110000000000060e-01 1.552317913942192096e+00
3.125000000000000173e-03 1.005709999999999937e-02 2.304207715615518293e+00
0.000000000000000000e+00 7.349369999999999601e-04 3.896888173678999756e+00
6.250000000000000347e-03 3.927230000000000304e-03 2.595293297616053430e+00
1.562500000000000000e-02 2.291839999999999850e-03 4.564739004063824268e+00
1.562500000000000000e-02 2.516579999999999859e-02 4.284324458302302574e+00
0.000000000000000000e+00 9.753599999999999857e-04 2.067397024403805350e+00
5.937499999999999722e-02 9.165539999999999798e-02 1.999455434568056411e+00
0.000000000000000000e+00 2.428669999999999961e-03 1.361339565750279590e+00
3.125000000000000173e-03 1.284479999999999953e-03 5.661872495936193239e-02
0.000000000000000000e+00 3.131840000000000318e-02 2.175745532961682827e+00
0.000000000000000000e+00 1.061320000000000041e-01 2.406516941899838891e+00
1.874999999999999931e-02 2.536000000000000060e-03 2.887249063316776443e+00
1.562500000000000000e-02 2.269760000000000007e-03 1.218342290600777922e+00
0.000000000000000000e+00 1.100480000000000035e-03 3.398470154970162360e-01
0.000000000000000000e+00 3.222669999999999962e-03 4.359018569951345068e-01
2.187499999999999861e-02 2.782530000000000073e-03 8.356917086982912357e-01
1.562500000000000000e-02 9.168729999999999936e-02 3.661870262824010069e+00
0.000000000000000000e+00 9.790619999999999445e-04 2.576412190066956320e+00
0.000000000000000000e+00 1.158659999999999942e-03 4.426143469483750259e+00
0.000000000000000000e+00 9.472000000000000385e-04 2.260466234952800413e+00
0.000000000000000000e+00 5.213060000000000263e-03 2.555024402472269696e+00
0.000000000000000000e+00 1.087869999999999896e-03 4.878258135497440584e+00
6.250000000000000347e-03 2.352830000000000199e-03 4.647709297896316372e+00
1.874999999999999931e-02 2.758210000000000089e-03 7.048858264492452452e-01
0.000000000000000000e+00 9.943040000000001079e-04 1.948544952184129153e+00
2.812500000000000069e-02 9.519460000000000421e-02 3.281536569350451682e-01
0.000000000000000000e+00 5.923200000000000210e-04 2.659476182656215659e+00
2.812500000000000069e-02 9.807259999999999589e-02 4.795647501015785963e+00
1.874999999999999931e-02 2.287420000000000078e-03 2.076047927072368626e+00
0.000000000000000000e+00 7.875840000000000271e-04 3.496704542265231197e+00
2.812500000000000069e-02 6.888000000000000025e-03 1.093071994086408649e+00
0.000000000000000000e+00 9.775359999999999865e-04 1.719246445756510422e+00
1.562500000000000000e-02 1.596860000000000076e-03 8.020738498383472859e-02
1.562500000000000000e-02 9.389369999999999661e-02 4.351920447045132256e-02
0.000000000000000000e+00 1.905020000000000107e-03 4.092458253414268832e+00
0.000000000000000000e+00 2.511999999999999802e-04 2.460922791061533221e+00
2.812500000000000069e-02 1.131010000000000001e-03 1.541256279677379881e+00
9.374999999999999653e-03 9.694980000000000264e-02 3.893327374982652467e-01
0.000000000000000000e+00 1.567999999999999949e-03 2.305092767650329666e+00
0.000000000000000000e+00 2.246779999999999871e-03 2.968738598414885743e+00
3.125000000000000173e-03 1.007150000000000059e-02 9.396297701415556869e-01
0.000000000000000000e+00 6.714559999999999626e-03 2.260648775210643446e+00
2.187499999999999861e-02 1.263620000000000021e-02 1.556044622409266776e+00
0.000000000000000000e+00 1.154560000000000005e-03 2.702145750862645635e+00
0.000000000000000000e+00 7.283959999999999697e-04 1.835510508171268595e+00
9.374999999999999653e-03 1.998689999999999842e-02 1.501508672246821829e+00
2.187499999999999861e-02 2.107840000000000148e-03 4.198404356540640592e+00
0.000000000000000000e+00 1.106619999999999999e-03 3.021407354376929977e+00
2.812500000000000069e-02 2.488189999999999933e-03 6.990766906050588370e-01
0.000000000000000000e+00 9.806719999999999240e-04 3.442562183392313457e+00
8.749999999999999445e-02 9.245509999999999839e-02 4.327923927804528503e+00
1.874999999999999931e-02 4.527869999999999812e-03 1.392222592870254072e+00
0.000000000000000000e+00 1.948259999999999922e-02 4.343088287201416264e+00
2.812500000000000069e-02 1.889660000000000038e-03 4.579387897985181866e+00
2.500000000000000139e-02 2.903489999999999890e-03 4.796275393499625395e+00
1.250000000000000069e-02 2.118779999999999795e-03 3.188376176340026458e+00
0.000000000000000000e+00 4.092459999999999913e-04 1.669977210219240060e+00
0.000000000000000000e+00 4.190570000000000232e-04 2.595062339572629106e-03
9.374999999999999653e-03 1.614399999999999993e-03 2.752598445524284676e-01
0.000000000000000000e+00 1.868159999999999949e-04 3.959131404035786339e+00
1.250000000000000069e-02 2.571780000000000073e-03 6.647853418061233643e-01
0.000000000000000000e+00 5.164160000000000104e-04 2.123944228760562325e+00
3.125000000000000173e-03 1.042580000000000069e-02 1.766127715097879358e+00
3.125000000000000173e-03 2.411229999999999884e-03 6.965739943884069474e-01
1.562500000000000000e-02 1.299830000000000083e-02 3.988862662117509839e+00
1.874999999999999931e-02 2.248899999999999857e-03 3.954401922752485810e+00
0.000000000000000000e+00 9.448829999999999859e-04 4.617400352473633340e+00
1.874999999999999931e-02 2.137730000000000012e-03 1.110970517552976489e+00
0.000000000000000000e+00 1.952259999999999933e-03 2.571961264902827837e-01
0.000000000000000000e+00 4.632959999999999769e-04 3.134519358729231930e-01
2.187499999999999861e-02 2.859780000000000134e-03 1.728596059272208274e+00
2.812500000000000069e-02 3.709950000000000053e-03 1.675941009910085766e+00
0.000000000000000000e+00 4.028160000000000139e-04 4.853585727319430276e+00
9.374999999999999653e-03 1.815489999999999899e-03 1.806015544779900228e+00
1.874999999999999931e-02 1.719489999999999951e-03 4.187223976546375681e+00
2.500000000000000139e-02 1.791739999999999999e-03 1.730513666809410545e+00
2.812500000000000069e-02 3.495359999999999873e-03 1.433215460844681655e+00
0.000000000000000000e+00 2.292740000000000007e-05 7.359151623543325194e-01
0.000000000000000000e+00 9.347199999999999953e-04 1.116546576671155311e+00
1.562500000000000000e-02 2.107710000000000052e-03 4.246464451552219188e+00
0.000000000000000000e+00 1.165309999999999914e-03 4.489201541635737591e+00
3.125000000000000173e-03 2.136320000000000146e-03 1.506361862721284250e+00
1.874999999999999931e-02 3.132030000000000057e-03 1.218127893201384371e+00
2.812500000000000069e-02 1.081759999999999944e-01 9.015611090545389006e-01
0.000000000000000000e+00 0.000000000000000000e+00 4.449950170448327746e+00
0.000000000000000000e+00 1.299020000000000036e-02 3.605753940379718969e-01
2.187499999999999861e-02 3.052669999999999949e-03 3.450834621694952808e+00
0.000000000000000000e+00 4.210059999999999844e-03 1.850285863682686216e+00
2.187499999999999861e-02 2.630910000000000193e-03 4.316481509218648149e+00
3.125000000000000173e-03 8.568259999999999418e-03 4.403338752368024522e-01
0.000000000000000000e+00 5.957119999999999777e-04 1.474378664080544521e-01
0.000000000000000000e+00 4.212479999999999892e-04 2.460505463396649439e+00
0.000000000000000000e+00 6.878049999999999919e-04 4.665468012074843074e+00
3.125000000000000173e-03 1.170749999999999916e-03 4.044787784798015373e+00
3.125000000000000173e-03 2.208770000000000091e-03 1.154132226319209975e+00
0.000000000000000000e+00 1.370799999999999927e-03 4.033507399218451361e+00
0.000000000000000000e+00 1.105660000000000063e-03 3.715881200330610312e+00
0.000000000000000000e+00 2.234180000000000107e-03 7.207738579012173963e-01
0.000000000000000000e+00 1.042369999999999929e-03 2.365877632702362732e+00
0.000000000000000000e+00 1.030459999999999970e-03 4.635152944365355410e+00
0.000000000000000000e+00 1.025979999999999904e-03 4.349367079444988349e+00
0.000000000000000000e+00 5.096579999999999860e-03 8.099568220003111607e-01
0.000000000000000000e+00 1.431549999999999967e-03 2.515122425868981271e+00
0.000000000000000000e+00 7.830400000000000381e-04 9.398258152006372379e-01
2.187499999999999861e-02 1.424769999999999899e-03 2.697784576363573716e+00
0.000000000000000000e+00 1.530239999999999986e-03 2.795593588529368567e+00
0.000000000000000000e+00 7.303200000000000143e-04 4.027615034717500819e+00
0.000000000000000000e+00 1.867139999999999989e-03 3.617825794159197361e+00
2.187499999999999861e-02 2.332990000000000064e-03 3.432995491719370573e-01
0.000000000000000000e+00 1.004520000000000066e-03 3.249071318449493262e+00
