1.562500000000000000e-02 1.288719999999999970e-02 4.696150391200049512e+00
0.000000000000000000e+00 2.188799999999999915e-04 2.306880888824319076e+00
3.125000000000000173e-03 1.784849999999999978e-02 4.455710480162992759e+00
6.250000000000000347e-03 1.803069999999999933e-03 4.547613836245619545e+00
1.562500000000000000e-02 6.339839999999999798e-04 2.641230934746380932e+00
6.250000000000000347e-03 2.695550000000000116e-03 9.033647948884043766e-01
1.250000000000000069e-02 1.289339999999999931e-03 1.310660826774147081e+00
6.250000000000000347e-03 9.872740000000000682e-02 1.270108873974145069e+00
1.250000000000000069e-02 6.921090000000000401e-03 3.983221645457905691e+00
0.000000000000000000e+00 1.321130000000000082e-01 1.987732150047141655e+00
1.562500000000000000e-02 1.977929999999999966e-02 1.153759793439323555e+00
0.000000000000000000e+00 7.960929999999999743e-03 4.280900502383161443e-01
1.562500000000000000e-02 2.316990000000000108e-03 1.123419336232699406e+00
0.000000000000000000e+00 1.113859999999999937e-03 4.954938578746968858e+00
3.125000000000000173e-03 9.736789999999999334e-02 5.132927009453652767e-01
0.000000000000000000e+00 4.148250000000000136e-04 9.298597586989532093e-01
0.000000000000000000e+00 3.769859999999999878e-03 2.519352840346323674e+00
0.000000000000000000e+00 1.529149999999999954e-03 5.540582352390566179e-01
6.250000000000000347e-03 3.601790000000000113e-03 4.978178740971833882e+00
0.000000000000000000e+00 1.221950000000000076e-03 3.658616163713205971e+00
0.000000000000000000e+00 4.991489999999999469e-04 3.615833857028771359e+00
1.250000000000000069e-02 6.933589999999999892e-03 3.473806367761466785e+00
2.187499999999999861e-02 2.540989999999999915e-03 2.963804675931985821e-01
0.000000000000000000e+00 1.859970000000000069e-03 4.986746382455155668e+00
0.000000000000000000e+00 9.793799999999999728e-02 1.488454468433000777e+00
0.000000000000000000e+00 8.544660000000000146e-04 1.977785149646830165e+00
0.000000000000000000e+00 3.860740000000000092e-03 3.243206512612854198e+00
0.000000000000000000e+00 5.180020000000000457e-04 4.669179653400225227e+00
0.000000000000000000e+00 1.968000000000000131e-04 2.355108142274965566e+00
0.000000000000000000e+00 7.964159999999999859e-04 2.566224436027528366e+00
0.000000000000000000e+00 1.137130000000000085e-03 5.272095204997218065e-02
0.000000000000000000e+00 5.841919999999999795e-04 7.939956220674804221e-01
2.812500000000000069e-02 2.638530000000000042e-03 4.108895094325852426e+00
3.125000000000000173e-03 3.950999999999999651e-03 7.930688828264992329e-01
2.500000000000000139e-02 1.059969999999999940e-01 1.841562413017578503e+00
0.000000000000000000e+00 4.513539999999999913e-03 4.994806159050856564e+00
2.812500000000000069e-02 9.476480000000000667e-03 3.013536843008858934e+00
0.000000000000000000e+00 4.714240000000000184e-04 1.557593994614976385e+00
9.374999999999999653e-03 6.895209999999999707e-03 1.594462078026159801e-03
9.374999999999999653e-03 2.512509999999999917e-03 2.019812252210014591e+00
2.500000000000000139e-02 1.646909999999999910e-03 3.415580966843464239e+00
0.000000000000000000e+00 7.637759999999999732e-04 2.814373649639708042e+00
0.000000000000000000e+00 7.185849999999999920e-04 1.236518329584811449e+00
0.000000000000000000e+00 2.492799999999999985e-04 4.667037088629157893e+00
0.000000000000000000e+00 4.887039999999999614e-04 1.680469303322398744e+00
0.000000000000000000e+00 1.187069999999999922e-03 1.559245221163006345e+00
0.000000000000000000e+00 3.158779999999999921e-03 1.653644887894091919e+00
0.000000000000000000e+00 3.356669999999999966e-03 2.682990576708289332e+00
1.562500000000000000e-02 2.127360000000000015e-03 1.336468334187868034e+00
1.874999999999999931e-02 5.559940000000000195e-03 3.282923687106126920e+00
2.500000000000000139e-02 9.338140000000000329e-02 1.793440176988231327e+00
0.000000000000000000e+00 7.756799999999999459e-04 4.814538982740932838e+00
2.187499999999999861e-02 2.106300000000000186e-03 3.776386380764565232e+00
0.000000000000000000e+00 3.902080000000000153e-04 2.665555891803856436e+00
0.000000000000000000e+00 1.251259999999999916e-03 1.203474115615092987e+00
3.125000000000000173e-03 9.343719999999999803e-02 2.588228757248853373e+00
2.187499999999999861e-02 1.828479999999999949e-03 1.856542070899014796e+00
0.000000000000000000e+00 3.885439999999999987e-04 4.655722466477083543e+00
1.250000000000000069e-02 1.455169999999999988e-03 3.192742495248657608e+00
1.250000000000000069e-02 1.877119999999999917e-03 4.433015839895758425e+00
0.000000000000000000e+00 5.202370000000000431e-03 4.941801220088032132e+00
9.374999999999999653e-03 1.030260000000000065e-01 3.290407945713840210e+00
0.000000000000000000e+00 3.579519999999999772e-04 4.495264392882836191e+00
0.000000000000000000e+00 1.047619999999999975e-03 3.194456050144914183e+00
0.000000000000000000e+00 2.391679999999999978e-04 1.170488181335229250e+00
0.000000000000000000e+00 4.451489999999999787e-03 4.440028242719652241e+00
0.000000000000000000e+00 1.945450000000000152e-05 2.701326563535764169e+00
1.874999999999999931e-02 1.054579999999999962e-01 4.421722904231792484e+00
0.000000000000000000e+00 9.342379999999999955e-04 7.633018320811574275e-01
0.000000000000000000e+00 4.130560000000000243e-04 1.419655910986276748e+00
6.250000000000000347e-03 7.932160000000000166e-04 2.171425864313103471e+00
1.562500000000000000e-02 2.040319999999999981e-03 2.711851106567273018e+00
0.000000000000000000e+00 1.593280000000000087e-03 1.775106164557040511e+00
0.000000000000000000e+00 9.093759999999999344e-03 1.284516717464081026e+00
0.000000000000000000e+00 4.509270000000000118e-03 4.202397507392391596e+00
6.250000000000000347e-03 9.873379999999999657e-02 1.020364561883324583e-01
1.562500000000000000e-02 2.571829999999999949e-02 1.289009490183806728e-01
9.374999999999999653e-03 1.598339999999999960e-03 4.490768372342023085e+00
1.562500000000000000e-02 1.830269999999999944e-03 1.511845101936484692e+00
0.000000000000000000e+00 1.001120000000000091e-03 5.639699352802229892e-01
0.000000000000000000e+00 2.783299999999999837e-03 8.850136740110337019e-01
0.000000000000000000e+00 7.151220000000000016e-04 2.423482393258086232e-01
0.000000000000000000e+00 1.500610000000000095e-03 8.777104241425848219e-01
0.000000000000000000e+00 5.114880000000000468e-04 2.625036252304322471e+00
3.125000000000000173e-03 1.329279999999999958e-03 4.711525332135968469e-01
3.125000000000000173e-03 6.424589999999999468e-02 2.435296426622607591e+00
0.000000000000000000e+00 6.668380000000000141e-02 3.986188816396678547e+00
1.250000000000000069e-02 1.540609999999999983e-03 6.107270339576092999e-01
0.000000000000000000e+00 2.336190000000000142e-03 7.173270012817667407e-01
2.500000000000000139e-02 1.747199999999999968e-03 3.761658246266391004e+00
0.000000000000000000e+00 7.756799999999999459e-04 3.461711151889146354e-02
4.687500000000000000e-02 9.320839999999999681e-02 9.643374291074841009e-01
6.250000000000000347e-03 5.946880000000000091e-04 2.362549332148043746e+00
0.000000000000000000e+00 1.092670000000000013e-03 4.230743241792977116e+00
2.500000000000000139e-02 2.588739999999999965e-03 3.078256878424671772e+00
0.000000000000000000e+00 5.144750000000000234e-04 2.064495602937160612e+00
0.000000000000000000e+00 1.133179999999999908e-03 4.720396132870578576e+00
0.000000000000000000e+00 1.046910000000000071e-03 3.211332703388071863e+00
2.500000000000000139e-02 1.216240000000000029e-02 2.836238039963511870e+00
0.000000000000000000e+00 1.776580000000000043e-03 5.037125787576923752e-01
2.187499999999999861e-02 1.272450000000000057e-03 2.872419885246829008e+00
0.000000000000000000e+00 5.737599999999999818e-04 5.917499086939986830e-01
4.062500000000000139e-02 9.397800000000000598e-02 3.332736725440717862e+00
8.749999999999999445e-02 3.007019999999999832e-02 7.349900114694241093e-01
2.187499999999999861e-02 5.501380000000000159e-03 4.006264682488784423e+00
1.562500000000000000e-02 7.569829999999999615e-03 9.702355122583861124e-01
3.125000000000000173e-03 9.903549999999999853e-02 1.509230541149946259e+00
0.000000000000000000e+00 1.837819999999999992e-03 1.862126173694930165e+00
2.187499999999999861e-02 2.188540000000000103e-03 4.737018148432431630e+00
1.874999999999999931e-02 2.412609999999999928e-03 2.618521496655519254e+00
0.000000000000000000e+00 3.787459999999999872e-03 6.668086391327565643e-01
0.000000000000000000e+00 2.033339999999999800e-03 3.122489556878239370e+00
2.187499999999999861e-02 1.167460000000000025e-02 3.365955075238374228e+00
0.000000000000000000e+00 3.582670000000000039e-04 3.148591898513894538e+00
0.000000000000000000e+00 1.016900000000000052e-03 3.771451523453579480e+00
3.125000000000000173e-03 3.164070000000000077e-02 1.977550960372091549e+00
0.000000000000000000e+00 5.495510000000000108e-04 6.120364760864088760e-01
0.000000000000000000e+00 4.206079999999999953e-04 2.853347387282913594e+00
0.000000000000000000e+00 3.151999999999999854e-03 3.005166343556717301e+00
1.250000000000000069e-02 9.270539999999999337e-02 4.507793458535810593e+00
2.187499999999999861e-02 3.549660000000000315e-02 2.322790294957133295e-02
0.000000000000000000e+00 1.123389999999999935e-03 4.555719935399112686e+00
1.250000000000000069e-02 5.630429999999999637e-03 3.929539890856037054e+00
0.000000000000000000e+00 8.835200000000000518e-04 2.933049568181261169e+00
0.000000000000000000e+00 1.158659999999999942e-03 1.743246828809160043e+00
0.000000000000000000e+00 9.414399999999999852e-04 4.022683536506519886e+00
3.125000000000000000e-02 9.223290000000000655e-02 1.585677594472431062e+00
0.000000000000000000e+00 9.756629999999999860e-04 3.017518502712996931e+00
0.000000000000000000e+00 7.309610000000000239e-04 1.787542002294268517e+00
1.562500000000000000e-02 1.919039999999999895e-03 2.253549148711579964e+00
2.187499999999999861e-02 2.307839999999999805e-03 2.064663385631001269e+00
1.874999999999999931e-02 1.998980000000000028e-03 6.540402764884917231e-01
2.812500000000000069e-02 3.651070000000000183e-03 4.180911282305483034e+00
1.250000000000000069e-02 1.778239999999999942e-03 9.296975949325742006e-01
4.374999999999999722e-02 9.294679999999999609e-02 4.875004564418679465e+00
0.000000000000000000e+00 6.168179999999999887e-04 2.942917858905931716e+00
0.000000000000000000e+00 4.118750000000000232e-04 4.933534922085820895e+00
2.500000000000000139e-02 2.231299999999999863e-03 9.041636276234210623e-01
3.749999999999999861e-02 9.349720000000000253e-02 4.434781470233327028e+00
0.000000000000000000e+00 1.254979999999999941e-03 2.044063757280452975e+00
0.000000000000000000e+00 3.593729999999999841e-03 4.680758058937505517e+00
1.250000000000000069e-02 3.000580000000000087e-03 3.053463532079113918e+00
0.000000000000000000e+00 2.268950000000000020e-05 1.072523714698158770e+00
9.374999999999999653e-03 1.646080000000000069e-03 2.152757199079287087e+00
3.125000000000000173e-03 3.862019999999999863e-03 3.945306173044957454e+00
0.000000000000000000e+00 3.552000000000000144e-04 3.838091079893215962e+00
0.000000000000000000e+00 2.167679999999999954e-04 4.740796172145769205e+00
6.250000000000000347e-03 2.991419999999999843e-03 2.932520269236891242e+00
0.000000000000000000e+00 2.136320000000000037e-04 2.620400400624696147e+00
6.250000000000000347e-03 6.167679999999999604e-04 4.136042932016477991e+00
0.000000000000000000e+00 1.193540000000000096e-03 1.063530486846080425e+00
0.000000000000000000e+00 1.357139999999999952e-03 4.672066728978728989e+00
0.000000000000000000e+00 2.012799999999999973e-04 2.715750524824263934e+00
6.250000000000000347e-03 1.771529999999999980e-02 3.157325155177285847e+00
6.250000000000000347e-03 1.041289999999999924e-02 3.906747343304944664e+00
2.500000000000000139e-02 2.913540000000000053e-03 3.641751764027925553e+00
0.000000000000000000e+00 1.162620000000000060e-03 4.223416503629498386e+00
0.000000000000000000e+00 1.510140000000000093e-03 4.905017357053432114e+00
6.562500000000000278e-02 9.215710000000000568e-02 4.520158096733446484e+00
0.000000000000000000e+00 8.574809999999999984e-04 4.945918898032597433e-01
0.000000000000000000e+00 6.710680000000000334e-04 4.005642990419767457e+00
0.000000000000000000e+00 7.114029999999999920e-04 2.790088335621143667e+00
0.000000000000000000e+00 9.964159999999999684e-04 2.335826320116491939e+00
0.000000000000000000e+00 9.762399999999999637e-04 7.745811220270948372e-01
0.000000000000000000e+00 1.879550000000000014e-03 6.619022150276127059e-01
2.187499999999999861e-02 1.300479999999999909e-03 4.346733899414142677e+00
0.000000000000000000e+00 1.460799999999999946e-03 1.516144853324293162e+00
2.187499999999999861e-02 1.755899999999999909e-03 1.916290348330338400e+00
9.374999999999999653e-03 1.210050000000000058e-03 1.206461946999910051e+00
0.000000000000000000e+00 3.554459999999999846e-04 6.593542661588247533e-01
1.562500000000000000e-02 1.630399999999999948e-03 3.188793891662997204e+00
0.000000000000000000e+00 1.054589999999999998e-03 3.014032493773789234e+00
0.000000000000000000e+00 1.513119999999999916e-02 1.933128306943836971e+00
0.000000000000000000e+00 1.407990000000000023e-03 1.225349527039115705e-01
1.874999999999999931e-02 9.358959999999999502e-02 5.396232121646971081e-01
0.000000000000000000e+00 1.731199999999999959e-04 2.547789689211557462e+00
1.250000000000000069e-02 3.038079999999999860e-03 6.536855475577219021e-01
2.187499999999999861e-02 2.269250000000000000e-03 4.422760610802200176e+00
9.374999999999999653e-03 1.699329999999999981e-03 1.974507123036622236e+00
1.874999999999999931e-02 2.890750000000000090e-03 5.125651537692721416e-01
0.000000000000000000e+00 1.025019999999999968e-03 3.986325372004139833e+00
0.000000000000000000e+00 1.876220000000000058e-03 1.896947463215586938e-01
0.000000000000000000e+00 1.261589999999999934e-02 7.530151609268753710e-01
1.562500000000000000e-02 2.211260000000000048e-03 3.689611244688172143e+00
2.500000000000000139e-02 1.756540000000000011e-03 2.918410767370995362e+00
0.000000000000000000e+00 1.135170000000000016e-03 3.665312526582954256e+00
0.000000000000000000e+00 1.791620000000000061e-03 7.892815620322629622e-01
1.250000000000000069e-02 2.122729999999999895e-01 3.266787989748187293e+00
0.000000000000000000e+00 6.558059999999999888e-04 3.798321337569625644e+00
1.250000000000000069e-02 1.625219999999999920e-03 2.401893761817815331e+00
6.250000000000000347e-03 1.343809999999999970e-03 4.510486857314685238e+00
0.000000000000000000e+00 7.305760000000000335e-04 4.421941076635815371e+00
0.000000000000000000e+00 4.145040000000000009e-04 2.010058855234887254e+00
0.000000000000000000e+00 1.712959999999999830e-02 4.926503511077595654e-01
3.125000000000000173e-03 9.792020000000000238e-03 2.778081794505279589e+00
0.000000000000000000e+00 1.520450000000000013e-03 4.718641427410564582e+00
2.812500000000000069e-02 3.312320000000000108e-03 6.963310077421014377e-01
0.000000000000000000e+00 1.821439999999999962e-04 1.656368841235209555e+00
0.000000000000000000e+00 1.051910000000000085e-03 3.132006960693519027e+00
0.000000000000000000e+00 7.265999999999999889e-04 2.630585718446008414e+00
5.000000000000000278e-02 1.062700000000000033e-01 2.217448997741533478e-01
3.125000000000000173e-03 7.378559999999999503e-04 2.529549460156733431e+00
0.000000000000000000e+00 7.424000000000000477e-04 1.983582882686650839e+00
0.000000000000000000e+00 2.537600000000000099e-04 1.615055853740167802e+00
0.000000000000000000e+00 1.827360000000000068e-05 1.902834438672676987e+00
0.000000000000000000e+00 1.103400000000000040e-03 2.471106849402876504e-01
2.187499999999999861e-02 2.972610000000000096e-03 2.606559271892130436e+00
0.000000000000000000e+00 4.121950000000000201e-04 1.347065197450894480e+00
0.000000000000000000e+00 2.281660000000000025e-03 4.083026314620755493e+00
3.125000000000000173e-03 1.076860000000000039e-01 4.790138657911358067e+00
0.000000000000000000e+00 3.990399999999999741e-04 3.790570075854911458e+00
3.125000000000000173e-03 1.310719999999999941e-02 3.429271196652212694e+00
0.000000000000000000e+00 3.831679999999999743e-04 4.223688262210138156e+00
0.000000000000000000e+00 1.047039999999999950e-03 3.605535984213847467e+00
0.000000000000000000e+00 1.336769999999999929e-03 1.872973988409200707e+00
0.000000000000000000e+00 4.047629999999999978e-03 1.797401732501649363e+00
0.000000000000000000e+00 5.651459999999999644e-03 2.433115298113505354e+00
0.000000000000000000e+00 1.544960000000000062e-04 1.809620097681945872e+00
0.000000000000000000e+00 1.966460000000000170e-03 3.301614086638815504e-01
4.374999999999999722e-02 1.372029999999999951e-02 2.332418657831293984e+00
1.250000000000000069e-02 1.658619999999999973e-03 2.215950003440475768e+00
0.000000000000000000e+00 2.131520000000000029e-03 4.745429671802015470e+00
1.250000000000000069e-02 1.715200000000000112e-04 4.586634694250920852e+00
0.000000000000000000e+00 3.584509999999999953e-03 4.274630249516886416e-01
3.125000000000000173e-03 1.951009999999999897e-02 6.448448027754138945e-01
0.000000000000000000e+00 1.936739999999999989e-02 3.968416882432204140e+00
0.000000000000000000e+00 3.721600000000000147e-04 4.829808037813255517e+00
3.437500000000000278e-02 9.138300000000000589e-02 3.635357980408605805e+00
3.125000000000000000e-02 9.216789999999999705e-02 4.912993739961645012e+00
0.000000000000000000e+00 1.708160000000000017e-03 1.178372995540931001e+00
1.562500000000000000e-02 2.483200000000000077e-03 2.306540488374785980e+00
0.000000000000000000e+00 3.751620000000000215e-03 4.395213624911441741e+00
0.000000000000000000e+00 5.492309999999999597e-04 3.384273009593663506e+00
0.000000000000000000e+00 3.745539999999999785e-04 1.251650299177076153e+00
0.000000000000000000e+00 7.323720000000000143e-04 2.766123142101897248e+00
0.000000000000000000e+00 1.120380000000000030e-03 1.615285958422729262e+00
2.187499999999999861e-02 2.279869999999999813e-03 3.633965162827509587e+00
6.250000000000000347e-03 1.197780000000000025e-02 2.291651671347207042e+00
0.000000000000000000e+00 6.493069999999999398e-02 2.885475789650680412e+00
3.125000000000000173e-03 3.376829999999999936e-03 1.644216639463270679e+00
9.062499999999999722e-02 8.654140000000000443e-02 2.511472851662051475e+00
2.500000000000000139e-02 2.163009999999999933e-03 1.789024440885861988e+00
1.562500000000000000e-02 2.337339999999999817e-03 3.090133819244744728e+00
6.250000000000000347e-03 1.001090000000000053e-03 2.236646273812662677e+00
6.250000000000000347e-03 2.488879999999999912e-02 3.520206793613350094e+00
0.000000000000000000e+00 3.977340000000000042e-02 3.574523536968732262e-01
0.000000000000000000e+00 1.539839999999999948e-04 2.569457220303932310e+00
2.500000000000000139e-02 2.038910000000000115e-03 4.875615632869648941e+00
1.874999999999999931e-02 1.873220000000000093e-03 4.584275364592137691e+00
1.874999999999999931e-02 2.713600000000000040e-03 3.290040620546923478e+00
0.000000000000000000e+00 9.031679999999999830e-04 9.000450008371463362e-02
0.000000000000000000e+00 3.884800000000000210e-04 4.114528973990233318e+00
3.125000000000000000e-02 2.389950000000000060e-03 3.054868274265360562e+00
0.000000000000000000e+00 1.146429999999999932e-03 3.472069973530533371e+00
0.000000000000000000e+00 1.508280000000000081e-03 1.345359110775837808e+00
1.562500000000000000e-02 2.286659999999999821e-03 1.111442166469693404e+00
0.000000000000000000e+00 7.467520000000000494e-04 4.833627711446955466e+00
0.000000000000000000e+00 1.196959999999999951e-03 1.198331019363229721e+00
0.000000000000000000e+00 1.129730000000000014e-03 4.989696299777291344e+00
0.000000000000000000e+00 2.430589999999999834e-03 1.958104346584482736e-01
0.000000000000000000e+00 5.249280000000000265e-04 4.305881086873632135e+00
0.000000000000000000e+00 7.307039999999999889e-04 4.296506501483299267e-01
0.000000000000000000e+00 8.767999999999999535e-04 8.605859940942434116e-01
0.000000000000000000e+00 4.628540000000000106e-04 3.731003665263899371e+00
3.125000000000000173e-03 7.913859999999999992e-03 4.107606843156175636e+00
2.812500000000000069e-02 2.857090000000000064e-03 2.285794743397540074e+00
0.000000000000000000e+00 5.117439999999999576e-04 2.864780501745643360e+00
0.000000000000000000e+00 3.158160000000000134e-04 2.552309163450810381e+00
0.000000000000000000e+00 3.153219999999999981e-03 7.487751938487574588e-01
6.250000000000000347e-03 1.495999999999999934e-03 1.075517541820185663e+00
1.874999999999999931e-02 1.818299999999999908e-03 1.789663416675919994e+00
0.000000000000000000e+00 3.957119999999999952e-04 1.316546272767703529e+00
0.000000000000000000e+00 5.533810000000000118e-02 1.603516402512867867e+00
0.000000000000000000e+00 2.221919999999999896e-05 2.114379559087098404e+00
0.000000000000000000e+00 2.294859999999999912e-05 3.562246196024194678e+00
0.000000000000000000e+00 2.119869999999999827e-03 1.979991461862659730e+00
0.000000000000000000e+00 9.645440000000000133e-04 3.683254801870966544e-01
9.374999999999999653e-03 2.121429999999999982e-01 1.580918600725278456e-01
0.000000000000000000e+00 1.475330000000000044e-02 2.378233016212083939e+00
2.500000000000000139e-02 4.506940000000000078e-03 1.782620283302549069e+00
0.000000000000000000e+00 2.733150000000000163e-02 1.336161996938181051e+00
0.000000000000000000e+00 7.444910000000000113e-04 3.274081902015251178e+00
4.687500000000000000e-02 9.182909999999999684e-02 3.159340679924832251e+00
3.125000000000000000e-02 9.194099999999999495e-02 2.922240390484833750e+00
0.000000000000000000e+00 1.721599999999999997e-03 1.712413123030538387e+00
2.187499999999999861e-02 1.179769999999999951e-02 4.596866963534107065e+00
1.250000000000000069e-02 1.423620000000000007e-03 2.233456005878920791e+00
1.250000000000000069e-02 4.951549999999999702e-02 1.823668944179466678e+00
0.000000000000000000e+00 9.461759999999999615e-04 2.679899256216988324e+00
6.250000000000000347e-03 9.719110000000000249e-02 4.408826716707624271e+00
0.000000000000000000e+00 5.250559999999999819e-04 3.347676537294769217e-01
0.000000000000000000e+00 9.847040000000000914e-04 3.763994512388720182e+00
0.000000000000000000e+00 6.634240000000000232e-04 1.461202559411986623e+00
0.000000000000000000e+00 1.070339999999999920e-03 4.812195327952228041e+00
1.250000000000000069e-02 2.814399999999999888e-03 2.524777240247550569e+00
0.000000000000000000e+00 1.999490000000000035e-03 4.321206303855194442e+00
3.125000000000000173e-03 2.073969999999999980e-02 2.265730905974415954e+00
3.125000000000000173e-03 6.990019999999999567e-03 4.166715352990103760e+00
3.125000000000000173e-03 3.784700000000000217e-03 9.643414791861509849e-01
0.000000000000000000e+00 3.591040000000000096e-04 2.722984574645792577e-01
0.000000000000000000e+00 1.163710000000000092e-03 4.986587608512599301e-01
0.000000000000000000e+00 4.190080000000000107e-04 4.515464063735341149e+00
0.000000000000000000e+00 1.007019999999999964e-03 3.859949894241696100e+00
2.500000000000000139e-02 2.985339999999999955e-03 3.416911520313027140e+00
2.500000000000000139e-02 9.246350000000000402e-02 1.979477738942864162e-01
0.000000000000000000e+00 1.251069999999999960e-03 2.614131164563219478e+00
0.000000000000000000e+00 7.817600000000000503e-04 2.306252607215720118e+00
0.000000000000000000e+00 2.668240000000000108e-03 1.627632582618288026e-01
3.125000000000000173e-03 4.250300000000000258e-03 2.380582433972245227e+00
0.000000000000000000e+00 4.020480000000000104e-04 3.131121853936649657e+00
0.000000000000000000e+00 1.634370000000000007e-03 2.030918348061781398e+00
0.000000000000000000e+00 6.068150000000000236e-04 3.233034270651156561e+00
9.374999999999999653e-03 2.622590000000000164e-03 2.141911246802670199e+00
0.000000000000000000e+00 1.138029999999999944e-03 2.610047958208239649e+00
0.000000000000000000e+00 2.273869999999999966e-05 2.831188479489632481e-01
0.000000000000000000e+00 4.335300000000000264e-03 3.542286198062295277e+00
9.374999999999999653e-03 1.696060000000000102e-03 4.174362590217528535e+00
0.000000000000000000e+00 0.000000000000000000e+00 6.615951979868855970e-01
0.000000000000000000e+00 1.126590000000000013e-03 3.888804144885495528e+00
0.000000000000000000e+00 1.433470000000000057e-03 1.559565933517064185e+00
2.187499999999999861e-02 2.000959999999999978e-03 1.840239575922859583e+00
0.000000000000000000e+00 4.336130000000000106e-04 1.164462482308918911e+00
0.000000000000000000e+00 8.600190000000000612e-03 2.916371553413479312e+00
6.250000000000000347e-03 3.676669999999999938e-03 3.667605865644563590e+00
9.374999999999999653e-03 1.758910000000000031e-03 3.243971419752162078e+00
3.437500000000000278e-02 9.221429999999999905e-02 2.621125588556594277e-01
0.000000000000000000e+00 3.812479999999999927e-04 3.777114821814163470e+00
0.000000000000000000e+00 1.534779999999999998e-02 3.351321821497745823e+00
2.187499999999999861e-02 1.933379999999999951e-03 2.784926954894724194e+00
1.250000000000000069e-02 1.646780000000000032e-03 3.716221720664401040e+00
6.250000000000000347e-03 9.605930000000000024e-02 2.786444300875144719e+00
1.874999999999999931e-02 3.522879999999999935e-03 1.741323618405523632e+00
3.125000000000000000e-02 2.861760000000000085e-03 4.996610938289261838e+00
1.000000000000000056e-01 8.056480000000000585e-02 1.153183485695731925e+00
3.125000000000000000e-02 1.051259999999999972e-01 2.131138843826148044e+00
0.000000000000000000e+00 2.642080000000000210e-03 3.765028958337005349e+00
1.250000000000000069e-02 2.815170000000000085e-03 1.782123293480289306e+00
9.374999999999999653e-03 1.799100000000000091e-03 1.896795620886313039e+00
0.000000000000000000e+00 9.919359999999999029e-04 2.523038481592058790e+00
0.000000000000000000e+00 9.805440000000000770e-04 1.357149568771489623e+00
6.250000000000000000e-02 9.273919999999999386e-02 2.573568320136458532e+00
3.125000000000000173e-03 2.947579999999999992e-03 1.599992069057436517e+00
6.250000000000000347e-03 1.431360000000000011e-03 3.285253860203642517e+00
2.500000000000000139e-02 2.441539999999999856e-03 4.926995865322242096e+00
0.000000000000000000e+00 3.112960000000000033e-02 1.499726590528753345e+00
0.000000000000000000e+00 1.634940000000000091e-03 1.931238777052543654e+00
6.250000000000000347e-03 1.955169999999999998e-03 2.222105371229845083e+00
2.187499999999999861e-02 2.272059999999999792e-03 4.787688468985511037e+00
3.125000000000000173e-03 1.648350000000000162e-02 4.875504505599402627e+00
1.250000000000000069e-02 2.829059999999999995e-03 4.747587167072773617e+00
0.000000000000000000e+00 2.280320000000000014e-04 3.778124413732339981e+00
0.000000000000000000e+00 2.267260000000000109e-03 4.154352522409071824e+00
0.000000000000000000e+00 1.187010000000000062e-03 4.879448741915192400e+00
1.562500000000000000e-02 1.926460000000000065e-03 3.982907830660517234e+00
0.000000000000000000e+00 2.262719999999999911e-05 3.921699601750247677e+00
0.000000000000000000e+00 6.092520000000000140e-04 7.778062346216413347e-01
0.000000000000000000e+00 7.328200000000000209e-04 1.129335874964032094e+00
0.000000000000000000e+00 9.218609999999999478e-04 2.400321490722215234e+00
3.437500000000000278e-02 9.354389999999999927e-02 4.160021857637158149e+00
0.000000000000000000e+00 1.029980000000000001e-03 6.920373983348288016e-01
0.000000000000000000e+00 3.545600000000000205e-04 2.927773835866544161e+00
1.874999999999999931e-02 1.508669999999999933e-03 4.764707004893248943e+00
1.874999999999999931e-02 1.425730000000000053e-02 1.681306179781366650e+00
0.000000000000000000e+00 1.065470000000000002e-03 2.520248793014892463e+00
1.250000000000000069e-02 1.067840000000000039e-01 6.748519381481449253e-01
0.000000000000000000e+00 6.935760000000000015e-04 2.049028771934890525e+00
6.250000000000000347e-03 3.691160000000000187e-03 3.034529056113512535e+00
3.125000000000000173e-03 2.776639999999999924e-03 2.798230405865000492e+00
0.000000000000000000e+00 4.277809999999999946e-02 3.562616601762560009e+00
0.000000000000000000e+00 8.272779999999999761e-04 2.895529409002261190e+00
0.000000000000000000e+00 2.494209999999999960e-05 4.403493403613689239e+00
0.000000000000000000e+00 2.760959999999999803e-04 1.010215395355810175e+00
1.562500000000000000e-02 9.226320000000000354e-02 1.750161045933746884e+00
0.000000000000000000e+00 1.209619999999999966e-02 8.174650357652235577e-01
0.000000000000000000e+00 3.855999999999999944e-04 3.308230405699653431e+00
0.000000000000000000e+00 1.099010000000000091e-03 4.666120922162263263e+00
3.125000000000000173e-03 1.391359999999999906e-03 4.724571883993588628e+00
0.000000000000000000e+00 1.777279999999999897e-04 1.417262313815865760e+00
3.125000000000000173e-03 1.722720000000000067e-03 3.375051387603489328e+00
1.250000000000000069e-02 2.128500000000000114e-01 4.796530037605759134e+00
0.000000000000000000e+00 9.708159999999999967e-04 2.657030912702872172e+00
0.000000000000000000e+00 4.098230000000000232e-04 3.169038053588102422e+00
1.874999999999999931e-02 2.055229999999999904e-03 1.248191366720748929e+00
1.874999999999999931e-02 1.220060000000000068e-02 1.806343478309751394e+00
3.125000000000000173e-03 2.126850000000000008e-03 7.403641284282214130e-01
2.500000000000000139e-02 1.117310000000000048e-03 2.226950321067883820e+00
3.125000000000000173e-03 1.313570000000000015e-02 3.438797615158841747e+00
2.187499999999999861e-02 1.227519999999999957e-03 2.967208804733328931e-01
6.250000000000000347e-03 9.655819999999999681e-02 4.267613878146740092e+00
0.000000000000000000e+00 1.421500000000000020e-03 3.163910936874485547e+00
6.250000000000000347e-03 2.407100000000000125e-03 2.991040324296287967e+00
3.437500000000000278e-02 9.148059999999999525e-02 2.295087293851755250e-01
1.874999999999999931e-02 1.856769999999999992e-03 4.835124744918413597e+00
0.000000000000000000e+00 5.966079999999999908e-04 2.344125561322456974e+00
9.374999999999999653e-03 2.119119999999999893e-01 1.629306388688404050e+00
0.000000000000000000e+00 2.901889999999999852e-03 2.618306734460185137e+00
0.000000000000000000e+00 1.168259999999999958e-03 1.531012907517971922e+00
0.000000000000000000e+00 3.001699999999999941e-04 9.554901515149077929e-01
2.187499999999999861e-02 9.286110000000000197e-02 4.660604639909943225e-01
0.000000000000000000e+00 7.808700000000000016e-03 9.271403662722127459e-01
2.500000000000000139e-02 1.739709999999999998e-03 2.048766118105822986e+00
0.000000000000000000e+00 3.796100000000000169e-03 1.771621418901454081e+00
0.000000000000000000e+00 1.537280000000000027e-04 8.494685923756173374e-01
0.000000000000000000e+00 0.000000000000000000e+00 6.314544602509575277e-01
1.250000000000000069e-02 2.282179999999999973e-03 4.785026061756858518e-01
3.125000000000000173e-03 2.023370000000000030e-02 1.298689905748693363e+00
2.187499999999999861e-02 3.148800000000000210e-03 4.823614588602694653e+00
0.000000000000000000e+00 8.362239999999999951e-04 3.121030613448332325e+00
0.000000000000000000e+00 7.630869999999999667e-04 4.088943013982047070e+00
0.000000000000000000e+00 1.160189999999999963e-03 1.602169907522143610e+00
3.125000000000000173e-03 2.651320000000000066e-02 1.885332500763766683e+00
3.125000000000000173e-03 1.362109999999999927e-03 3.805611364663126661e+00
0.000000000000000000e+00 1.218819999999999973e-02 3.441965670824000512e+00
3.125000000000000173e-03 3.953589999999999882e-02 3.091553177680950171e-05
0.000000000000000000e+00 1.042219999999999952e-03 3.934998287496327407e-02
3.125000000000000173e-03 9.182619999999999671e-02 3.296354090297579642e+00
1.562500000000000000e-02 2.304449999999999988e-03 2.488176421659349380e-01
0.000000000000000000e+00 4.430400000000000137e-03 3.888715759452249010e+00
0.000000000000000000e+00 8.704970000000000242e-04 4.113917435272528067e+00
0.000000000000000000e+00 8.738560000000000034e-04 2.178907273914543641e+00
1.562500000000000000e-02 1.230909999999999990e-03 2.346929373699668808e-01
0.000000000000000000e+00 3.347390000000000001e-03 4.296615531645278097e+00
0.000000000000000000e+00 5.026120000000000457e-04 4.021510398209188430e+00
0.000000000000000000e+00 2.150399999999999794e-03 4.220596481287874902e+00
4.062500000000000139e-02 9.281200000000000561e-02 8.749503887635357025e-01
0.000000000000000000e+00 1.615939999999999955e-03 3.197660914870870119e-01
0.000000000000000000e+00 0.000000000000000000e+00 1.507030540041488509e+00
9.062499999999999722e-02 9.166910000000000336e-02 8.284815202340478635e-02
0.000000000000000000e+00 1.635460000000000039e-03 2.712989463309252613e+00
9.374999999999999653e-03 1.444610000000000035e-03 7.702519564496279614e-01
1.562500000000000000e-02 9.307469999999999632e-02 6.515698542804515547e-01
0.000000000000000000e+00 1.373950000000000084e-03 4.079098973955384899e+00
0.000000000000000000e+00 1.395199999999999923e-04 1.091602408742858854e+00
0.000000000000000000e+00 3.279359999999999827e-03 8.891667771009059695e-01
1.562500000000000000e-02 4.633919999999999706e-03 3.790126858610148197e+00
6.250000000000000347e-03 2.751099999999999813e-03 3.427096118436665506e+00
6.250000000000000347e-03 1.060650000000000065e-01 1.463039082040347605e+00
3.125000000000000173e-03 1.478719999999999991e-03 3.248299334362168445e+00
1.250000000000000069e-02 1.709060000000000093e-03 5.257366229890003684e-01
0.000000000000000000e+00 1.251970000000000036e-03 3.809200462252940511e+00
0.000000000000000000e+00 1.863740000000000015e-03 3.817632819657554410e+00
0.000000000000000000e+00 1.201409999999999978e-03 1.552023329677773011e+00
1.874999999999999931e-02 2.707579999999999796e-03 3.841281760468724382e+00
6.250000000000000347e-03 9.861609999999999820e-02 7.129629264545733758e-01
2.500000000000000139e-02 2.249280000000000203e-03 2.135789146251584114e+00
0.000000000000000000e+00 1.721599999999999997e-03 6.969104772142736826e-01
1.250000000000000069e-02 9.171799999999999398e-02 2.224500910029040934e+00
0.000000000000000000e+00 1.051969999999999945e-03 1.972731255591114063e+00
0.000000000000000000e+00 1.152639999999999915e-03 4.648572477081794219e+00
5.000000000000000278e-02 9.265199999999999825e-02 2.053282337930689927e+00
1.250000000000000069e-02 1.835459999999999913e-03 1.014700924899290424e+00
4.374999999999999722e-02 9.401009999999999922e-02 6.725645605258279147e-01
1.562500000000000000e-02 1.627900000000000050e-03 1.774163657504094216e+00
3.125000000000000173e-03 3.606400000000000057e-03 2.162602428250457454e+00
0.000000000000000000e+00 1.037060000000000022e-03 1.631531688446678618e+00
0.000000000000000000e+00 0.000000000000000000e+00 2.679867610547355561e+00
2.500000000000000139e-02 9.275619999999999699e-02 2.573059362912753834e+00
0.000000000000000000e+00 5.034240000000000373e-04 3.695410867154420131e+00
0.000000000000000000e+00 1.179849999999999996e-02 4.868097220693598182e+00
6.250000000000000347e-03 7.020800000000000001e-04 1.990717682169937497e+00
0.000000000000000000e+00 1.137130000000000085e-03 2.532427612972257158e+00
1.562500000000000000e-02 2.172859999999999982e-03 9.323169142753001681e-01
3.125000000000000000e-02 2.249280000000000203e-03 7.949504697160647559e-01
6.250000000000000347e-03 3.772540000000000008e-03 6.493203491496157831e-01
0.000000000000000000e+00 2.765819999999999997e-03 3.252887061911690747e+00
2.187499999999999861e-02 3.428609999999999904e-03 1.398054759719268292e+00
0.000000000000000000e+00 1.162939999999999894e-03 1.844504855789104614e+00
0.000000000000000000e+00 3.940479999999999786e-04 3.424476873918187891e+00
3.125000000000000173e-03 1.699140000000000025e-03 4.466240727420101031e-01
0.000000000000000000e+00 7.691790000000000432e-04 2.550925998341492473e+00
1.250000000000000069e-02 2.133120000000000068e-03 2.351065883574368520e+00
1.874999999999999931e-02 2.257729999999999893e-03 1.465143488667066674e+00
0.000000000000000000e+00 3.917440000000000223e-04 6.711163317673835005e-01
1.562500000000000000e-02 1.537540000000000000e-03 3.276146564996602617e+00
2.500000000000000139e-02 9.542040000000000244e-02 1.370954821773544552e+00
0.000000000000000000e+00 9.786239999999999870e-04 3.762278334267206148e+00
0.000000000000000000e+00 2.915840000000000055e-04 3.336163879412281652e+00
3.125000000000000173e-03 1.526970000000000063e-02 1.586087502319926568e+00
0.000000000000000000e+00 0.000000000000000000e+00 4.540961416070780743e+00
0.000000000000000000e+00 4.214290000000000202e-04 4.951561186428476091e+00
0.000000000000000000e+00 7.315380000000000016e-04 3.788442043950862592e-01
0.000000000000000000e+00 9.476480000000000450e-04 2.835810126540518894e+00
4.374999999999999722e-02 9.153780000000000250e-02 1.858961291672163618e+00
0.000000000000000000e+00 2.036479999999999801e-03 6.406535280759168005e-01
0.000000000000000000e+00 6.309119999999999659e-04 4.244465690124939350e+00
6.250000000000000347e-03 7.370239999999999691e-04 3.899834195411506776e+00
0.000000000000000000e+00 3.457340000000000153e-03 4.059953082853692941e+00
0.000000000000000000e+00 9.697920000000000281e-04 2.151496789064860415e+00
5.625000000000000139e-02 9.351940000000000253e-02 4.672242564332666603e+00
1.874999999999999931e-02 1.055249999999999938e-01 2.878360550550804309e+00
2.187499999999999861e-02 9.164880000000000249e-02 4.328482548906561256e+00
2.500000000000000139e-02 2.221889999999999803e-03 3.245849826319535669e-02
1.250000000000000069e-02 2.303169999999999783e-03 1.760714587679473864e+00
2.500000000000000139e-02 2.009019999999999816e-03 3.840208928444347691e+00
2.187499999999999861e-02 1.856699999999999974e-03 1.756281518185727197e+00
1.874999999999999931e-02 2.148220000000000164e-03 3.115422644090520832e-01
0.000000000000000000e+00 1.181500000000000042e-03 9.058525334827310926e-01
3.125000000000000173e-03 9.995719999999999605e-02 4.058175993964123762e+00
3.125000000000000173e-03 9.634750000000000258e-02 3.690166895392405166e+00
9.374999999999999653e-03 1.265730000000000067e-03 3.495802170393106145e+00
0.000000000000000000e+00 1.506189999999999959e-02 1.309435537179306053e+00
0.000000000000000000e+00 3.064199999999999910e-02 4.076823335664562009e+00
0.000000000000000000e+00 3.574340000000000069e-04 2.891549786908578668e+00
6.250000000000000347e-03 1.631869999999999892e-03 2.835502648869892006e-01
1.250000000000000069e-02 9.209670000000000356e-02 1.476573997425976614e+00
3.125000000000000173e-03 1.638399999999999926e-02 2.737465752208628755e-01
6.250000000000000347e-03 3.985439999999999816e-02 2.782092667989261026e-01
3.125000000000000000e-02 1.025850000000000026e-02 4.939170735917468136e+00
0.000000000000000000e+00 3.562109999999999842e-03 1.344619783903195476e+00
2.500000000000000139e-02 2.548930000000000032e-03 2.856352608686838934e+00
1.562500000000000000e-02 9.276700000000000224e-02 2.853247129754389988e+00
1.562500000000000000e-02 1.638399999999999926e-03 2.860670737308879108e-01
0.000000000000000000e+00 1.077059999999999910e-03 1.468296609324232227e-01
1.562500000000000000e-02 1.891199999999999999e-03 2.672899972758511655e+00
0.000000000000000000e+00 2.271959999999999843e-05 2.156364043933364449e+00
0.000000000000000000e+00 2.675840000000000185e-04 4.118224529136423229e+00
6.250000000000000347e-03 2.387900000000000092e-03 1.616089562636553012e+00
2.500000000000000139e-02 3.166140000000000013e-03 2.223169071020123067e+00
2.500000000000000139e-02 2.955709999999999848e-03 4.953071432270962582e+00
0.000000000000000000e+00 2.848129999999999933e-03 3.837568834207631951e+00
9.374999999999999653e-03 1.495170000000000093e-03 2.747400514982770936e+00
3.125000000000000173e-03 8.764420000000000197e-03 1.033079431382228908e+00
0.000000000000000000e+00 1.129790000000000091e-03 3.405664448745645778e+00
2.500000000000000139e-02 1.497859999999999990e-02 1.230765985461067524e+00
0.000000000000000000e+00 1.528319999999999896e-03 3.608187759715297815e+00
0.000000000000000000e+00 1.407660000000000004e-05 2.399296794362133500e+00
6.250000000000000347e-03 7.272190000000000425e-03 2.387595252289979708e+00
0.000000000000000000e+00 1.217930000000000098e-03 2.290675060694358667e+00
9.374999999999999653e-03 6.073730000000000274e-03 1.544652803598667301e-01
6.250000000000000347e-03 2.256270000000000150e-02 4.804579021433339037e+00
0.000000000000000000e+00 4.263669999999999786e-04 2.388177895925227112e+00
2.500000000000000139e-02 1.759359999999999960e-03 4.916344401590714064e+00
0.000000000000000000e+00 9.921920000000000305e-04 1.296742381962006085e+00
1.874999999999999931e-02 2.007099999999999943e-03 1.711547900401000355e-01
0.000000000000000000e+00 5.032959999999999734e-04 9.378172512577997999e-02
0.000000000000000000e+00 3.270980000000000155e-03 1.874053360537361046e+00
6.250000000000000000e-02 9.534180000000000432e-02 4.126657343052845484e+00
3.125000000000000000e-02 6.173270000000000146e-02 3.164367375647988645e+00
6.250000000000000347e-03 3.699109999999999811e-03 2.122728122373456650e+00
1.874999999999999931e-02 2.520510000000000111e-03 2.153675094441842575e-01
1.562500000000000000e-02 1.646529999999999999e-03 2.856997729160972721e+00
0.000000000000000000e+00 1.500650000000000074e-03 1.767233624667969405e+00
2.500000000000000139e-02 2.792639999999999879e-03 3.101099003562303835e+00
0.000000000000000000e+00 3.021119999999999969e-03 3.072421295990745094e+00
0.000000000000000000e+00 6.626559999999999655e-04 3.508270845805331106e+00
0.000000000000000000e+00 3.027460000000000047e-03 9.899815732138084190e-01
0.000000000000000000e+00 3.781449999999999785e-04 4.772177105919379159e+00
0.000000000000000000e+00 9.882240000000000035e-04 2.794921247922935947e+00
0.000000000000000000e+00 4.087329999999999913e-04 9.441080976933996505e-01
0.000000000000000000e+00 9.774079999999999227e-04 5.270378229370137335e-01
0.000000000000000000e+00 3.751040000000000190e-04 3.821470537717125637e+00
0.000000000000000000e+00 7.385280000000000143e-04 2.526162979862775604e+00
0.000000000000000000e+00 8.047689999999999922e-04 3.726014711408580649e+00
0.000000000000000000e+00 2.731090000000000037e-04 4.672913491826335974e-01
0.000000000000000000e+00 1.008259999999999972e-03 2.389462892095313595e+00
0.000000000000000000e+00 8.929539999999999700e-03 1.846971047758878104e+00
0.000000000000000000e+00 1.034980000000000015e-03 4.336008344706597128e+00
0.000000000000000000e+00 1.568639999999999943e-04 2.741530485550584650e+00
2.500000000000000139e-02 2.558209999999999998e-03 4.524612426331615644e+00
1.562500000000000000e-02 2.315460000000000088e-03 4.209947610998051815e+00
3.125000000000000173e-03 1.634009999999999976e-02 3.320397788145499796e+00
0.000000000000000000e+00 1.828420000000000089e-03 7.616042117317622928e-01
1.874999999999999931e-02 4.854210000000000295e-03 1.263988103622307735e+00
9.374999999999999653e-03 9.146879999999999811e-04 4.853596074648729441e+00
0.000000000000000000e+00 1.100290000000000079e-03 4.821919664863937527e+00
6.250000000000000347e-03 9.651060000000000194e-02 2.633485539161700473e+00
6.250000000000000347e-03 9.961960000000000259e-02 1.974751822595044892e+00
0.000000000000000000e+00 1.495870000000000056e-03 2.499706475397083238e+00
3.125000000000000173e-03 1.944919999999999982e-02 5.625847552522372785e-01
0.000000000000000000e+00 1.138689999999999928e-03 1.796443598826341637e+00
0.000000000000000000e+00 1.704830000000000061e-03 4.112638209345450768e+00
2.187499999999999861e-02 2.343809999999999991e-03 2.164486189433872276e+00
1.874999999999999931e-02 9.091370000000000007e-02 1.989811094665147051e+00
3.125000000000000000e-02 1.828289999999999993e-03 2.472675049767301125e+00
0.000000000000000000e+00 1.492519999999999958e-02 3.740713313371799575e+00
0.000000000000000000e+00 1.047039999999999950e-03 4.804024727777728154e-01
0.000000000000000000e+00 3.280509999999999936e-03 2.518357790383268124e+00
0.000000000000000000e+00 4.928639999999999757e-04 1.644434562715393344e+00
3.125000000000000173e-03 6.976419999999999670e-03 2.185999121363308983e+00
6.250000000000000347e-03 1.825599999999999922e-03 1.723350050862229033e+00
0.000000000000000000e+00 3.925120000000000258e-04 4.659555780224070354e+00
1.874999999999999931e-02 2.335869999999999874e-03 4.305494371154596323e+00
0.000000000000000000e+00 0.000000000000000000e+00 3.392358641759428028e+00
0.000000000000000000e+00 4.972250000000000107e-04 2.936656168349800922e+00
0.000000000000000000e+00 1.028049999999999971e-03 2.946972263923318458e+00
0.000000000000000000e+00 3.694719999999999754e-04 3.626472548078431224e+00
3.125000000000000173e-03 9.194239999999999574e-04 1.371454800557497133e+00
0.000000000000000000e+00 3.001599999999999993e-04 9.194160756704755633e-01
0.000000000000000000e+00 3.803070000000000062e-02 4.185382193958232300e+00
3.125000000000000173e-03 2.260419999999999964e-03 1.056835617547176476e+00
0.000000000000000000e+00 9.785600000000000635e-04 4.871644289559162289e+00
0.000000000000000000e+00 4.017280000000000135e-04 2.139258529628135008e+00
0.000000000000000000e+00 1.022860000000000002e-03 3.438010434201137056e+00
6.250000000000000347e-03 1.454530000000000102e-03 1.549989942723173364e-01
0.000000000000000000e+00 3.533939999999999846e-04 3.876659736932581701e+00
0.000000000000000000e+00 1.054910000000000049e-03 1.610856612862885395e+00
2.187499999999999861e-02 2.252930000000000210e-03 2.637099737906767771e+00
9.374999999999999653e-03 1.476929999999999996e-03 4.471716514772278828e+00
2.812500000000000069e-02 9.476480000000000667e-03 4.129241832120780664e+00
2.187499999999999861e-02 2.561130000000000004e-02 5.599917892022920896e-01
6.250000000000000347e-03 9.892059999999999742e-02 4.412331413558485238e+00
0.000000000000000000e+00 7.546239999999999632e-04 4.037875364434377445e+00
0.000000000000000000e+00 4.147170000000000023e-02 3.373361345538678613e+00
1.250000000000000069e-02 2.995260000000000023e-03 2.823383327243790042e+00
0.000000000000000000e+00 3.885970000000000201e-04 1.155028965728721158e+00
0.000000000000000000e+00 3.289859999999999920e-03 4.287794783529891518e+00
9.374999999999999653e-03 1.172539999999999910e-03 3.395531293635016379e+00
9.374999999999999653e-03 1.649710000000000065e-02 3.349145118102894614e+00
3.125000000000000173e-03 7.722239999999999573e-04 3.637252695634701993e+00
0.000000000000000000e+00 5.861080000000000066e-04 1.697143535565883710e+00
0.000000000000000000e+00 3.689539999999999834e-03 4.646071113769110639e+00
0.000000000000000000e+00 6.046989999999999917e-04 8.798721852714724845e-01
2.187499999999999861e-02 8.009149999999999603e-03 1.420509976062331869e+00
0.000000000000000000e+00 4.912620000000000138e-04 4.320021462151434122e+00
0.000000000000000000e+00 1.480259999999999953e-03 2.164573415685021374e+00
0.000000000000000000e+00 4.495360000000000003e-04 4.306834072621890996e+00
0.000000000000000000e+00 2.307740000000000033e-05 3.618709192331896585e+00
4.687500000000000000e-02 1.080499999999999933e-01 3.175698116630042200e+00
0.000000000000000000e+00 4.611870000000000010e-04 4.808618609216908091e+00
0.000000000000000000e+00 2.379580000000000063e-03 3.535056574831194620e+00
9.374999999999999653e-03 2.408829999999999825e-03 3.583433191953963259e+00
0.000000000000000000e+00 1.141309999999999981e-03 4.422868339447527219e+00
0.000000000000000000e+00 5.399680000000000452e-04 4.243818632465750973e+00
6.250000000000000347e-03 1.017979999999999927e-03 1.348000936400199468e+00
0.000000000000000000e+00 1.265639999999999951e-03 1.853617700485051811e+00
0.000000000000000000e+00 4.200830000000000232e-04 4.296853771663863064e+00
0.000000000000000000e+00 1.675520000000000004e-03 4.657126229591984634e-01
0.000000000000000000e+00 9.521920000000000340e-04 2.737844121709513967e+00
2.500000000000000139e-02 9.366109999999999713e-02 4.372915214010373752e+00
0.000000000000000000e+00 4.464189999999999825e-03 1.442482229000942695e+00
0.000000000000000000e+00 4.497090000000000137e-04 1.155636762459889555e+00
0.000000000000000000e+00 2.783809999999999844e-03 2.171967693389406762e+00
0.000000000000000000e+00 2.586879999999999735e-04 2.566965003471234574e+00
3.437500000000000278e-02 3.986520000000000341e-02 4.625961586899735245e+00
0.000000000000000000e+00 1.694719999999999929e-04 1.536777018188441035e+00
1.874999999999999931e-02 2.670780000000000202e-03 3.071173854378971058e+00
0.000000000000000000e+00 2.148919999999999997e-02 1.189757176720640519e+00
3.125000000000000173e-03 1.072239999999999999e-01 2.529729723032390076e+00
2.500000000000000139e-02 2.391739999999999838e-03 8.568690762990216481e-01
1.562500000000000000e-02 3.339969999999999831e-03 9.396452733405458169e-01
