9.374999999999999653e-03 1.167300000000000022e-03 3.258109234497125195e-01
0.000000000000000000e+00 1.105470000000000107e-03 3.693714133355549656e+00
3.125000000000000173e-03 4.384319999999999710e-03 1.106022567018279945e+00
3.125000000000000173e-03 2.541079999999999815e-03 3.600321134658895250e+00
2.812500000000000069e-02 9.128580000000000028e-02 2.223830860950365418e-01
3.749999999999999861e-02 1.076679999999999998e-01 5.912692263548124938e-02
0.000000000000000000e+00 8.157340000000000337e-04 1.826218573436879211e+00
0.000000000000000000e+00 4.124520000000000009e-04 2.975942126836858215e+00
0.000000000000000000e+00 1.127680000000000045e-03 4.201049245663590170e+00
3.125000000000000173e-03 3.737850000000000027e-03 8.629447903566267453e-01
3.125000000000000173e-03 1.010180000000000062e-03 1.477611207901794455e+00
0.000000000000000000e+00 8.819200000000000129e-04 2.965066360257547551e+00
3.125000000000000173e-03 7.837169999999999206e-03 8.122719918413773277e-01
1.250000000000000069e-02 1.600960000000000013e-03 3.907375106762127182e+00
0.000000000000000000e+00 4.054020000000000193e-03 2.897273234901626138e-01
0.000000000000000000e+00 2.012159999999999925e-04 3.541530712059169694e+00
0.000000000000000000e+00 1.584649999999999948e-02 3.431273197478390991e+00
0.000000000000000000e+00 4.296770000000000103e-03 2.149587412167750511e+00
2.500000000000000139e-02 2.919999999999999853e-03 4.820310820690308695e+00
3.125000000000000173e-03 4.408379999999999937e-03 2.947544688866277074e-01
2.187499999999999861e-02 3.177220000000000131e-03 1.097423353898034915e+00
0.000000000000000000e+00 5.246079999999999754e-04 1.663364488736956970e+00
0.000000000000000000e+00 1.066080000000000066e-03 4.523026446021938263e+00
2.812500000000000069e-02 2.778049999999999790e-03 9.542907565334440845e-01
0.000000000000000000e+00 4.702080000000000083e-04 2.525683917918271071e+00
0.000000000000000000e+00 1.623680000000000013e-04 1.761553052200443004e+00
0.000000000000000000e+00 2.067589999999999969e-05 4.013081478748992126e-01
3.125000000000000173e-03 4.302270000000000399e-03 1.018881591612116999e+00
0.000000000000000000e+00 2.948480000000000068e-04 3.222285064923617437e+00
1.874999999999999931e-02 1.749700000000000083e-03 9.841854744717648540e-01
0.000000000000000000e+00 6.139519999999999656e-04 4.533218041268597176e+00
0.000000000000000000e+00 4.022559999999999786e-04 3.926296361003474011e+00
3.125000000000000173e-03 4.115009999999999675e-03 4.210411761489171845e+00
0.000000000000000000e+00 6.506009999999999571e-02 2.270378155785524044e+00
9.374999999999999653e-03 9.710399999999999587e-02 4.589249925800659824e+00
1.874999999999999931e-02 9.279550000000000298e-02 2.031696406267497590e+00
0.000000000000000000e+00 1.396609999999999952e-03 2.334155287293257608e+00
2.500000000000000139e-02 3.172100000000000180e-03 2.579968863557478453e+00
0.000000000000000000e+00 1.039170000000000068e-03 8.537868718688490510e-01
6.250000000000000347e-03 4.646589999999999922e-03 4.336193386584533904e+00
3.125000000000000173e-03 7.903099999999999709e-03 1.263706653184820672e-01
1.562500000000000000e-02 1.922620000000000101e-03 3.424382772380373918e+00
0.000000000000000000e+00 9.967999999999999430e-04 6.162050671357610643e-01
1.562500000000000000e-02 9.273149999999999449e-02 3.960104569314210288e+00
0.000000000000000000e+00 1.119299999999999939e-03 2.438498837095000482e+00
7.812500000000000000e-02 9.247360000000000302e-02 2.037975995072442981e+00
0.000000000000000000e+00 1.587780000000000007e-03 1.396636684822704089e+00
0.000000000000000000e+00 2.132989999999999973e-03 4.567307195566944422e+00
0.000000000000000000e+00 1.287620000000000084e-02 2.208266053849355925e-01
1.250000000000000069e-02 3.421439999999999985e-03 2.528754065285396813e+00
3.125000000000000173e-03 1.473819999999999991e-02 1.372320995023106338e+00
0.000000000000000000e+00 1.856130000000000106e-03 4.719463942166665760e+00
0.000000000000000000e+00 3.665219999999999850e-03 6.255219699206232553e-01
0.000000000000000000e+00 9.573859999999999575e-04 4.926128116448571070e+00
0.000000000000000000e+00 1.659330000000000093e-03 4.672855450059786975e+00
3.125000000000000173e-03 4.291200000000000223e-03 1.121829457968940291e+00
6.250000000000000347e-03 3.231359999999999962e-03 2.176517280713178959e+00
3.125000000000000173e-03 1.395579999999999998e-03 1.621975571661034454e+00
9.374999999999999653e-03 9.448149999999999604e-02 6.632319524170682268e-01
0.000000000000000000e+00 1.268889999999999948e-02 8.943694943929986207e-01
0.000000000000000000e+00 7.868800000000000013e-04 1.069452707714796391e+00
0.000000000000000000e+00 6.321659999999999779e-02 4.615713124111776366e+00
0.000000000000000000e+00 1.420739999999999980e-03 4.126352129425969739e-01
0.000000000000000000e+00 6.224640000000000034e-03 4.027169020597176630e-01
0.000000000000000000e+00 1.879940000000000083e-02 2.708534022045090861e+00
1.250000000000000069e-02 2.216580000000000113e-03 3.559954292232683226e+00
2.812500000000000069e-02 4.570689999999999649e-03 3.514757758192931902e+00
4.687500000000000000e-02 9.421259999999999357e-02 2.836216535519509918e+00
9.374999999999999653e-03 2.165499999999999890e-03 3.426366718056675253e+00
0.000000000000000000e+00 1.455599999999999949e-02 4.398296833832008979e+00
1.874999999999999931e-02 2.448899999999999948e-03 4.052324542503972893e+00
0.000000000000000000e+00 1.856850000000000018e-05 3.302691613127300974e-01
9.374999999999999653e-03 9.117970000000000241e-02 4.638394905050558847e+00
0.000000000000000000e+00 1.066880000000000085e-03 4.676574262241228741e-01
3.125000000000000173e-03 3.625220000000000178e-03 3.009265459546430321e+00
3.125000000000000173e-03 1.774909999999999986e-03 2.985911949769028517e+00
0.000000000000000000e+00 2.566660000000000122e-03 3.181457479419800283e+00
0.000000000000000000e+00 3.043520000000000079e-03 4.744452089594969335e-01
1.125000000000000028e-01 2.267809999999999965e-02 4.166482169087504239e+00
0.000000000000000000e+00 1.892929999999999916e-03 3.516513935455064299e+00
2.500000000000000139e-02 9.440460000000000518e-02 4.102197752214729931e+00
2.812500000000000069e-02 1.903490000000000086e-03 8.594227601651127646e-02
0.000000000000000000e+00 2.283519999999999821e-03 4.461477604148306852e+00
3.125000000000000173e-03 1.088959999999999928e-03 9.680242127079763392e-01
0.000000000000000000e+00 5.489919999999999913e-04 3.485520094175936556e+00
0.000000000000000000e+00 1.295839999999999926e-03 3.951727589987598765e+00
0.000000000000000000e+00 4.995340000000000457e-04 4.639912892849484827e-02
0.000000000000000000e+00 1.097469999999999913e-03 1.424300652983245818e+00
0.000000000000000000e+00 2.926720000000000059e-04 3.127256922790925930e+00
0.000000000000000000e+00 6.317760000000000389e-03 2.806228637944964799e+00
1.874999999999999931e-02 9.146070000000000588e-02 1.204550792460186592e+00
0.000000000000000000e+00 4.393969999999999647e-03 4.162285613306407228e+00
9.374999999999999653e-03 1.985279999999999857e-03 1.138460193197017301e+00
0.000000000000000000e+00 3.928960000000000004e-04 5.928810834310266342e-01
0.000000000000000000e+00 3.265979999999999925e-03 1.167091533121624281e+00
0.000000000000000000e+00 1.051779999999999989e-03 4.631946500329295446e+00
0.000000000000000000e+00 2.210219999999999991e-05 3.854267250299663772e+00
6.250000000000000347e-03 1.976830000000000167e-03 4.787406828128712100e+00
1.874999999999999931e-02 1.312770000000000083e-02 1.517450036361975396e+00
0.000000000000000000e+00 9.351680000000000019e-04 4.991230331197384906e+00
0.000000000000000000e+00 1.658820000000000086e-03 1.335470016556114636e+00
9.374999999999999653e-03 3.120480000000000129e-02 2.232982066621607586e+00
0.000000000000000000e+00 4.064879999999999882e-04 4.159265929793621197e+00
0.000000000000000000e+00 0.000000000000000000e+00 1.027572664549081249e-01
0.000000000000000000e+00 9.898330000000000756e-04 1.466826783806213230e+00
1.874999999999999931e-02 2.718409999999999924e-02 1.474225279326313309e+00
0.000000000000000000e+00 1.210870000000000002e-02 2.520905923111493863e-01
1.562500000000000000e-02 1.559040000000000035e-03 3.768725623357136900e+00
0.000000000000000000e+00 7.786060000000000463e-04 3.211022409490338347e+00
0.000000000000000000e+00 2.202879999999999942e-03 4.339132486512268017e+00
0.000000000000000000e+00 3.935039999999999892e-03 1.808927127700309390e+00
4.062500000000000139e-02 3.365930000000000311e-02 3.372921753752721852e+00
0.000000000000000000e+00 5.292880000000000458e-04 1.773543158050017166e+00
0.000000000000000000e+00 1.597059999999999973e-03 2.205380800842470901e+00
6.250000000000000347e-03 8.040129999999999499e-03 1.709804017987953673e+00
0.000000000000000000e+00 4.087970000000000232e-04 2.485444605249674144e+00
6.250000000000000347e-03 2.084930000000000030e-03 3.544170447392205325e+00
3.125000000000000173e-03 4.994379999999999653e-03 4.827154484196619855e+00
0.000000000000000000e+00 1.307070000000000020e-03 4.462317933077745380e+00
0.000000000000000000e+00 5.430399999999999507e-04 1.198017839006624286e+00
1.250000000000000069e-02 2.904320000000000165e-03 1.516855399306340946e+00
0.000000000000000000e+00 1.939839999999999967e-03 1.078281633199770218e+00
0.000000000000000000e+00 4.134780000000000009e-04 2.267453763334439820e+00
4.374999999999999722e-02 9.203150000000000219e-02 4.729397926940917429e+00
0.000000000000000000e+00 4.400000000000000157e-04 3.617598698544207458e+00
1.250000000000000069e-02 9.313029999999999919e-02 2.711996666408063472e+00
0.000000000000000000e+00 1.142900000000000079e-03 2.591459778898621558e+00
0.000000000000000000e+00 6.602949999999999792e-04 3.744369080984845333e+00
0.000000000000000000e+00 4.190570000000000232e-04 3.173043952379828170e-01
3.125000000000000000e-02 3.120899999999999803e-03 3.375301309793279803e+00
2.500000000000000139e-02 2.692100000000000048e-02 1.834803746916380707e+00
0.000000000000000000e+00 1.007300000000000036e-03 8.493477767986240545e-01
0.000000000000000000e+00 6.432379999999999695e-04 1.793308308312474564e-01
0.000000000000000000e+00 3.143169999999999818e-03 1.607591012739796321e+00
0.000000000000000000e+00 6.698110000000000175e-02 5.109689035757969400e-01
0.000000000000000000e+00 1.676799999999999992e-03 3.165115215135122284e+00
0.000000000000000000e+00 9.634790000000000498e-04 2.436046275083898482e+00
2.500000000000000139e-02 2.879300000000000002e-03 3.330555678448853918e+00
1.874999999999999931e-02 1.220369999999999962e-02 1.739186770076142086e+00
2.187499999999999861e-02 2.576380000000000076e-03 3.964455229011421000e+00
0.000000000000000000e+00 5.322750000000000224e-03 2.246503549579028203e+00
0.000000000000000000e+00 3.137920000000000206e-04 7.932648135022923874e-01
0.000000000000000000e+00 1.253760000000000031e-03 1.635323098771890304e-01
6.250000000000000347e-03 2.460030000000000203e-03 4.209366995278147172e+00
0.000000000000000000e+00 1.059709999999999949e-03 2.751000719739296940e+00
2.500000000000000139e-02 9.561729999999999188e-03 4.217370321968632041e+00
2.500000000000000139e-02 2.616579999999999861e-03 4.405529343517134322e+00
5.000000000000000278e-02 1.709779999999999980e-02 3.394516203922209874e-01
4.374999999999999722e-02 3.792460000000000275e-02 1.986824205906552177e+00
1.562500000000000000e-02 2.064700000000000042e-03 2.480450071749050078e+00
0.000000000000000000e+00 1.500720000000000092e-03 3.284749359993613282e+00
3.125000000000000000e-02 5.460480000000000412e-04 9.526002858642035331e-01
1.562500000000000000e-02 2.214849999999999978e-03 4.852181549849912123e+00
0.000000000000000000e+00 0.000000000000000000e+00 3.107217131497836959e+00
3.125000000000000173e-03 9.726719999999999464e-04 3.748371387263915722e-02
1.250000000000000069e-02 9.749910000000000521e-02 2.187523770541227819e+00
0.000000000000000000e+00 1.716480000000000046e-03 4.296529725418488432e+00
0.000000000000000000e+00 1.083580000000000003e-03 1.133660880438866592e+00
0.000000000000000000e+00 1.965559999999999877e-03 4.985533573483741598e+00
9.374999999999999653e-03 2.455230000000000086e-03 4.926652643697389422e+00
0.000000000000000000e+00 1.142910000000000020e-03 1.352226959976958298e+00
0.000000000000000000e+00 9.758720000000000241e-04 3.949310016619533403e+00
0.000000000000000000e+00 4.549029999999999914e-04 2.759475867659193948e+00
3.125000000000000173e-03 2.451329999999999829e-03 2.426043668797984054e+00
4.687500000000000000e-02 1.687359999999999945e-03 4.742667696458896742e+00
0.000000000000000000e+00 3.641599999999999828e-04 4.912397568046061203e+00
0.000000000000000000e+00 9.910910000000000206e-03 4.829625963357368157e+00
0.000000000000000000e+00 1.101820000000000100e-03 2.927285544443374299e+00
2.812500000000000069e-02 9.353970000000000340e-02 3.101165708898355966e+00
0.000000000000000000e+00 4.634239999999999866e-04 1.108630348030432700e+00
0.000000000000000000e+00 7.363470000000000432e-04 3.113319206709096676e+00
0.000000000000000000e+00 3.067970000000000159e-03 3.655066180178643709e+00
2.812500000000000069e-02 2.219969999999999929e-03 3.446945369570579842e+00
6.250000000000000347e-03 1.807100000000000069e-03 1.723019879913157304e+00
6.250000000000000347e-03 1.720860000000000055e-03 7.334122024858447109e-01
0.000000000000000000e+00 1.757759999999999921e-03 4.400182223716610608e+00
9.374999999999999653e-03 2.291140000000000104e-03 1.326855005386027297e+00
0.000000000000000000e+00 4.515839999999999915e-04 4.569561573551635725e+00
0.000000000000000000e+00 1.103679999999999896e-03 4.950756925971911748e+00
0.000000000000000000e+00 1.733120000000000103e-04 7.218542190578475237e-01
2.187499999999999861e-02 2.480580000000000025e-03 1.371001672868263910e+00
0.000000000000000000e+00 9.883599999999999764e-04 5.784304983156185465e-01
0.000000000000000000e+00 1.787520000000000124e-04 2.998479686488928042e+00
6.250000000000000347e-03 1.692309999999999995e-02 1.361762563487693978e+00
9.374999999999999653e-03 3.983210000000000223e-02 2.625363982300940702e+00
6.250000000000000347e-03 1.009209999999999968e-02 2.920418001032645705e+00
1.562500000000000000e-02 2.481979999999999950e-03 4.633334589644894308e+00
1.562500000000000000e-02 1.540670000000000060e-03 9.810697414567670638e-01
0.000000000000000000e+00 1.327550000000000041e-03 4.086758696685130587e+00
0.000000000000000000e+00 4.424960000000000135e-04 4.187029636175273239e+00
1.562500000000000000e-02 2.329140000000000030e-02 1.518962331207024397e+00
1.250000000000000069e-02 3.058560000000000098e-03 3.543851183611221867e+00
3.125000000000000173e-03 4.033600000000000033e-03 4.565754928329982754e+00
0.000000000000000000e+00 5.911580000000000307e-02 2.513548420294378527e+00
1.562500000000000000e-02 1.917249999999999900e-03 6.889279963898647940e-01
2.500000000000000139e-02 8.403010000000000687e-03 1.209670802795128175e+00
6.250000000000000347e-03 1.911420000000000046e-03 5.807066453342724088e-02
6.250000000000000347e-03 4.399399999999999838e-02 3.507622619478888204e+00
0.000000000000000000e+00 8.903770000000000304e-04 1.723634134062606460e+00
0.000000000000000000e+00 3.734000000000000231e-04 4.410498452074812725e+00
0.000000000000000000e+00 1.117960000000000091e-03 1.929788730845761746e+00
6.250000000000000347e-03 1.913020000000000085e-03 4.108551856535192393e+00
2.500000000000000139e-02 2.710080000000000128e-03 4.340919652822180730e+00
0.000000000000000000e+00 6.473239999999999550e-02 1.332519430643765990e+00
1.562500000000000000e-02 1.864379999999999900e-03 2.092321099703227105e+00
0.000000000000000000e+00 1.728579999999999960e-03 2.160822730237768496e+00
1.562500000000000000e-02 1.060030000000000000e-01 2.937312494228214721e+00
1.562500000000000000e-02 3.324029999999999953e-03 2.024890337514805516e+00
0.000000000000000000e+00 1.125439999999999904e-03 7.303636489497888906e-01
1.562500000000000000e-02 2.120809999999999917e-01 3.419649550461772325e+00
0.000000000000000000e+00 4.538389999999999785e-02 3.732117927273367108e+00
1.874999999999999931e-02 9.137380000000000502e-02 1.368159636058075002e-02
0.000000000000000000e+00 1.008049999999999918e-03 8.430780764575496189e-01
0.000000000000000000e+00 2.182019999999999793e-03 1.617512420543600449e+00
4.687500000000000000e-02 9.185550000000000659e-02 1.612123760063465250e+00
0.000000000000000000e+00 6.938320000000000208e-04 1.856611406869368874e+00
2.187499999999999861e-02 2.148419999999999844e-03 3.276095492927795227e+00
2.187499999999999861e-02 2.540929999999999838e-03 1.051902258654291877e+00
9.374999999999999653e-03 2.508289999999999825e-03 2.523074994185503517e-01
0.000000000000000000e+00 6.590140000000000407e-03 4.957838151646181579e+00
2.187499999999999861e-02 2.624959999999999967e-03 2.269729867079944619e+00
0.000000000000000000e+00 2.274819999999999880e-03 4.149548643955033533e+00
0.000000000000000000e+00 1.624170000000000127e-02 3.605025484105162548e+00
1.250000000000000069e-02 1.607810000000000098e-03 4.619310598205764506e+00
2.500000000000000139e-02 8.299390000000000239e-03 2.575770544145229657e+00
5.625000000000000139e-02 3.003190000000000026e-02 4.567047466278195689e-01
1.562500000000000000e-02 2.219580000000000077e-03 1.508001940342927893e+00
1.874999999999999931e-02 2.248060000000000076e-03 3.807443236008288601e+00
5.625000000000000139e-02 9.287389999999999535e-02 3.644727513658479356e+00
3.125000000000000173e-03 2.513410000000000210e-03 4.029064232251741373e+00
2.187499999999999861e-02 1.042740000000000056e-01 2.506987991359532764e+00
0.000000000000000000e+00 4.116480000000000269e-04 2.969420799216015538e+00
1.562500000000000000e-02 1.538880000000000066e-03 2.316845669717028322e+00
0.000000000000000000e+00 1.055930000000000063e-01 1.584980309353132277e+00
0.000000000000000000e+00 7.760409999999999921e-04 1.847703249078881393e+00
0.000000000000000000e+00 3.298590000000000007e-04 2.769393059769396093e+00
6.562500000000000278e-02 9.242590000000000527e-02 2.348583800932390719e+00
2.500000000000000139e-02 1.791870000000000095e-03 1.377277635876459794e+00
0.000000000000000000e+00 9.688960000000000150e-04 1.699556475091837937e+00
0.000000000000000000e+00 1.071939999999999959e-03 1.194972062373694799e+00
0.000000000000000000e+00 3.602559999999999877e-03 1.642326088827974040e+00
2.812500000000000069e-02 3.051649999999999936e-03 8.151293964938849390e-01
0.000000000000000000e+00 7.972479999999999671e-04 3.890099963363726321e+00
0.000000000000000000e+00 4.943490000000000037e-03 1.296806406460210281e+00
1.874999999999999931e-02 2.223810000000000110e-03 1.924394764674385971e+00
0.000000000000000000e+00 2.290219999999999902e-05 3.901259409401324874e+00
0.000000000000000000e+00 1.525890000000000015e-03 1.776580687647910661e-02
0.000000000000000000e+00 5.148600000000000138e-04 8.488111227008654502e-02
2.500000000000000139e-02 3.757499999999999989e-03 1.686854991796993275e-03
9.374999999999999653e-03 3.705060000000000298e-02 4.836320402324741252e+00
0.000000000000000000e+00 2.467200000000000231e-04 1.756638219733190898e+00
0.000000000000000000e+00 0.000000000000000000e+00 3.863615097580904489e+00
0.000000000000000000e+00 4.876060000000000203e-04 2.721848622855684852e+00
0.000000000000000000e+00 1.051070000000000086e-03 3.939440038461270444e+00
2.500000000000000139e-02 2.354750000000000072e-03 8.146554047337051241e-01
0.000000000000000000e+00 1.513030000000000061e-03 3.751380169743492310e+00
3.125000000000000173e-03 4.764799999999999917e-04 4.851912636339326568e+00
0.000000000000000000e+00 3.948159999999999821e-04 3.210708820133056030e+00
3.125000000000000000e-02 3.029389999999999861e-02 4.168186899842003967e+00
3.125000000000000173e-03 4.594939999999999615e-03 4.739235079025540642e+00
6.250000000000000347e-03 4.929979999999999606e-03 2.765430728868691901e+00
3.125000000000000000e-02 9.181499999999999384e-02 4.072772297730431035e+00
0.000000000000000000e+00 1.921679999999999916e-02 3.027245728332053076e+00
0.000000000000000000e+00 7.358339999999999890e-04 2.445225100629897064e+00
0.000000000000000000e+00 4.648039999999999811e-02 2.171766794028538339e+00
1.874999999999999931e-02 1.223650000000000085e-02 1.457397998211657608e+00
5.937499999999999722e-02 9.203690000000000482e-02 3.351596958929523140e+00
1.562500000000000000e-02 2.084100000000000188e-03 2.320391642317589209e+00
9.374999999999999653e-03 3.031869999999999878e-03 4.585830495537254414e+00
2.500000000000000139e-02 1.891780000000000024e-03 4.974453485573999245e+00
6.250000000000000347e-03 5.064960000000000512e-04 4.822342475267960005e-01
0.000000000000000000e+00 7.556489999999999475e-04 2.248874879573561358e+00
0.000000000000000000e+00 1.178889999999999973e-02 3.190708329292994971e+00
6.250000000000000347e-03 1.808449999999999988e-02 4.904524089308432977e+00
0.000000000000000000e+00 1.011069999999999981e-03 3.480642399430722289e+00
2.812500000000000069e-02 4.649089999999999820e-03 2.181297080753383799e+00
2.187499999999999861e-02 2.029249999999999804e-03 1.552558151735519143e+00
0.000000000000000000e+00 3.112960000000000033e-02 6.098786226904784336e-01
1.250000000000000069e-02 1.290900000000000034e-02 2.047287921461599325e+00
2.812500000000000069e-02 9.258439999999999725e-02 2.363631768843021508e+00
0.000000000000000000e+00 6.165679999999999772e-03 2.338968321814282270e+00
0.000000000000000000e+00 1.452989999999999924e-03 4.660360075106268596e+00
6.250000000000000347e-03 1.595389999999999916e-03 1.676281077319097257e+00
3.125000000000000000e-02 2.471870000000000143e-03 5.183129002518838124e-01
1.874999999999999931e-02 1.831869999999999983e-03 4.445380706494272971e-01
0.000000000000000000e+00 7.015329999999999526e-04 7.677656422240286549e-01
2.500000000000000139e-02 2.575229999999999967e-03 2.907877001796513206e+00
4.374999999999999722e-02 9.238949999999999940e-02 7.460595273717229858e-04
0.000000000000000000e+00 1.939750000000000155e-02 3.189544606347959999e+00
0.000000000000000000e+00 9.891929999999999733e-04 1.493246407524335684e+00
0.000000000000000000e+00 2.509379999999999857e-03 4.606029684146191627e+00
0.000000000000000000e+00 1.503999999999999912e-03 4.422257989698241687e+00
0.000000000000000000e+00 2.233849999999999966e-05 4.527052022935935227e+00
1.874999999999999931e-02 2.836860000000000076e-03 4.271236477398446141e+00
0.000000000000000000e+00 3.866100000000000135e-04 1.728055084756610071e+00
0.000000000000000000e+00 7.468000000000000463e-04 4.146228681039543229e-01
0.000000000000000000e+00 9.950930000000000625e-04 4.041567608565544312e+00
0.000000000000000000e+00 1.649859999999999955e-03 4.439272552418779050e+00
2.187499999999999861e-02 2.559099999999999916e-03 4.493753504051411163e+00
4.374999999999999722e-02 9.066369999999999985e-02 7.321051458171412563e-01
0.000000000000000000e+00 1.786940000000000099e-03 7.962251143463716652e-02
0.000000000000000000e+00 9.286209999999999604e-03 4.375067604091699813e+00
0.000000000000000000e+00 2.334510000000000117e-05 4.984989550051288631e+00
2.500000000000000139e-02 2.135039999999999941e-03 2.567102071233520633e+00
2.812500000000000069e-02 3.503219999999999945e-02 2.236836067795500149e+00
6.250000000000000347e-03 3.136959999999999835e-03 4.199238101723201666e+00
4.687500000000000000e-02 3.946190000000000114e-02 1.243731930790307194e+00
9.374999999999999653e-03 5.382719999999999692e-03 4.775789829358084049e+00
0.000000000000000000e+00 5.312640000000000418e-04 1.593349894780209386e+00
0.000000000000000000e+00 9.096319999999999536e-04 2.915899939279246844e+00
0.000000000000000000e+00 2.568959999999999907e-03 1.112242468376954285e+00
0.000000000000000000e+00 2.361540000000000080e-03 2.994658473738290194e+00
0.000000000000000000e+00 0.000000000000000000e+00 1.769652295402297071e+00
1.250000000000000069e-02 1.533819999999999975e-03 2.146280774583260165e+00
6.250000000000000347e-03 2.572099999999999907e-03 2.205245448929056717e+00
0.000000000000000000e+00 1.660220000000000012e-03 1.336767077570759632e+00
0.000000000000000000e+00 1.051330000000000060e-03 3.423932507208533149e+00
3.125000000000000173e-03 7.126979999999999774e-03 4.235609061597073177e-01
3.125000000000000173e-03 4.212539999999999861e-03 2.524595607484720450e+00
1.250000000000000069e-02 1.858430000000000108e-03 7.962716898587590686e-01
0.000000000000000000e+00 3.814150000000000201e-04 1.759940274390922710e+00
0.000000000000000000e+00 1.525409999999999960e-02 2.569995476966220771e+00
0.000000000000000000e+00 2.551680000000000072e-04 2.259196901365068566e+00
3.125000000000000173e-03 1.183200000000000050e-02 4.864937450702785604e+00
1.250000000000000069e-02 1.683840000000000033e-03 2.857524044487548931e+00
6.250000000000000347e-03 2.909650000000000084e-02 2.145709049721444828e+00
8.749999999999999445e-02 2.623259999999999828e-02 1.104505075855910068e+00
1.250000000000000069e-02 1.342459999999999964e-03 2.846325985929210045e-01
2.500000000000000139e-02 9.244670000000000665e-02 2.019851009454666890e+00
0.000000000000000000e+00 3.030399999999999934e-03 1.871421066505251085e+00
2.812500000000000069e-02 6.247550000000000325e-02 1.286606382240748747e+00
0.000000000000000000e+00 3.693600000000000008e-04 2.057309203745156800e+00
3.125000000000000173e-03 3.174719999999999799e-03 1.526761321055470244e+00
1.562500000000000000e-02 1.664960000000000051e-03 1.260923642405116230e+00
3.125000000000000173e-03 9.929659999999999875e-02 3.341665829992663372e+00
2.500000000000000139e-02 2.507580000000000139e-03 4.323668805065284282e+00
6.250000000000000347e-03 1.044970000000000065e-01 4.685167141499863241e+00
3.125000000000000173e-03 1.921860000000000061e-03 3.646944007817588762e+00
0.000000000000000000e+00 1.820290000000000016e-03 1.365824320833269878e+00
1.250000000000000069e-02 2.165180000000000056e-03 2.115444774561627383e+00
1.874999999999999931e-02 3.419580000000000189e-03 3.429779803598315802e+00
1.562500000000000000e-02 3.257789999999999991e-03 4.243666934534326529e+00
1.874999999999999931e-02 3.927939999999999904e-02 3.127410438241706281e+00
0.000000000000000000e+00 9.808639999999999113e-04 1.731162065652916970e+00
2.500000000000000139e-02 2.937470000000000185e-03 2.571839241452558600e+00
0.000000000000000000e+00 3.675199999999999995e-03 3.013235914920769254e+00
3.125000000000000173e-03 1.533250000000000108e-03 3.557813849215628821e+00
3.125000000000000173e-03 4.362559999999999702e-03 8.022381908978248877e-02
1.562500000000000000e-02 2.920380000000000198e-03 1.353261425719199940e+00
1.562500000000000000e-02 2.366529999999999936e-03 7.078937362754694762e-01
6.250000000000000347e-03 9.237869999999999415e-02 6.129385375650336920e-01
1.874999999999999931e-02 2.394879999999999839e-03 2.422188788025700479e+00
0.000000000000000000e+00 7.036440000000000142e-04 3.517865055624338044e+00
2.500000000000000139e-02 2.520510000000000111e-03 2.387069452532772473e+00
9.374999999999999653e-03 2.098179999999999837e-03 4.444561307894638880e+00
4.374999999999999722e-02 9.268149999999999999e-02 3.704324909228309259e+00
2.187499999999999861e-02 2.358269999999999984e-03 5.483115187571763194e-01
6.250000000000000347e-03 8.598399999999999533e-04 2.816489870609570012e+00
9.374999999999999653e-03 1.680059999999999930e-03 1.820168174964160723e+00
1.874999999999999931e-02 2.184830000000000019e-03 4.973197708601253986e+00
0.000000000000000000e+00 3.562409999999999882e-02 1.936941459918113839e+00
6.250000000000000347e-03 2.186499999999999902e-02 4.202480174395583745e+00
0.000000000000000000e+00 9.004160000000000202e-04 3.264291269789725281e+00
0.000000000000000000e+00 4.154019999999999913e-04 2.025807171790794392e+00
0.000000000000000000e+00 2.897919999999999793e-04 2.571755722692712354e+00
0.000000000000000000e+00 1.089090000000000023e-03 1.289013830106019443e+00
0.000000000000000000e+00 2.109719999999999852e-05 1.059128574469970774e+00
0.000000000000000000e+00 6.309309999999999918e-02 2.488746905255170283e+00
1.250000000000000069e-02 2.117700000000000138e-01 4.034745500929960649e+00
0.000000000000000000e+00 7.353210000000000432e-04 1.251613513165252822e+00
0.000000000000000000e+00 9.064960000000000162e-04 1.924213692246146135e+00
3.125000000000000173e-03 7.242880000000000151e-04 2.761928836353287231e+00
0.000000000000000000e+00 1.270660000000000062e-03 1.452521929535568468e+00
2.187499999999999861e-02 2.302139999999999829e-03 3.336985466673757728e+00
2.500000000000000139e-02 4.763629999999999948e-02 1.422867670026714659e+00
3.125000000000000173e-03 4.782589999999999758e-03 3.941841811796323203e+00
0.000000000000000000e+00 5.036799999999999481e-04 8.146736870372212058e-01
0.000000000000000000e+00 0.000000000000000000e+00 1.546216066893515428e+00
0.000000000000000000e+00 3.292100000000000061e-03 5.616828611070151522e-01
0.000000000000000000e+00 3.491200000000000184e-04 6.147599696023392513e-01
2.500000000000000139e-02 2.660099999999999878e-03 3.671126670713636297e+00
0.000000000000000000e+00 7.999020000000000782e-03 4.202693216142441734e+00
1.250000000000000069e-02 7.832959999999999489e-04 2.740007763156887322e+00
3.125000000000000000e-02 2.104280000000000039e-02 1.160257813762083368e-01
2.187499999999999861e-02 2.286909999999999984e-02 3.778495871577031151e-01
1.874999999999999931e-02 1.736220000000000124e-02 2.335630073812573482e+00
0.000000000000000000e+00 2.743100000000000052e-03 4.540075009598226963e+00
0.000000000000000000e+00 1.012949999999999962e-02 4.231858511611358287e-01
9.374999999999999653e-03 2.127670000000000117e-01 2.925138380541989491e+00
3.125000000000000173e-03 4.270529999999999812e-03 3.657230450929022103e-01
2.500000000000000139e-02 2.638020000000000035e-03 9.662784443431621240e-01
0.000000000000000000e+00 4.960000000000000216e-04 4.616113482519277333e+00
1.562500000000000000e-02 3.009340000000000105e-03 4.777246456937839447e+00
1.874999999999999931e-02 7.384110000000000673e-02 4.492204526082698379e+00
1.250000000000000069e-02 1.323329999999999949e-03 4.911610007297518621e+00
2.187499999999999861e-02 1.995139999999999848e-03 1.653738470582634124e+00
0.000000000000000000e+00 4.899200000000000256e-04 2.050238051754188717e+00
2.500000000000000139e-02 1.949060000000000072e-03 4.145969480952221176e+00
0.000000000000000000e+00 1.978799999999999960e-04 1.474649657854237184e+00
5.000000000000000278e-02 1.058599999999999958e-01 3.544154192525879488e+00
0.000000000000000000e+00 7.012709999999999473e-04 7.669038055199306481e-01
0.000000000000000000e+00 3.925120000000000258e-04 4.596644593058739403e+00
0.000000000000000000e+00 7.373090000000000113e-04 3.908369503876709672e+00
0.000000000000000000e+00 3.308269999999999874e-03 1.027621361389410737e+00
9.374999999999999653e-03 9.851329999999999809e-02 1.262138193751737969e+00
3.125000000000000173e-03 5.178369999999999848e-03 4.717988215018775300e+00
1.562500000000000000e-02 1.937600000000000043e-03 4.593958535952049616e+00
3.437500000000000278e-02 3.804330000000000211e-02 4.473409508072326624e+00
0.000000000000000000e+00 2.272470000000000045e-02 4.962126504439522634e+00
0.000000000000000000e+00 3.757180000000000155e-03 3.663951412396844187e+00
0.000000000000000000e+00 7.330769999999999474e-04 3.633143107189829468e+00
0.000000000000000000e+00 1.846399999999999940e-04 2.918720278948641500e+00
0.000000000000000000e+00 2.290219999999999902e-05 1.948193493399863030e+00
0.000000000000000000e+00 3.990400000000000197e-02 2.549110104158620604e+00
3.125000000000000173e-03 7.969900000000000595e-02 4.821202430375127967e+00
0.000000000000000000e+00 2.557820000000000146e-03 4.053018756627491115e-01
2.187499999999999861e-02 3.113090000000000215e-03 2.024484300394752134e-01
0.000000000000000000e+00 6.497039999999999760e-02 6.496898924936117536e-01
2.187499999999999861e-02 2.474819999999999971e-03 1.578476627890412320e+00
0.000000000000000000e+00 1.196929999999999912e-03 3.124541071226873523e+00
3.125000000000000173e-03 4.315259999999999582e-03 4.834778032115693236e+00
2.500000000000000139e-02 3.157570000000000168e-03 1.334331119214273720e+00
0.000000000000000000e+00 1.965249999999999983e-03 1.890639840197861909e+00
0.000000000000000000e+00 2.175380000000000195e-03 4.257498540568544598e+00
0.000000000000000000e+00 8.347179999999999878e-02 6.632755658799316389e-01
6.250000000000000347e-03 3.616199999999999970e-03 3.015949503999387771e-01
0.000000000000000000e+00 1.716220000000000072e-03 4.647174004202085484e+00
0.000000000000000000e+00 0.000000000000000000e+00 3.827832854579974686e+00
3.125000000000000173e-03 3.405060000000000031e-02 4.629542119830134084e+00
3.125000000000000173e-03 1.056659999999999960e-01 2.948077552493014508e+00
3.749999999999999861e-02 9.254489999999999938e-02 4.112689434782962117e+00
1.562500000000000000e-02 2.688579999999999876e-03 2.728142337206873158e+00
0.000000000000000000e+00 8.836480000000000072e-04 3.262366149225933043e+00
2.500000000000000139e-02 2.722689999999999833e-03 5.038172533970308731e-01
3.125000000000000173e-03 1.846140000000000021e-03 8.728841717198659866e-01
0.000000000000000000e+00 2.325469999999999946e-05 1.496669567699248082e+00
9.374999999999999653e-03 2.123900000000000180e-03 1.971634761301304550e+00
0.000000000000000000e+00 1.679709999999999881e-05 4.512704040088272306e-01
0.000000000000000000e+00 1.002660000000000053e-03 4.754284152563796439e+00
9.374999999999999653e-03 2.377459999999999990e-02 3.211993490017794883e+00
1.250000000000000069e-02 1.955839999999999922e-03 2.253568938705775793e+00
0.000000000000000000e+00 2.111259999999999840e-05 1.524299913636331105e+00
0.000000000000000000e+00 1.227840000000000008e-03 4.423162788644001253e+00
0.000000000000000000e+00 1.191039999999999981e-03 3.227142980013908424e-01
1.562500000000000000e-02 1.701500000000000104e-03 1.938294225879455546e+00
0.000000000000000000e+00 9.564800000000000038e-04 1.221787327903886666e+00
0.000000000000000000e+00 2.266300000000000172e-03 1.312500790636997872e+00
3.437500000000000278e-02 1.072869999999999935e-01 2.701279981086292636e+00
9.374999999999999653e-03 7.470079999999999602e-04 3.115204929748327523e-01
6.250000000000000347e-03 2.803649999999999979e-03 2.065004134820621395e+00
3.125000000000000000e-02 9.129719999999999502e-02 1.102554788208589542e+00
0.000000000000000000e+00 2.881280000000000169e-04 1.106462966515908697e-01
1.562500000000000000e-02 7.169049999999999728e-03 1.604001876082256084e-01
0.000000000000000000e+00 1.916800000000000079e-04 2.551972355793860281e+00
3.125000000000000173e-03 4.264640000000000097e-03 2.374710588994759064e+00
2.500000000000000139e-02 2.278080000000000035e-03 2.388629097133662782e+00
1.562500000000000000e-02 2.435200000000000212e-03 6.285202372133857907e-01
2.187499999999999861e-02 4.169220000000000391e-03 3.262770601716749042e+00
9.374999999999999653e-03 1.948929999999999977e-03 4.661139568030740143e+00
9.374999999999999653e-03 9.237579999999999403e-02 4.537949286449276087e+00
6.250000000000000347e-03 4.193919999999999853e-04 4.577892223077817402e-01
4.687500000000000000e-02 9.215639999999999943e-02 1.444853061184515619e+00
0.000000000000000000e+00 3.397399999999999726e-02 3.127982065264139244e+00
1.874999999999999931e-02 1.150079999999999939e-03 2.761931435680992308e+00
3.125000000000000173e-03 4.371459999999999756e-03 3.304246880309818835e+00
1.874999999999999931e-02 3.726700000000000151e-02 1.839586833226091844e+00
0.000000000000000000e+00 1.209470000000000033e-03 6.333358555653922917e-01
0.000000000000000000e+00 3.725439999999999893e-04 3.262318503150146043e+00
1.562500000000000000e-02 1.739579999999999902e-03 4.444290659994121206e-01
0.000000000000000000e+00 5.607039999999999767e-04 3.160780871538861891e+00
3.125000000000000173e-03 1.860250000000000098e-02 1.930052177602915586e+00
0.000000000000000000e+00 9.946239999999999422e-04 4.795029254117472384e+00
4.687500000000000000e-02 4.660609999999999926e-03 4.708982325869461860e+00
1.250000000000000069e-02 2.904320000000000165e-03 4.257446760711350642e+00
2.500000000000000139e-02 1.747010000000000013e-03 2.213533727070378987e+00
2.812500000000000069e-02 1.043780000000000055e-02 4.578498673977215994e+00
2.500000000000000139e-02 9.078780000000000183e-02 2.634697976496813254e+00
6.250000000000000347e-03 1.178369999999999938e-02 4.920932473602838364e+00
0.000000000000000000e+00 2.286940000000000164e-05 4.210492799669723896e-01
2.500000000000000139e-02 3.928580000000000093e-03 3.614073609442051804e+00
0.000000000000000000e+00 2.802260000000000102e-04 3.491472665857639157e+00
1.562500000000000000e-02 1.750529999999999925e-03 1.923266517410110454e-01
0.000000000000000000e+00 4.517610000000000137e-04 8.542511103855499055e-01
6.250000000000000347e-03 1.668359999999999982e-02 2.165726055622699597e+00
1.250000000000000069e-02 1.981820000000000023e-03 2.423177737183909830e+00
0.000000000000000000e+00 5.085750000000000427e-04 1.934864454640524700e+00
0.000000000000000000e+00 2.137860000000000107e-03 2.672058518670139549e-03
0.000000000000000000e+00 8.754560000000000423e-04 1.164664602977421026e+00
0.000000000000000000e+00 3.715009999999999927e-03 3.615371764345995942e+00
9.374999999999999653e-03 2.341569999999999849e-03 5.940480461250025046e-01
2.500000000000000139e-02 1.529980000000000012e-03 2.506255523358821957e+00
0.000000000000000000e+00 2.246610000000000162e-05 5.709370656555023960e-01
0.000000000000000000e+00 3.489049999999999942e-04 8.844894945505765715e-01
1.874999999999999931e-02 9.651830000000000132e-02 6.680240308629237234e-01
0.000000000000000000e+00 2.033919999999999934e-04 3.014027656435480651e-01
0.000000000000000000e+00 3.835520000000000032e-04 2.176122278864547344e+00
3.125000000000000173e-03 9.723260000000000236e-02 2.573288399760300660e+00
3.125000000000000173e-03 5.179900000000000303e-03 1.860692212390280265e-01
0.000000000000000000e+00 3.170749999999999957e-02 4.561560665836548623e+00
3.125000000000000173e-03 7.839089999999999947e-03 3.433881310919159269e+00
6.250000000000000347e-03 1.973760000000000184e-03 1.416477313569894925e+00
3.125000000000000173e-03 4.614339999999999761e-03 1.866406798246517118e-01
0.000000000000000000e+00 1.120129999999999997e-03 2.535835217342639503e+00
0.000000000000000000e+00 8.351650000000000176e-04 2.022145272386826065e+00
9.374999999999999653e-03 1.479870000000000100e-03 3.914342038229742915e+00
2.187499999999999861e-02 3.709149999999999947e-02 2.953256045377869565e+00
0.000000000000000000e+00 2.005439999999999827e-03 4.194341854532919633e+00
6.250000000000000347e-03 1.063260000000000038e-01 3.866877344672730477e+00
0.000000000000000000e+00 5.244139999999999566e-04 3.135831819128342968e+00
0.000000000000000000e+00 1.604350000000000047e-03 4.995329996461206346e-01
0.000000000000000000e+00 3.641539999999999968e-03 4.232859537535198058e+00
2.187499999999999861e-02 2.474109999999999851e-03 6.389501979801653908e-01
0.000000000000000000e+00 4.091820000000000136e-04 3.729467304120124727e+00
0.000000000000000000e+00 4.198900000000000202e-04 4.677342087248606894e+00
1.250000000000000069e-02 2.103680000000000133e-03 2.721477597945712645e+00
3.125000000000000173e-03 4.441780000000000034e-02 3.386468227585104351e-01
0.000000000000000000e+00 9.518070000000000436e-04 6.175954862976706927e-01
0.000000000000000000e+00 1.527040000000000070e-04 1.238908180768549805e-02
0.000000000000000000e+00 1.178940000000000023e-02 4.179597972573384501e-01
9.374999999999999653e-03 2.468479999999999893e-03 4.555416264177710062e+00
0.000000000000000000e+00 3.440130000000000011e-03 1.083216824823051816e+00
0.000000000000000000e+00 6.303489999999999918e-04 2.779389568697898660e+00
2.812500000000000069e-02 2.262080000000000080e-03 3.651839128100970999e+00
0.000000000000000000e+00 2.944190000000000175e-03 1.416770098639028141e+00
0.000000000000000000e+00 9.389440000000000416e-04 1.263042861645252035e+00
0.000000000000000000e+00 2.411139999999999985e-03 4.792358240002354108e+00
0.000000000000000000e+00 5.529540000000000323e-03 4.278336942597690040e+00
2.812500000000000069e-02 1.043780000000000055e-02 6.276644399850062062e-01
3.125000000000000000e-02 2.104280000000000039e-02 1.312316892750917674e+00
0.000000000000000000e+00 8.441600000000000492e-04 2.471137832423608849e+00
3.125000000000000173e-03 1.691199999999999908e-03 4.310794938093311046e+00
1.874999999999999931e-02 2.675519999999999808e-03 6.424133139543131144e-01
0.000000000000000000e+00 4.677920000000000233e-04 4.088463608572317831e+00
0.000000000000000000e+00 5.799040000000000097e-04 3.936345942743980864e+00
0.000000000000000000e+00 8.826180000000000527e-04 1.141592278888751144e+00
0.000000000000000000e+00 3.554459999999999846e-04 1.764951053103822609e+00
0.000000000000000000e+00 2.110679999999999848e-02 2.006854793256470870e+00
0.000000000000000000e+00 9.967999999999999430e-04 4.284205958496674072e+00
0.000000000000000000e+00 8.110079999999999980e-04 1.691482260931022052e+00
9.374999999999999653e-03 2.140539999999999804e-03 4.690880240161961368e+00
0.000000000000000000e+00 1.664859999999999951e-02 4.032066116207785988e+00
3.125000000000000173e-03 1.929919999999999899e-03 9.231432041605758254e-01
1.874999999999999931e-02 1.053100000000000008e-01 2.790665127394223344e+00
0.000000000000000000e+00 1.106750000000000095e-03 1.088264675878397592e+00
0.000000000000000000e+00 2.261540000000000035e-05 4.908124694428293466e+00
0.000000000000000000e+00 9.137820000000000274e-04 2.457302813878998293e+00
3.125000000000000000e-02 9.748300000000000021e-02 8.023713683463945534e-01
2.187499999999999861e-02 2.904190000000000070e-03 1.881870498851403006e+00
0.000000000000000000e+00 3.030849999999999864e-03 2.600885231764981764e+00
0.000000000000000000e+00 3.437739999999999785e-04 2.238370666502484063e+00
0.000000000000000000e+00 5.181440000000000047e-04 1.919754028026088744e+00
0.000000000000000000e+00 8.003949999999999260e-03 3.586455475273988558e+00
0.000000000000000000e+00 1.093439999999999994e-03 9.957923816825825503e-01
1.562500000000000000e-02 1.725179999999999986e-03 1.215444910672586865e+00
3.125000000000000000e-02 9.294120000000000159e-02 1.902235305629295770e+00
0.000000000000000000e+00 7.308969999999999920e-04 9.709883775663963323e-01
0.000000000000000000e+00 1.458560000000000076e-04 3.685841642887345060e+00
0.000000000000000000e+00 5.197329999999999789e-04 3.102852279002819458e+00
1.250000000000000069e-02 2.635259999999999946e-03 1.460700182021996696e+00
2.812500000000000069e-02 1.838659999999999991e-03 1.148562626245273055e+00
2.187499999999999861e-02 1.016640000000000078e-02 3.949399076158778943e+00
0.000000000000000000e+00 5.033600000000000053e-04 4.117736639491459627e+00
0.000000000000000000e+00 2.272200000000000031e-05 3.818582796611199370e+00
9.374999999999999653e-03 9.193300000000000083e-02 4.924170416754980906e+00
0.000000000000000000e+00 9.495680000000000266e-04 4.285161283187067127e+00
0.000000000000000000e+00 9.918080000000000559e-04 2.015865380591417289e+00
0.000000000000000000e+00 7.411569999999999920e-04 2.509571490607709343e-02
2.500000000000000139e-02 2.319550000000000084e-03 2.422088727013160803e-01
1.874999999999999931e-02 1.674689999999999946e-03 8.779277158684412052e-01
2.500000000000000139e-02 1.512319999999999940e-03 3.951142556452336141e+00
3.125000000000000173e-03 3.077499999999999940e-03 3.396697361415515815e+00
6.250000000000000347e-03 4.863619999999999922e-03 8.896424704056088428e-01
6.250000000000000347e-03 9.866329999999999545e-02 4.605638943212102987e+00
1.874999999999999931e-02 2.777470000000000199e-03 1.401405791849346549e+00
0.000000000000000000e+00 5.303779999999999693e-04 1.015526042395306083e+00
0.000000000000000000e+00 8.847360000000000077e-04 2.251998968882531926e+00
0.000000000000000000e+00 3.188669999999999786e-03 2.631094767792256928e+00
3.125000000000000173e-03 4.930689999999999726e-03 3.170803923389862611e+00
1.562500000000000000e-02 1.316990000000000088e-03 3.639445439238992552e+00
0.000000000000000000e+00 7.909759999999999838e-04 1.818670425502453281e+00
1.250000000000000069e-02 3.335040000000000053e-03 4.011780151519222848e+00
3.125000000000000173e-03 2.442300000000000113e-03 4.108824604594573771e+00
2.187499999999999861e-02 1.273220000000000037e-03 1.078671743492526369e+00
3.125000000000000173e-03 9.542480000000000406e-02 3.160265582945836371e+00
1.562500000000000000e-02 1.665980000000000065e-03 2.546624979890227403e-01
1.250000000000000069e-02 9.560050000000000492e-02 3.704356445755755622e+00
1.874999999999999931e-02 3.004029999999999982e-03 2.014807316877066157e+00
2.500000000000000139e-02 1.765180000000000091e-03 1.346201119280583836e+00
3.125000000000000173e-03 4.156609999999999819e-03 1.758336086345827498e+00
0.000000000000000000e+00 0.000000000000000000e+00 3.868849432211163286e-02
0.000000000000000000e+00 1.661759999999999973e-03 3.397282351483053464e+00
1.250000000000000069e-02 1.293829999999999980e-02 3.160294797646500342e+00
0.000000000000000000e+00 5.104639999999999699e-04 3.532112023207006679e+00
6.250000000000000347e-03 9.490560000000000315e-03 2.411972816568077160e+00
0.000000000000000000e+00 1.499789999999999977e-02 4.887750920143761668e+00
0.000000000000000000e+00 4.702719999999999860e-04 1.943350892839806221e+00
1.874999999999999931e-02 2.064639999999999965e-03 3.819086170652923329e+00
1.562500000000000000e-02 1.161090000000000039e-03 4.547503916287346293e+00
0.000000000000000000e+00 1.027839999999999917e-03 1.281620511712636024e+00
0.000000000000000000e+00 1.106619999999999999e-03 3.886265026322682559e+00
1.562500000000000000e-02 2.622139999999999801e-03 5.995448935559760661e-01
0.000000000000000000e+00 1.462849999999999914e-03 1.726689525057506502e-01
0.000000000000000000e+00 1.484689999999999968e-02 1.058145772819665709e+00
9.374999999999999653e-03 3.905089999999999950e-03 2.292198407027132401e+00
2.500000000000000139e-02 1.682880000000000096e-03 1.115868814267313436e+00
9.374999999999999653e-03 2.435969999999999976e-03 2.923491852778166589e+00
0.000000000000000000e+00 3.092419999999999804e-03 6.428505789650157398e-01
3.125000000000000173e-03 2.049539999999999869e-03 1.255825911274066620e+00
0.000000000000000000e+00 7.446840000000000143e-04 1.231395318536765426e+00
1.562500000000000000e-02 3.203740000000000060e-02 4.478115239245612500e+00
0.000000000000000000e+00 2.398270000000000089e-03 1.125304776043128285e+00
9.374999999999999653e-03 9.211129999999999318e-02 1.052378244022590392e+00
0.000000000000000000e+00 3.868860000000000007e-03 2.816884319047530560e+00
6.250000000000000347e-03 9.216580000000000605e-02 6.249015869892421415e-01
0.000000000000000000e+00 2.876539999999999913e-03 2.697315995556989421e+00
0.000000000000000000e+00 1.954299999999999961e-03 3.719941212601166391e+00
2.500000000000000139e-02 2.562880000000000019e-03 7.309886890429939665e-01
0.000000000000000000e+00 1.052289999999999996e-03 4.010525466490037161e+00
6.250000000000000347e-03 1.921919999999999922e-03 4.738725229193230248e+00
6.875000000000000555e-02 9.462089999999999390e-02 8.584866682966124651e-01
0.000000000000000000e+00 3.546749999999999881e-04 4.125168622438081023e+00
0.000000000000000000e+00 1.790979999999999959e-03 4.109304388131741703e+00
0.000000000000000000e+00 1.118779999999999991e-03 1.266579951959744266e+00
6.250000000000000347e-03 1.265339999999999998e-03 4.924267030209591667e+00
3.749999999999999861e-02 9.257790000000000463e-02 1.530847550014976521e+00
0.000000000000000000e+00 7.241640000000000143e-04 4.700963358902471301e-01
0.000000000000000000e+00 5.222399999999999872e-04 3.762699499317248009e+00
0.000000000000000000e+00 1.484489999999999985e-03 1.074393499988665734e+00
0.000000000000000000e+00 9.531519999999999706e-04 1.117915346375683017e+00
2.812500000000000069e-02 9.280929999999999735e-02 4.759429129196107722e-01
0.000000000000000000e+00 9.854740000000000721e-04 3.053775179381990057e-01
3.125000000000000173e-03 1.154620000000000082e-03 2.519442253519049935e+00
0.000000000000000000e+00 8.716990000000000849e-03 1.274039237272321490e+00
0.000000000000000000e+00 0.000000000000000000e+00 2.401527884365024068e+00
3.125000000000000173e-03 4.348989999999999627e-03 4.109285597948874269e+00
0.000000000000000000e+00 2.707390000000000057e-03 1.978004407069857251e+00
0.000000000000000000e+00 1.017469999999999920e-03 8.127006733159691798e-01
0.000000000000000000e+00 3.515069999999999913e-03 3.478103997598238628e+00
0.000000000000000000e+00 3.620799999999999973e-03 3.242675358469774061e+00
0.000000000000000000e+00 5.349950000000000235e-04 1.350843090326918627e+00
