9.374999999999999653e-03 5.563519999999999750e-03 2.001813207529274941e+00
1.250000000000000069e-02 9.212410000000000043e-02 1.819077082751792585e+00
5.312499999999999861e-02 9.585979999999999154e-03 1.924794082929925931e-01
0.000000000000000000e+00 4.156799999999999775e-04 1.693020475635643063e+00
1.562500000000000000e-02 1.913739999999999886e-02 1.464657869392836931e+00
1.562500000000000000e-02 1.068250000000000033e-01 1.508261083257389501e-01
0.000000000000000000e+00 7.338460000000000209e-04 3.646948647776009800e+00
2.187499999999999861e-02 6.588219999999999667e-03 1.965702053530612448e+00
0.000000000000000000e+00 4.092799999999999845e-04 4.771061486652335759e+00
0.000000000000000000e+00 8.286230000000000115e-04 2.494014442025423328e+00
0.000000000000000000e+00 1.010480000000000015e-03 4.394991154668288935e+00
0.000000000000000000e+00 6.936140000000000361e-03 2.315588219948854221e+00
0.000000000000000000e+00 8.035199999999999504e-04 4.715870208159465449e+00
9.374999999999999653e-03 5.900029999999999684e-03 3.445120691605330077e+00
0.000000000000000000e+00 2.275660000000000164e-05 8.966459857188502358e-01
0.000000000000000000e+00 1.123520000000000031e-03 3.424520522542041867e+00
3.125000000000000000e-02 3.608259999999999853e-03 3.922936350060777233e+00
0.000000000000000000e+00 5.012649999999999788e-04 9.454499819294259755e-01
0.000000000000000000e+00 5.031169999999999740e-03 3.136391558300960503e-01
3.125000000000000173e-03 1.925120000000000000e-03 4.352160629715094764e+00
3.125000000000000173e-03 1.638399999999999926e-03 4.637319718356147646e-01
0.000000000000000000e+00 2.891260000000000097e-03 2.701713383222354103e+00
3.125000000000000173e-03 1.948859999999999959e-03 1.820409904758170105e+00
6.250000000000000347e-03 2.485569999999999880e-03 1.968202927998907281e+00
4.374999999999999722e-02 9.305349999999999733e-02 2.084140119708179473e+00
0.000000000000000000e+00 1.004670000000000042e-03 1.248274442845455745e+00
0.000000000000000000e+00 1.516059999999999977e-02 4.874784241881603641e+00
0.000000000000000000e+00 6.883199999999999692e-04 4.711041542215502531e+00
0.000000000000000000e+00 2.457600000000000062e-02 3.912781482801295674e+00
2.187499999999999861e-02 3.343229999999999986e-03 4.745525153111797678e+00
1.562500000000000000e-02 3.225219999999999997e-03 3.666481973601034117e+00
1.562500000000000000e-02 3.588159999999999961e-03 1.185117341385080181e+00
0.000000000000000000e+00 4.714109999999999655e-03 3.902680030346722617e+00
6.250000000000000347e-03 1.152830000000000087e-03 3.974446067007555428e+00
0.000000000000000000e+00 1.083439999999999959e-01 2.151487742841618367e+00
0.000000000000000000e+00 6.646399999999999791e-04 3.543239402381704650e+00
1.250000000000000069e-02 1.942460000000000020e-03 4.640996595725049190e+00
0.000000000000000000e+00 7.143679999999999475e-04 2.570840138410520836e+00
0.000000000000000000e+00 0.000000000000000000e+00 2.163257878922481670e+00
3.125000000000000173e-03 7.672899999999999859e-03 4.883371599793841611e+00
3.749999999999999861e-02 1.063370000000000010e-01 3.544320425572133892e-01
0.000000000000000000e+00 1.135720000000000002e-03 2.857667446133656419e+00
2.187499999999999861e-02 3.217789999999999886e-03 1.730433633205739063e+00
0.000000000000000000e+00 4.243790000000000106e-04 3.011829363855288655e+00
3.125000000000000173e-03 5.546370000000000119e-03 1.363619767809231664e+00
6.250000000000000347e-03 2.938620000000000121e-02 2.995655889721613008e+00
3.749999999999999861e-02 4.143059999999999798e-02 9.064205783131873417e-01
0.000000000000000000e+00 2.179200000000000006e-04 1.931998317914053187e+00
0.000000000000000000e+00 1.112509999999999931e-03 7.347680539163214952e-01
0.000000000000000000e+00 1.136190000000000030e-03 2.414358549609180393e+00
3.125000000000000173e-03 9.725430000000000186e-02 4.642566165588957183e-01
3.125000000000000173e-03 9.632220000000000365e-03 9.060350371809239300e-01
2.500000000000000139e-02 9.526269999999999877e-03 2.223274905397504941e+00
1.562500000000000000e-02 2.671939999999999819e-03 1.105439320365836364e-01
4.374999999999999722e-02 9.391170000000000767e-03 1.247305251879071708e+00
9.374999999999999653e-03 9.809110000000000051e-02 3.571607246151620174e+00
6.250000000000000347e-03 2.840000000000000076e-03 2.906735075472140384e+00
0.000000000000000000e+00 1.088000000000000019e-04 2.691765859099334079e+00
0.000000000000000000e+00 3.558950000000000069e-04 1.330446984926112464e+00
0.000000000000000000e+00 3.271299999999999989e-03 1.885395840229764364e-01
3.125000000000000173e-03 7.035519999999999751e-04 4.321803145378882327e+00
3.125000000000000173e-03 9.962909999999999822e-02 2.101833628705494394e+00
0.000000000000000000e+00 4.651390000000000038e-03 2.150815763759647670e+00
1.562500000000000000e-02 1.981179999999999920e-03 4.084878320440592958e+00
0.000000000000000000e+00 9.122559999999999610e-04 7.421808605344260013e-01
3.125000000000000173e-03 4.194389999999999924e-02 1.672680648420514782e+00
0.000000000000000000e+00 2.182079999999999870e-03 1.682212819396328163e-01
0.000000000000000000e+00 7.349369999999999601e-04 2.987064131548512691e+00
0.000000000000000000e+00 4.396800000000000187e-03 3.935124635466373366e+00
0.000000000000000000e+00 1.060160000000000095e-03 4.754949419896541407e+00
0.000000000000000000e+00 1.933040000000000105e-02 3.221549601933245910e+00
0.000000000000000000e+00 4.092799999999999845e-04 4.684076810205553443e+00
1.250000000000000069e-02 9.574509999999999965e-02 4.877234153459565569e+00
1.562500000000000000e-02 2.333179999999999803e-03 4.198700894751436152e+00
3.125000000000000173e-03 1.737859999999999926e-03 3.153590558456337511e+00
0.000000000000000000e+00 1.683390000000000103e-03 1.710564474383940325e+00
4.374999999999999722e-02 5.577470000000000171e-03 4.519895082486038440e+00
1.250000000000000069e-02 2.118269999999999788e-03 3.333463060748097284e+00
0.000000000000000000e+00 9.971839999999999177e-04 7.150886645273096809e-01
0.000000000000000000e+00 2.705980000000000191e-03 3.639329452761808525e+00
2.500000000000000139e-02 3.360580000000000164e-03 2.996587114217452719e-01
9.374999999999999653e-03 2.340669999999999990e-03 2.569579773022109936e+00
0.000000000000000000e+00 9.567999999999999465e-04 1.211632815601901392e+00
2.812500000000000069e-02 9.122919999999999641e-02 3.189865397325669649e-01
3.125000000000000173e-03 9.628530000000000422e-02 3.370841988673898726e+00
2.500000000000000139e-02 9.651759999999999506e-02 1.619115155018208796e+00
6.250000000000000347e-03 1.728680000000000017e-03 2.305735918604109980e+00
1.250000000000000069e-02 1.763070000000000045e-03 3.564627183802361543e+00
4.062500000000000139e-02 9.306430000000000258e-02 2.774311751231520518e+00
0.000000000000000000e+00 2.341380000000000110e-03 2.768838979321432969e+00
1.250000000000000069e-02 2.839939999999999999e-03 2.489630004014877329e+00
3.125000000000000173e-03 2.189439999999999963e-03 1.068646402566031828e+00
1.874999999999999931e-02 2.126959999999999962e-01 4.863156689651764175e+00
0.000000000000000000e+00 2.657280000000000145e-04 2.458419296822802913e+00
0.000000000000000000e+00 1.861190000000000048e-05 3.800327297100436930e+00
0.000000000000000000e+00 1.290050000000000051e-03 8.152110156449332568e-01
0.000000000000000000e+00 1.736320000000000073e-04 3.693758441544318316e+00
1.562500000000000000e-02 4.696260000000000018e-02 2.566576223402745605e+00
0.000000000000000000e+00 7.274340000000000016e-04 1.917744348985656710e+00
0.000000000000000000e+00 3.738290000000000016e-03 2.021833459949944789e+00
3.125000000000000173e-03 1.816380000000000034e-03 1.438705158210534796e-01
0.000000000000000000e+00 4.924800000000000011e-04 4.779539050728126348e+00
0.000000000000000000e+00 5.602560000000000352e-03 1.649315803309328032e+00
0.000000000000000000e+00 1.010669999999999971e-03 3.104080487908689623e+00
2.187499999999999861e-02 2.203140000000000133e-03 2.732502764359705960e+00
3.125000000000000173e-03 2.223300000000000103e-03 1.896806954056700079e+00
0.000000000000000000e+00 2.934029999999999971e-02 1.068200657528883823e+00
5.000000000000000278e-02 9.424979999999999469e-02 1.734834637469647056e+00
0.000000000000000000e+00 8.590720000000000040e-04 4.835547874066586926e-01
2.812500000000000069e-02 2.248510000000000005e-03 2.550418299637083663e+00
3.125000000000000173e-03 7.021440000000000320e-04 3.870756962561553216e+00
0.000000000000000000e+00 3.887359999999999861e-04 3.790658542914591589e+00
0.000000000000000000e+00 2.285029999999999960e-03 7.917654502636339853e-01
0.000000000000000000e+00 2.244100000000000174e-03 3.178519012774993602e+00
6.250000000000000347e-03 2.037249999999999998e-03 4.570926038331288410e+00
0.000000000000000000e+00 8.834180000000000504e-03 1.124237997221073648e+00
0.000000000000000000e+00 6.402880000000000333e-04 4.046610436137360267e+00
3.125000000000000173e-03 3.424340000000000109e-03 7.078659611259308093e-01
0.000000000000000000e+00 1.687039999999999894e-04 8.321455146122236357e-01
0.000000000000000000e+00 4.132730000000000257e-03 3.670007278074950641e+00
0.000000000000000000e+00 2.562560000000000076e-04 3.234836230452722727e+00
3.125000000000000173e-03 1.411759999999999925e-02 2.376056124079557463e+00
0.000000000000000000e+00 6.270720000000000027e-04 2.605230175236502355e+00
0.000000000000000000e+00 9.490559999999999882e-04 4.943284230449663141e+00
0.000000000000000000e+00 4.329720000000000010e-04 2.271547153767163874e+00
2.187499999999999861e-02 2.563520000000000122e-03 3.612790734682878480e+00
1.562500000000000000e-02 9.341059999999999641e-02 1.261353309983323623e+00
1.874999999999999931e-02 2.800130000000000067e-03 3.221085654944404020e+00
2.812500000000000069e-02 2.907780000000000000e-03 4.106458339947142377e+00
3.437500000000000278e-02 9.238870000000000415e-02 1.903187522220981975e+00
2.812500000000000069e-02 1.395779999999999894e-03 4.368963170321143785e+00
2.812500000000000069e-02 2.398270000000000089e-03 4.237398830056323007e+00
3.125000000000000173e-03 1.525469999999999951e-02 1.076690430813949106e+00
0.000000000000000000e+00 1.003970000000000079e-03 4.163811882191073899e+00
1.250000000000000069e-02 2.590139999999999890e-03 3.863440656534206097e-01
2.812500000000000069e-02 4.580350000000000393e-03 2.652242411302918601e-01
2.500000000000000139e-02 2.659460000000000209e-03 4.279970959664271213e+00
0.000000000000000000e+00 3.566719999999999895e-04 1.100336771090833388e+00
0.000000000000000000e+00 7.466070000000000432e-04 1.399396926804954422e+00
0.000000000000000000e+00 1.835009999999999983e-03 4.568461395094573163e+00
0.000000000000000000e+00 1.220610000000000011e-03 4.598862882981314293e+00
0.000000000000000000e+00 3.134529999999999955e-03 1.250952236311088095e+00
0.000000000000000000e+00 7.548799999999999824e-04 2.245596079618387808e+00
0.000000000000000000e+00 4.946940000000000365e-03 4.734565528647732835e-01
1.093750000000000000e-01 2.852129999999999943e-02 3.015394224678435986e-01
3.125000000000000173e-03 5.999359999999999589e-03 3.358801910354553222e+00
0.000000000000000000e+00 7.839360000000000512e-04 1.195323772157397269e-01
0.000000000000000000e+00 1.127680000000000018e-04 2.692818077474144367e+00
3.125000000000000173e-03 7.657680000000000042e-03 4.896032557523315454e+00
3.125000000000000173e-03 1.721340000000000023e-03 4.406636177401501264e+00
0.000000000000000000e+00 3.112960000000000033e-02 2.385616040602653865e+00
0.000000000000000000e+00 2.059590000000000032e-02 2.989570098455279101e+00
0.000000000000000000e+00 5.026430000000000134e-03 3.130597494218001486e-01
0.000000000000000000e+00 5.516609999999999916e-03 3.600896541531583672e+00
2.500000000000000139e-02 5.145470000000000078e-03 3.447951840528771683e+00
3.125000000000000173e-03 1.394980000000000005e-02 4.128258067761191086e+00
0.000000000000000000e+00 2.230670000000000108e-05 1.260152586248636908e+00
3.125000000000000173e-03 6.913279999999999512e-04 1.373880980827040688e+00
0.000000000000000000e+00 4.435530000000000137e-04 3.024007818203710674e+00
4.062500000000000139e-02 1.058309999999999945e-01 1.068684574960154343e+00
3.125000000000000173e-03 6.634879999999999467e-04 4.694504314324273508e+00
3.125000000000000173e-03 1.655170000000000079e-03 1.707135291033236690e+00
0.000000000000000000e+00 4.777540000000000259e-03 4.253010326555016540e+00
1.562500000000000000e-02 9.258089999999999375e-02 1.436882631170300240e+00
0.000000000000000000e+00 5.162059999999999566e-04 8.168020638925138632e-01
3.125000000000000173e-03 6.833920000000000055e-04 3.879169025189028730e+00
0.000000000000000000e+00 1.687679999999999996e-03 3.904140553337403396e+00
0.000000000000000000e+00 1.167840000000000024e-02 4.700069085879671205e-01
0.000000000000000000e+00 3.476229999999999750e-04 4.396814711211030513e+00
0.000000000000000000e+00 9.165440000000000392e-04 1.905914643003425279e+00
0.000000000000000000e+00 9.308800000000000321e-04 2.803712748784839004e+00
1.250000000000000069e-02 2.338240000000000110e-03 1.092222322543503488e+00
0.000000000000000000e+00 8.007300000000000181e-03 2.860113462689645170e-01
0.000000000000000000e+00 4.277780000000000232e-04 3.318714342066901857e+00
3.125000000000000173e-03 6.901119999999999954e-04 4.428357770496317514e+00
2.500000000000000139e-02 2.070339999999999941e-03 4.337796156192895047e+00
0.000000000000000000e+00 1.039530000000000098e-03 1.401001705636334416e+00
0.000000000000000000e+00 4.438779999999999809e-03 4.935359045158589808e+00
0.000000000000000000e+00 7.357060000000000335e-04 1.835182505020179766e+00
0.000000000000000000e+00 2.970620000000000205e-03 4.854467309710046585e+00
3.125000000000000173e-03 9.312670000000000670e-02 4.667472170681531196e+00
1.250000000000000069e-02 1.251390000000000011e-03 9.201611933862174908e-01
0.000000000000000000e+00 9.800320000000000385e-04 2.780825913386880899e+00
0.000000000000000000e+00 7.474559999999999668e-04 5.952579190234652540e-01
0.000000000000000000e+00 4.501309999999999686e-03 2.532403027282630337e+00
6.250000000000000347e-03 1.387009999999999936e-03 3.028369700848854595e+00
2.187499999999999861e-02 1.990079999999999974e-03 2.536947646428633352e+00
0.000000000000000000e+00 2.115839999999999908e-03 2.681759502723684463e+00
0.000000000000000000e+00 1.009150000000000108e-03 1.050002545074106841e+00
0.000000000000000000e+00 2.346749999999999851e-05 3.140443950131404982e+00
1.250000000000000069e-02 2.277379999999999856e-03 4.078021719415646729e+00
0.000000000000000000e+00 2.411969999999999826e-03 3.461733306579631186e+00
1.874999999999999931e-02 2.311870000000000158e-03 3.458874543220396447e+00
3.437500000000000278e-02 9.238870000000000415e-02 2.912021311939527735e-01
0.000000000000000000e+00 9.229439999999999780e-04 1.753920717434212406e+00
0.000000000000000000e+00 1.011710000000000083e-03 2.896481780972559150e+00
0.000000000000000000e+00 4.351680000000000131e-03 6.317966037478850438e-01
3.125000000000000173e-03 1.997039999999999840e-03 2.135683840591177773e+00
1.250000000000000069e-02 9.369009999999999838e-02 8.429137141948644940e-01
0.000000000000000000e+00 1.840640000000000050e-04 3.784185383550111137e+00
0.000000000000000000e+00 9.418239999999999598e-04 5.433006294430875460e-01
5.000000000000000278e-02 1.018419999999999916e-02 9.155998461968456459e-01
0.000000000000000000e+00 1.972900000000000001e-02 2.116168859654779411e+00
0.000000000000000000e+00 1.404290000000000095e-03 3.337489574847204210e+00
0.000000000000000000e+00 4.353789999999999744e-03 1.625429180657757655e+00
0.000000000000000000e+00 9.391119999999999763e-04 2.163320495941669197e+00
0.000000000000000000e+00 1.934079999999999914e-03 8.143985347038107392e-01
3.125000000000000173e-03 2.865550000000000128e-03 1.201424831784998926e+00
0.000000000000000000e+00 2.166609999999999912e-05 3.848758583135507561e+00
2.812500000000000069e-02 2.984840000000000063e-02 3.454114367778957639e+00
4.062500000000000139e-02 8.941759999999999986e-03 3.092867933467959851e+00
6.250000000000000347e-03 1.706880000000000029e-03 1.545012160140692981e+00
1.250000000000000069e-02 2.875649999999999994e-03 4.595927785926175346e+00
0.000000000000000000e+00 1.022990000000000097e-03 4.538324311184318560e+00
0.000000000000000000e+00 6.860800000000000448e-04 3.327402905528897836e+00
2.187499999999999861e-02 2.568770000000000168e-03 1.807345022016366709e+00
0.000000000000000000e+00 5.131919999999999885e-04 2.686233515511257330e+00
0.000000000000000000e+00 9.824000000000000267e-04 2.936621669977097060e+00
1.250000000000000069e-02 1.750660000000000020e-03 4.191723285734338056e+00
6.250000000000000347e-03 1.718710000000000029e-02 4.943387722092021264e+00
6.250000000000000347e-03 1.488259999999999930e-03 9.242463831326708235e-01
0.000000000000000000e+00 3.489690000000000261e-04 9.464954423588539667e-01
1.562500000000000000e-02 9.212109999999999743e-02 3.241857973086894606e+00
0.000000000000000000e+00 2.453500000000000125e-02 4.390379594079202974e+00
3.125000000000000173e-03 2.098619999999999826e-03 4.607288119840527330e+00
0.000000000000000000e+00 1.479740000000000005e-03 1.816600245228184196e+00
0.000000000000000000e+00 1.029749999999999936e-02 2.264400636571113790e+00
0.000000000000000000e+00 2.195689999999999979e-05 3.838602255910670724e+00
2.812500000000000069e-02 2.384900000000000127e-03 3.256332368299607261e+00
1.562500000000000000e-02 1.778690000000000089e-03 1.766747923995303227e+00
0.000000000000000000e+00 4.223979999999999575e-03 2.145937527497071562e-01
6.250000000000000347e-03 5.149950000000000361e-03 1.493618410569370170e+00
0.000000000000000000e+00 1.027160000000000052e-03 1.936711531778104067e+00
1.062499999999999972e-01 9.383950000000000624e-02 2.831200449091999083e+00
3.125000000000000173e-03 6.444159999999999775e-04 9.757275121169578513e-01
1.250000000000000069e-02 2.641989999999999963e-02 2.663097816962802789e+00
9.374999999999999653e-03 2.338049999999999937e-03 4.949139555125619871e+00
0.000000000000000000e+00 8.072280000000000579e-05 2.222872428904176800e-01
0.000000000000000000e+00 4.903000000000000457e-04 1.001579657575669691e+00
0.000000000000000000e+00 5.087040000000000138e-04 4.186149494815852634e+00
3.125000000000000173e-03 4.915199999999999778e-03 2.006209778020600520e+00
0.000000000000000000e+00 5.202460000000000331e-04 4.466235063119396109e+00
0.000000000000000000e+00 2.887300000000000196e-03 7.420637378748318191e-02
2.500000000000000139e-02 2.500099999999999892e-03 3.904872630629010022e+00
0.000000000000000000e+00 1.013570000000000096e-03 6.443832269076604780e-01
0.000000000000000000e+00 4.447490000000000124e-03 1.630310239913679737e+00
0.000000000000000000e+00 2.284710000000000018e-05 4.356485892565089557e+00
3.125000000000000173e-03 2.055219999999999964e-02 1.537900830290273468e+00
0.000000000000000000e+00 8.715240000000000400e-04 6.413707093423870464e-01
0.000000000000000000e+00 5.981580000000000013e-04 1.744819973257120127e+00
8.437500000000000555e-02 3.966959999999999931e-02 1.368570203416891840e+00
2.187499999999999861e-02 9.638139999999999902e-03 4.799619165627846407e+00
0.000000000000000000e+00 3.774399999999999912e-04 1.585139507946283111e+00
3.125000000000000173e-03 5.685499999999999582e-03 3.458294787257470970e-01
0.000000000000000000e+00 9.078400000000000358e-04 3.318777424822204836e+00
0.000000000000000000e+00 2.594300000000000078e-02 5.889940400854776215e-01
1.250000000000000069e-02 1.675580000000000081e-03 2.510329247227754967e-01
0.000000000000000000e+00 1.785920000000000086e-03 2.723916480485923941e+00
0.000000000000000000e+00 3.741689999999999881e-04 2.363856831667688230e+00
0.000000000000000000e+00 3.248640000000000121e-04 4.579088956729815418e-02
0.000000000000000000e+00 8.600380000000000524e-02 1.634607915076981666e+00
3.125000000000000173e-03 5.031869999999999919e-03 7.137995444980210769e-01
0.000000000000000000e+00 1.415149999999999915e-02 3.633802474952700479e+00
0.000000000000000000e+00 1.133569999999999977e-03 4.631907969548043624e-02
0.000000000000000000e+00 6.954240000000000421e-04 8.971979266068658143e-01
0.000000000000000000e+00 2.792000000000000211e-03 2.924984073260747941e+00
0.000000000000000000e+00 9.552700000000000340e-04 3.419310685061116573e+00
0.000000000000000000e+00 4.193129999999999882e-04 1.314376638190112301e-01
2.812500000000000069e-02 2.800969999999999849e-02 2.657346036157348657e-01
1.250000000000000069e-02 1.740100000000000067e-03 4.124151055116174192e+00
6.250000000000000347e-03 2.643710000000000070e-03 3.410274577612173452e+00
0.000000000000000000e+00 4.555459999999999891e-03 4.197550943499089859e-01
3.125000000000000173e-03 9.690089999999999815e-02 4.244888928980586229e+00
0.000000000000000000e+00 3.344639999999999744e-04 4.090262298676715425e+00
0.000000000000000000e+00 3.488960000000000151e-03 3.508664449642118210e-01
0.000000000000000000e+00 4.397889999999999786e-03 3.284480331447618084e+00
2.500000000000000139e-02 9.228630000000000166e-02 7.322207281445652916e-01
0.000000000000000000e+00 3.799680000000000050e-04 4.012396226259705934e+00
9.374999999999999653e-03 1.204290000000000005e-03 2.743903197801444982e-01
3.125000000000000173e-03 1.351739999999999929e-03 2.686170602837265164e+00
0.000000000000000000e+00 4.401859999999999627e-03 1.564869133805881329e+00
2.812500000000000069e-02 3.210429999999999794e-03 7.790228698129086915e-01
1.562500000000000000e-02 2.853249999999999884e-03 4.257583527357086339e+00
0.000000000000000000e+00 0.000000000000000000e+00 2.766416180411275683e+00
0.000000000000000000e+00 6.650879999999999856e-04 1.031986408451759374e+00
0.000000000000000000e+00 1.051389999999999920e-03 4.427746222148235766e+00
2.500000000000000139e-02 2.984960000000000044e-03 6.849244227813228170e-01
2.500000000000000139e-02 1.977150000000000001e-03 4.742754094738367954e+00
3.437500000000000278e-02 7.681720000000000215e-02 5.359338196386936870e-01
6.250000000000000347e-03 1.404349999999999956e-03 1.732460768896844083e+00
0.000000000000000000e+00 2.025249999999999967e-02 1.624575392049356637e+00
5.000000000000000278e-02 9.303569999999999895e-02 1.234854230297386835e+00
2.500000000000000139e-02 4.182980000000000205e-03 1.736243678576486094e+00
0.000000000000000000e+00 6.019839999999999610e-04 4.023702241673166036e-01
3.125000000000000173e-03 1.070439999999999933e-02 2.248587125153238553e+00
1.562500000000000000e-02 1.528379999999999973e-03 1.795063018158142398e+00
6.250000000000000347e-03 5.876479999999999898e-03 1.420010269158007876e+00
0.000000000000000000e+00 1.606659999999999989e-03 3.571073616854636423e+00
1.874999999999999931e-02 3.124539999999999870e-03 2.161583529647037594e+00
0.000000000000000000e+00 1.003619999999999990e-03 4.347544662481083400e+00
3.125000000000000173e-03 6.511999999999999993e-04 3.849177945380887422e+00
9.374999999999999653e-03 3.817050000000000304e-02 3.819725495730591724e+00
3.125000000000000173e-03 1.593409999999999965e-03 4.441668173043153978e+00
0.000000000000000000e+00 6.873559999999999696e-04 2.491444135307292918e+00
1.250000000000000069e-02 2.657539999999999902e-03 1.051583137295408754e+00
0.000000000000000000e+00 2.280320000000000014e-04 7.763945486737056090e-01
0.000000000000000000e+00 4.696379999999999999e-03 1.360032372048356031e+00
0.000000000000000000e+00 2.962939999999999845e-03 4.898519355618665472e+00
0.000000000000000000e+00 2.121019999999999937e-03 4.467096070766324978e+00
0.000000000000000000e+00 8.989690000000000051e-04 2.322768995028656747e-01
0.000000000000000000e+00 4.897280000000000383e-04 1.858121477470838112e+00
2.500000000000000139e-02 1.950340000000000060e-03 2.915063681582826138e+00
2.812500000000000069e-02 1.897919999999999989e-03 2.232448803325886466e+00
0.000000000000000000e+00 4.295729999999999883e-04 1.727528967229421841e+00
0.000000000000000000e+00 3.573119999999999834e-04 1.517057674307759063e+00
0.000000000000000000e+00 1.217339999999999915e-03 4.588344264038834552e+00
3.125000000000000173e-03 1.763330000000000019e-03 2.644587428620690517e+00
0.000000000000000000e+00 0.000000000000000000e+00 3.535422937977726221e+00
0.000000000000000000e+00 9.939840000000000567e-04 4.656715564454010803e+00
0.000000000000000000e+00 1.091519999999999904e-03 4.438616101926990076e+00
2.812500000000000069e-02 3.727869999999999882e-03 1.079948524964871481e+00
3.125000000000000173e-03 9.655690000000000106e-02 4.781858899455525780e+00
1.874999999999999931e-02 9.280979999999999785e-02 2.689619928747218225e+00
0.000000000000000000e+00 1.506940000000000016e-03 2.561741324589520197e+00
1.250000000000000069e-02 1.051180000000000031e-01 4.332825198760078322e+00
4.374999999999999722e-02 9.219299999999999717e-02 4.864101705055853486e+00
3.749999999999999861e-02 9.884460000000000468e-02 3.058406804328279716e+00
0.000000000000000000e+00 1.090959999999999977e-03 2.290514786659890056e+00
1.562500000000000000e-02 1.056330000000000047e-01 3.347384721538670505e+00
0.000000000000000000e+00 1.257279999999999943e-03 1.245381472316212657e+00
2.187499999999999861e-02 9.355140000000000677e-02 3.161925488571332155e-01
9.374999999999999653e-03 9.301089999999999358e-02 4.452247139739968773e+00
1.562500000000000000e-02 5.389180000000000359e-03 3.217811814928267511e-01
9.374999999999999653e-03 1.407419999999999938e-03 2.190818462009871848e+00
0.000000000000000000e+00 9.473920000000000258e-04 3.636983805254252022e+00
3.125000000000000173e-03 9.728409999999999835e-02 1.820371184870683834e-01
0.000000000000000000e+00 9.349119999999999826e-04 3.338704879924542901e+00
3.125000000000000173e-03 4.158040000000000347e-02 2.941346725515739280e+00
3.125000000000000173e-03 9.690120000000000677e-02 2.663626022138161797e+00
0.000000000000000000e+00 4.014719999999999942e-04 1.400575416581788524e+00
0.000000000000000000e+00 3.192190000000000132e-03 3.010795618935069307e-01
0.000000000000000000e+00 1.894710000000000144e-02 2.791730296958756075e+00
0.000000000000000000e+00 8.065919999999999644e-04 8.195872661588310404e-01
1.250000000000000069e-02 2.511489999999999903e-03 4.140184394882379770e+00
0.000000000000000000e+00 3.062399999999999844e-03 2.753288663096826294e+00
9.374999999999999653e-03 1.052020000000000038e-01 4.747089198068319860e+00
4.687500000000000000e-02 8.819709999999999703e-03 1.782170572640462858e+00
0.000000000000000000e+00 3.955869999999999786e-04 8.310075548999018569e-01
0.000000000000000000e+00 7.870719999999999886e-04 7.252150630207065962e-02
0.000000000000000000e+00 5.106880000000000273e-03 4.596685501977701982e+00
2.187499999999999861e-02 5.384449999999999827e-03 2.503226920019435031e+00
0.000000000000000000e+00 6.705549999999999792e-04 4.857926369100451502e+00
0.000000000000000000e+00 8.451679999999999826e-04 6.881377824012302469e-01
2.500000000000000139e-02 9.239429999999999865e-02 4.970279401508055805e+00
1.874999999999999931e-02 1.072810000000000083e-02 3.233061273201991437e+00
3.125000000000000173e-03 1.913219999999999981e-03 1.397863303650109801e-01
1.874999999999999931e-02 4.033380000000000298e-02 2.918893044945922277e+00
0.000000000000000000e+00 1.821179999999999934e-03 3.583823219331081056e+00
0.000000000000000000e+00 5.490300000000000041e-03 5.112153925480683592e-01
0.000000000000000000e+00 1.017150000000000085e-03 2.586798259095865582e+00
3.125000000000000173e-03 1.057659999999999989e-01 2.225493437675187813e+00
2.187499999999999861e-02 2.794880000000000021e-03 4.095694863237585359e+00
0.000000000000000000e+00 1.790460000000000012e-03 2.017317694943762341e+00
0.000000000000000000e+00 1.926289999999999947e-02 7.865104142895762429e-01
0.000000000000000000e+00 8.790399999999999863e-04 4.156250823967388541e+00
3.125000000000000173e-03 5.026179999999999884e-03 1.349910776757945463e-02
0.000000000000000000e+00 3.727359999999999766e-04 4.808942892671045577e+00
9.374999999999999653e-03 2.007230000000000125e-02 9.017537665210056952e-01
1.562500000000000000e-02 1.862079999999999898e-03 2.465735994223595462e+00
0.000000000000000000e+00 1.042610000000000021e-03 4.267582222691085114e+00
2.187499999999999861e-02 3.038340000000000051e-03 1.700998993268175719e+00
1.562500000000000000e-02 4.284330000000000083e-02 1.157191117950052694e+00
4.374999999999999722e-02 9.169480000000000686e-02 3.708170347075538942e+00
0.000000000000000000e+00 2.840769999999999840e-03 2.129542506825742088e+00
0.000000000000000000e+00 2.330219999999999858e-05 3.702900826858285255e-01
0.000000000000000000e+00 1.396799999999999908e-03 1.061741458680652839e+00
1.562500000000000000e-02 1.375099999999999977e-03 4.291987099018427010e+00
0.000000000000000000e+00 1.220490000000000073e-03 2.835832933730356054e+00
0.000000000000000000e+00 2.296589999999999979e-05 3.219503639554848640e+00
1.562500000000000000e-02 2.746370000000000148e-03 3.707209746278250506e-01
3.125000000000000173e-03 6.776959999999999842e-04 3.569436201065384617e-01
0.000000000000000000e+00 4.490240000000000377e-03 7.211636692665024384e-01
0.000000000000000000e+00 4.003580000000000333e-02 1.729069185634540817e-01
2.500000000000000139e-02 2.527939999999999788e-03 3.882443205132898534e+00
0.000000000000000000e+00 4.921590000000000426e-04 3.957027548450909649e+00
0.000000000000000000e+00 7.387840000000000336e-04 2.105202979173839584e+00
6.250000000000000347e-03 9.410680000000000434e-02 4.714739966625175249e+00
0.000000000000000000e+00 1.145020000000000066e-03 3.070783854309009353e+00
3.125000000000000173e-03 1.269310000000000056e-03 4.053697187503654042e+00
0.000000000000000000e+00 4.452479999999999979e-03 1.930323841918855532e+00
0.000000000000000000e+00 4.383359999999999991e-04 4.953351288300300581e+00
3.125000000000000173e-03 7.727699999999999673e-03 3.813265015201479091e+00
0.000000000000000000e+00 4.039039999999999818e-03 1.359243923257558162e-01
0.000000000000000000e+00 5.031550000000000085e-03 2.434610077323952737e+00
0.000000000000000000e+00 3.749760000000000094e-04 5.157216228507693900e-01
0.000000000000000000e+00 1.628859999999999987e-03 3.898315153317905679e+00
3.125000000000000173e-03 1.894209999999999904e-03 8.106081104137824456e-01
1.562500000000000000e-02 2.999900000000000136e-02 1.287025322344820255e-01
3.125000000000000173e-03 2.110750000000000126e-02 3.292008719366153358e+00
2.500000000000000139e-02 1.674499999999999990e-03 1.931932942429243738e+00
2.812500000000000069e-02 5.608260000000000328e-03 4.000329541736295624e+00
1.250000000000000069e-02 3.428930000000000172e-03 2.504129150313338936e+00
0.000000000000000000e+00 4.226480000000000232e-04 4.012409453452315589e+00
5.625000000000000139e-02 9.228000000000000091e-02 3.696722848156527963e+00
0.000000000000000000e+00 9.320959999999999879e-04 1.277371008683487297e+00
1.874999999999999931e-02 9.344220000000000304e-02 3.075105785561394356e+00
4.687500000000000000e-02 9.574989999999999890e-02 9.052034763320121469e-01
0.000000000000000000e+00 6.201600000000000255e-04 3.740569717648158932e+00
0.000000000000000000e+00 1.804990000000000023e-03 2.711797169455738565e+00
2.187499999999999861e-02 9.662790000000000268e-02 1.846325788942859703e+00
0.000000000000000000e+00 7.766340000000000049e-03 2.218445927251428529e+00
0.000000000000000000e+00 7.919999999999999523e-04 1.352838346762893496e+00
0.000000000000000000e+00 4.441429999999999684e-03 1.452590744371500264e+00
0.000000000000000000e+00 3.144769999999999857e-03 2.288665922915150475e+00
4.374999999999999722e-02 9.378939999999999499e-02 1.748727800640972774e+00
0.000000000000000000e+00 3.085379999999999980e-03 4.737542150520503981e+00
1.250000000000000069e-02 3.055870000000000027e-03 1.879643804285975772e+00
0.000000000000000000e+00 3.914240000000000254e-04 1.881368903273858972e+00
6.250000000000000347e-03 9.323049999999999393e-02 1.011456947060460188e+00
2.187499999999999861e-02 2.433980000000000084e-03 3.559526393382930198e+00
0.000000000000000000e+00 1.592059999999999960e-03 4.335448788401734532e+00
8.437500000000000555e-02 3.876120000000000260e-02 4.894877577301944171e+00
0.000000000000000000e+00 1.547779999999999902e-03 6.528058751322701747e-01
0.000000000000000000e+00 9.398399999999999463e-04 4.444125365140193296e+00
0.000000000000000000e+00 1.069059999999999932e-03 4.449072024171354833e+00
3.125000000000000173e-03 6.907519999999999893e-04 2.673959342246825077e+00
0.000000000000000000e+00 7.262800000000000462e-04 3.673433693073153705e+00
0.000000000000000000e+00 3.851349999999999912e-04 2.533456655206443919e+00
2.500000000000000139e-02 1.063410000000000050e-01 2.501667732049741577e+00
9.374999999999999653e-03 1.921219999999999959e-03 7.400798009660958243e-01
9.374999999999999653e-03 1.188200000000000020e-02 3.124395784015337352e+00
1.562500000000000000e-02 1.253379999999999902e-03 2.546362208610587707e+00
0.000000000000000000e+00 9.518719999999999829e-04 2.757346728228708965e+00
0.000000000000000000e+00 9.797670000000000944e-04 3.092578438636576887e+00
0.000000000000000000e+00 3.985279999999999899e-04 3.712245318303813324e+00
6.250000000000000347e-03 9.617230000000000223e-02 4.398964683514519081e+00
3.125000000000000173e-03 1.798909999999999919e-03 4.063746473722467556e+00
0.000000000000000000e+00 1.603840000000000040e-03 5.518408023935766904e-01
4.687500000000000000e-02 3.979499999999999704e-02 1.468185790519899170e+00
0.000000000000000000e+00 6.236160000000000141e-03 1.087528644013453505e+00
3.125000000000000173e-03 7.049600000000000267e-04 1.147525132335979858e+00
0.000000000000000000e+00 1.320320000000000044e-03 4.968400265873150978e+00
2.812500000000000069e-02 1.579260000000000082e-03 2.208352034238481920e+00
0.000000000000000000e+00 1.419909999999999922e-02 3.984378384726775302e+00
2.812500000000000069e-02 9.191580000000000583e-02 3.081657243682163649e+00
0.000000000000000000e+00 3.715200000000000208e-04 4.751392230783633153e+00
3.125000000000000173e-03 5.576639999999999896e-03 2.975521938032057001e+00
0.000000000000000000e+00 5.895040000000000262e-04 1.526522293826817478e+00
0.000000000000000000e+00 1.825280000000000088e-03 4.005107147576979720e+00
0.000000000000000000e+00 4.528639999999999792e-04 1.522962902961517706e+00
0.000000000000000000e+00 3.075459999999999913e-03 1.197157302517332100e-01
3.125000000000000000e-02 2.117499999999999938e-01 3.768877855216566708e+00
0.000000000000000000e+00 1.713920000000000016e-04 1.747587979947442527e+00
0.000000000000000000e+00 3.280320000000000197e-03 4.007750166051784468e+00
0.000000000000000000e+00 4.387069999999999859e-03 3.245925209488220720e-01
1.250000000000000069e-02 7.809279999999999607e-04 4.976142612413689825e+00
0.000000000000000000e+00 4.218140000000000106e-04 3.287965926411816397e+00
6.250000000000000347e-03 9.538270000000000082e-02 4.875486532353109581e+00
9.374999999999999653e-03 9.555360000000000242e-02 4.968099873794290522e-01
6.250000000000000347e-03 1.554370000000000014e-03 4.264639255017421249e+00
1.250000000000000069e-02 1.057540000000000008e-01 2.501191925208671840e+00
0.000000000000000000e+00 1.088509999999999998e-03 1.566066174221234508e+00
0.000000000000000000e+00 6.641280000000000490e-04 1.185155699976190302e+00
0.000000000000000000e+00 7.267289999999999601e-04 6.662932831723072935e-01
0.000000000000000000e+00 5.024830000000000095e-03 2.914243608248423101e+00
0.000000000000000000e+00 0.000000000000000000e+00 2.255764211788564566e+00
0.000000000000000000e+00 4.567739999999999821e-03 1.835948586248780767e+00
0.000000000000000000e+00 1.925119999999999891e-04 1.960787248806022953e-01
3.125000000000000173e-03 9.126659999999999981e-03 8.403404060567737366e-01
0.000000000000000000e+00 8.106879999999999468e-04 2.377491334662312106e+00
0.000000000000000000e+00 5.341439999999999600e-04 3.744194425016876160e+00
3.125000000000000173e-03 4.840579999999999709e-03 4.068481223950267456e+00
0.000000000000000000e+00 6.318300000000000305e-02 3.984590196798469819e+00
0.000000000000000000e+00 2.028589999999999907e-02 4.848326216043871817e+00
1.250000000000000069e-02 9.710370000000000112e-02 1.205739528022610196e+00
1.062499999999999972e-01 8.086870000000000169e-02 4.764116179672783780e+00
0.000000000000000000e+00 4.238019999999999786e-04 3.984376681762366701e+00
0.000000000000000000e+00 2.090230000000000145e-05 8.699000726699945840e-01
1.874999999999999931e-02 9.425219999999999432e-02 3.933064685511247660e+00
0.000000000000000000e+00 1.244469999999999908e-03 7.608691007794238237e-01
0.000000000000000000e+00 1.584260000000000095e-03 7.227392651044384220e-01
0.000000000000000000e+00 2.284949999999999866e-05 1.728444062392648473e+00
0.000000000000000000e+00 3.381390000000000090e-02 7.430002664641283117e-01
9.374999999999999653e-03 1.940160000000000018e-03 4.420397396557794067e+00
1.562500000000000000e-02 2.395840000000000209e-03 1.321760111652139358e+00
2.187499999999999861e-02 5.302140000000000325e-03 4.123803829507321161e+00
6.250000000000000347e-03 5.491900000000000080e-03 2.076425962904876465e-01
2.812500000000000069e-02 2.744260000000000102e-03 3.621153122174281869e+00
0.000000000000000000e+00 4.418560000000000196e-04 1.738525906737581339e+00
0.000000000000000000e+00 3.767040000000000037e-04 6.607890082729417358e-01
3.125000000000000173e-03 1.351739999999999929e-03 1.980473200226421371e+00
0.000000000000000000e+00 1.953799999999999981e-02 3.559913892441294081e+00
0.000000000000000000e+00 6.794590000000000352e-02 2.221231446649329921e+00
6.250000000000000347e-03 2.909500000000000194e-03 3.812515046772614991e+00
6.875000000000000555e-02 9.180169999999999997e-02 4.739311924858526481e+00
1.562500000000000000e-02 1.189699999999999916e-03 4.109237666344178308e+00
0.000000000000000000e+00 1.640449999999999894e-03 4.187105254141721744e+00
0.000000000000000000e+00 3.042239999999999875e-03 2.149575910338386464e+00
6.250000000000000347e-03 1.010879999999999938e-02 5.317803604073306767e-01
0.000000000000000000e+00 4.195059999999999913e-04 4.093198183655055722e+00
2.187499999999999861e-02 3.254459999999999818e-03 2.735283398303755220e+00
0.000000000000000000e+00 2.088260000000000203e-03 4.839713196727798206e+00
3.125000000000000173e-03 1.680059999999999930e-03 4.019249020086878232e+00
0.000000000000000000e+00 4.233409999999999951e-03 2.970168889931405598e+00
6.250000000000000347e-03 1.778370000000000038e-03 8.151091182440334260e-01
1.562500000000000000e-02 2.119479999999999975e-01 7.185251553054389229e-01
0.000000000000000000e+00 1.060160000000000095e-03 3.199281023840838678e-01
0.000000000000000000e+00 9.266059999999999575e-04 4.491402342489275945e+00
0.000000000000000000e+00 1.160580000000000032e-03 7.318231422894910798e-01
0.000000000000000000e+00 8.582400000000000228e-04 3.030147596836308743e+00
0.000000000000000000e+00 3.940479999999999786e-04 6.798575786008898003e-01
6.250000000000000347e-03 1.592700000000000018e-02 2.413331602049677560e+00
0.000000000000000000e+00 2.362470000000000100e-05 4.338660038817219622e+00
0.000000000000000000e+00 9.338880000000000141e-04 1.552594583356043945e+00
0.000000000000000000e+00 4.509120000000000142e-03 1.091061401206923520e+00
0.000000000000000000e+00 2.967809999999999979e-03 6.526200288404043759e-01
0.000000000000000000e+00 4.634880000000000185e-04 2.838714753782341393e+00
6.250000000000000347e-03 2.867460000000000061e-03 2.892618990028255510e+00
6.250000000000000347e-03 1.974080000000000019e-03 4.932280221429841127e-01
0.000000000000000000e+00 4.887679999999999933e-04 1.369606878024532959e+00
1.562500000000000000e-02 3.161090000000000080e-03 1.518360189178649122e+00
4.374999999999999722e-02 9.445800000000000030e-02 7.070940331420338953e-01
0.000000000000000000e+00 1.948510000000000172e-02 5.069710327412546569e-02
0.000000000000000000e+00 3.793280000000000111e-04 4.802597736818043472e+00
3.125000000000000173e-03 2.863999999999999792e-03 1.563234377987229973e+00
0.000000000000000000e+00 3.067260000000000039e-03 1.708802824170285728e-01
0.000000000000000000e+00 4.949810000000000234e-04 9.841583765374350978e-01
0.000000000000000000e+00 2.182079999999999870e-03 9.625693980343208445e-01
0.000000000000000000e+00 1.164319999999999938e-02 3.288339830052440238e+00
1.874999999999999931e-02 1.906619999999999929e-03 2.382049226643041973e+00
3.125000000000000173e-03 1.048700000000000049e-01 2.497842096421910796e+00
0.000000000000000000e+00 9.582209999999999860e-04 1.040221345579112056e+00
0.000000000000000000e+00 4.236099999999999913e-04 4.840961799545642208e+00
6.250000000000000347e-03 1.003820000000000059e-02 3.702558652772747205e-02
2.187499999999999861e-02 2.128960000000000019e-01 2.908013750801341946e+00
0.000000000000000000e+00 3.077320000000000055e-02 4.156361731146065885e+00
0.000000000000000000e+00 1.090250000000000073e-03 1.648655264780141572e+00
3.125000000000000173e-03 1.784769999999999976e-03 2.663064272457778436e+00
2.500000000000000139e-02 4.751500000000000168e-02 1.159378212264908781e+00
0.000000000000000000e+00 1.584319999999999956e-03 2.181331106605521875e+00
0.000000000000000000e+00 7.832320000000000254e-04 3.169968775713507103e+00
0.000000000000000000e+00 1.733759999999999880e-04 3.251758648676855046e+00
3.125000000000000173e-03 2.607869999999999980e-03 3.086243329544673397e+00
0.000000000000000000e+00 8.775039999999999793e-04 2.153866334681420192e+00
4.062500000000000139e-02 9.097379999999999356e-02 4.699835101955184058e+00
0.000000000000000000e+00 1.177240000000000057e-02 3.273066392437885774e+00
0.000000000000000000e+00 1.162049999999999975e-03 8.933444981251897898e-01
0.000000000000000000e+00 1.507649999999999962e-02 2.133688217895335359e-01
0.000000000000000000e+00 8.790259999999999827e-04 4.730781713967640911e+00
1.562500000000000000e-02 2.799809999999999799e-03 1.397518863055987604e+00
9.374999999999999653e-03 1.991940000000000204e-03 2.557678853898392557e+00
0.000000000000000000e+00 2.285540000000000144e-05 3.452980434269496524e+00
2.187499999999999861e-02 2.056130000000000197e-03 2.152590491404608564e+00
0.000000000000000000e+00 9.500799999999999567e-04 2.711279339782078246e+00
0.000000000000000000e+00 4.253409999999999786e-04 3.147882542557860930e+00
3.125000000000000173e-03 9.486070000000000613e-02 1.387864234122337503e+00
0.000000000000000000e+00 1.235259999999999960e-03 2.881843197120703692e-01
3.125000000000000173e-03 1.542399999999999978e-03 2.688771487604095345e+00
1.874999999999999931e-02 5.848840000000000115e-03 4.124093828358442515e+00
2.812500000000000069e-02 2.018879999999999807e-03 4.300081395004851537e+00
2.500000000000000139e-02 3.027390000000000029e-03 3.139849881805828247e+00
3.125000000000000173e-03 1.060480000000000034e-01 2.470456671739100774e+00
0.000000000000000000e+00 1.793150000000000082e-03 2.924374378977233846e+00
0.000000000000000000e+00 4.179669999999999913e-04 3.761035989208599828e-01
2.187499999999999861e-02 3.066940000000000204e-03 3.861019287659041233e+00
1.562500000000000000e-02 1.844930000000000051e-03 2.905539129131772924e+00
1.874999999999999931e-02 3.009659999999999939e-03 3.266110073456159668e+00
0.000000000000000000e+00 9.713919999999999586e-04 3.806584035534811949e+00
0.000000000000000000e+00 1.130750000000000028e-03 1.808217727797938323e+00
2.187499999999999861e-02 1.710270000000000063e-03 7.833858932210685522e-01
1.562500000000000000e-02 2.253380000000000140e-03 3.135741124588205864e+00
3.125000000000000173e-03 2.118140000000000127e-03 3.997136968408454560e-01
0.000000000000000000e+00 6.293239999999999945e-02 2.122595307923468955e+00
1.562500000000000000e-02 2.574780000000000037e-03 4.359884918084922845e+00
0.000000000000000000e+00 1.288059999999999943e-03 4.666493253702405752e+00
0.000000000000000000e+00 2.405389999999999872e-03 5.879662251802081352e-01
9.374999999999999653e-03 3.840899999999999957e-03 4.004127692533598903e+00
0.000000000000000000e+00 1.935310000000000155e-02 1.006861843824141678e+00
0.000000000000000000e+00 7.214059999999999570e-04 4.177633779193831387e+00
2.187499999999999861e-02 9.157629999999999937e-02 1.008833698556625968e+00
0.000000000000000000e+00 9.988480000000000969e-04 3.115702545956601455e+00
0.000000000000000000e+00 5.288639999999999834e-03 3.556140572818376810e+00
0.000000000000000000e+00 1.651579999999999932e-03 1.043554221563333773e+00
0.000000000000000000e+00 2.457600000000000062e-02 2.262099079280242009e+00
3.125000000000000173e-03 6.503680000000000181e-04 2.287990643014023551e+00
0.000000000000000000e+00 3.732850000000000057e-02 1.362784932777477698e-01
0.000000000000000000e+00 1.647739999999999969e-03 1.820486722270703295e+00
4.374999999999999722e-02 9.162760000000000349e-02 1.090180916655902887e+00
6.250000000000000347e-03 1.638340000000000065e-03 1.833516825529190708e+00
0.000000000000000000e+00 1.057219999999999991e-03 2.506516249400119634e+00
6.250000000000000347e-03 1.993469999999999791e-03 6.967474437244047802e-01
0.000000000000000000e+00 1.780480000000000083e-03 2.363302010750565341e+00
0.000000000000000000e+00 4.062960000000000009e-04 1.929328677347696974e+00
1.874999999999999931e-02 3.574600000000000000e-02 1.655114229235893353e+00
0.000000000000000000e+00 5.912320000000000205e-04 3.679454283088924527e+00
0.000000000000000000e+00 2.121089999999999955e-03 1.768372549101692170e+00
6.250000000000000347e-03 1.084340000000000026e-01 2.968122334292178532e+00
0.000000000000000000e+00 7.032639999999999942e-04 1.791693296059295726e+00
0.000000000000000000e+00 2.764360000000000081e-02 1.345651878708559845e+00
0.000000000000000000e+00 8.692220000000000502e-03 1.683959509179813629e+00
6.250000000000000347e-03 9.545839999999999881e-02 3.135809779663157215e+00
0.000000000000000000e+00 1.629159999999999940e-03 8.314232367195734108e-01
1.250000000000000069e-02 5.181700000000000021e-03 1.112080690427645457e+00
0.000000000000000000e+00 2.143299999999999893e-03 4.041424638209190068e-01
2.500000000000000139e-02 1.064139999999999947e-01 1.992435583774141872e+00
0.000000000000000000e+00 1.245180000000000028e-03 4.994900035561350427e-01
0.000000000000000000e+00 4.112979999999999913e-04 4.853066888718482019e+00
2.187499999999999861e-02 1.780990000000000090e-03 4.562433305776719017e+00
1.562500000000000000e-02 2.253380000000000140e-03 4.166159514241844164e+00
3.437500000000000278e-02 3.123710000000000028e-02 1.001602480996146571e+00
0.000000000000000000e+00 9.270559999999999955e-04 6.004833122460734307e-01
0.000000000000000000e+00 5.470079999999999778e-04 4.983789968487235100e+00
0.000000000000000000e+00 8.554879999999999516e-04 2.784314993610442102e+00
0.000000000000000000e+00 3.662850000000000047e-03 8.261004465251015061e-01
1.562500000000000000e-02 5.826109999999999796e-03 7.661722488928113250e-01
1.250000000000000069e-02 1.236859999999999999e-03 5.230953206607191763e-01
0.000000000000000000e+00 1.212100000000000026e-03 2.178011906974840706e+00
0.000000000000000000e+00 4.669699999999999719e-03 2.068902079764861623e-01
0.000000000000000000e+00 1.103419999999999922e-03 2.310204027727627452e+00
1.062499999999999972e-01 2.206889999999999893e-02 4.172155981423305349e+00
0.000000000000000000e+00 9.070719999999999781e-04 3.873667846036209284e+00
0.000000000000000000e+00 6.477269999999999599e-04 3.061755765297941245e+00
0.000000000000000000e+00 8.305469999999999476e-04 4.610640421004010392e+00
1.562500000000000000e-02 5.404609999999999796e-03 2.188671359880779654e+00
1.562500000000000000e-02 5.402180000000000350e-03 1.831427986833646493e+00
1.562500000000000000e-02 9.589979999999999338e-02 1.376916362393152404e+00
0.000000000000000000e+00 4.995979999999999692e-04 1.592278109242124984e+00
0.000000000000000000e+00 3.023220000000000074e-02 3.080725866415842340e+00
3.125000000000000173e-03 1.724389999999999907e-03 1.901746248013361784e+00
2.187499999999999861e-02 2.331900000000000032e-03 2.748252885576495608e+00
0.000000000000000000e+00 6.066869999999999598e-04 4.212003473423377109e+00
3.125000000000000173e-03 9.675440000000000429e-03 1.209686768558946302e+00
0.000000000000000000e+00 1.946830000000000088e-02 4.356688788413842772e+00
0.000000000000000000e+00 3.662850000000000047e-03 6.957985531501187371e-01
1.562500000000000000e-02 9.158090000000000674e-02 2.681885256817557739e+00
0.000000000000000000e+00 1.850690000000000104e-03 2.461231162747794965e+00
1.562500000000000000e-02 1.219580000000000056e-03 1.497884278615640996e-01
0.000000000000000000e+00 6.716189999999999660e-02 3.447464181996318100e-01
3.125000000000000173e-03 4.017559999999999881e-02 4.108042234662273806e+00
3.125000000000000173e-03 9.906479999999999453e-02 4.744428307024363356e+00
