0.000000000000000000e+00 1.676030000000000011e-03 4.636041639105185297e+00
0.000000000000000000e+00 4.012800000000000069e-04 2.166948807369142749e+00
3.125000000000000173e-03 4.092219999999999712e-03 4.576635988743158912e+00
0.000000000000000000e+00 3.869440000000000141e-04 4.041664925802042063e+00
0.000000000000000000e+00 2.290659999999999851e-05 3.892693303059863830e+00
0.000000000000000000e+00 1.740479999999999978e-03 2.276795433744289721e+00
3.125000000000000173e-03 2.080770000000000015e-03 3.877648848043313112e+00
3.125000000000000173e-03 9.677579999999999516e-02 9.605153268410548950e-01
1.874999999999999931e-02 9.329750000000000543e-02 3.969687562708335449e+00
3.125000000000000173e-03 3.657339999999999810e-03 1.021666793738833956e+00
0.000000000000000000e+00 3.359550000000000210e-03 3.584909785427192741e-01
4.374999999999999722e-02 9.255130000000000301e-02 4.611517782360963658e+00
3.125000000000000173e-03 1.253669999999999958e-02 3.732810057691990480e+00
3.125000000000000173e-03 4.498049999999999965e-03 2.417544026099204046e+00
3.125000000000000173e-03 1.972479999999999980e-03 2.693436788826163664e+00
0.000000000000000000e+00 1.541499999999999902e-03 2.086557673903586707e+00
1.250000000000000069e-02 9.680420000000000691e-02 4.412438432623858375e+00
6.250000000000000347e-03 3.648860000000000298e-02 4.932873044373285332e+00
9.374999999999999653e-03 2.994880000000000111e-03 2.802047430417855534e+00
2.500000000000000139e-02 3.344160000000000188e-02 5.065584020766822348e-01
0.000000000000000000e+00 1.514249999999999971e-03 1.319775443417646077e+00
1.874999999999999931e-02 5.177860000000000275e-03 1.919207084860425905e+00
1.874999999999999931e-02 1.916219999999999946e-03 4.995362189062776181e+00
0.000000000000000000e+00 1.486979999999999942e-03 3.715089215790217114e+00
0.000000000000000000e+00 1.848830000000000091e-03 4.848655183846146244e+00
0.000000000000000000e+00 1.015099999999999900e-03 1.180354243972774775e+00
0.000000000000000000e+00 1.056499999999999930e-03 3.634712115364041374e+00
0.000000000000000000e+00 1.105109999999999947e-02 1.738678718827413761e+00
0.000000000000000000e+00 1.383619999999999902e-03 4.508606926961312489e+00
3.125000000000000173e-03 1.507579999999999901e-03 3.255790846809130112e+00
9.374999999999999653e-03 4.629250000000000032e-02 4.426402620047264591e+00
0.000000000000000000e+00 4.127080000000000201e-04 3.393547457012224822e+00
9.374999999999999653e-03 2.736259999999999908e-03 1.105714573728500127e-01
0.000000000000000000e+00 3.557499999999999898e-03 7.354146183712800822e-01
3.125000000000000173e-03 4.984060000000000226e-03 3.061479164976570466e+00
6.875000000000000555e-02 9.160260000000000624e-02 4.015795253433136480e+00
3.125000000000000173e-03 1.923009999999999954e-03 3.511354639614631790e+00
3.437500000000000278e-02 3.191480000000000011e-02 2.207577170988098914e+00
0.000000000000000000e+00 1.045179999999999937e-03 2.960259151343849204e+00
6.250000000000000347e-03 4.197949999999999772e-03 3.180438164870567075e+00
0.000000000000000000e+00 9.279809999999999448e-03 2.178991852836449361e+00
0.000000000000000000e+00 4.142470000000000202e-04 2.400441311147204715e+00
0.000000000000000000e+00 9.574829999999999453e-02 3.605107933551356503e+00
0.000000000000000000e+00 2.263300000000000167e-05 3.752018143330500877e+00
0.000000000000000000e+00 6.958300000000000596e-02 1.330470498348401698e-01
1.562500000000000000e-02 2.411139999999999985e-03 4.116671113473266530e+00
0.000000000000000000e+00 9.884159999999999908e-04 4.532719365944373635e+00
0.000000000000000000e+00 2.368129999999999975e-03 3.447290148141213262e+00
2.187499999999999861e-02 2.429179999999999968e-03 1.147832882817259037e+00
0.000000000000000000e+00 1.902459999999999915e-03 4.066881597835493523e+00
0.000000000000000000e+00 4.530429999999999787e-04 2.282479666088952364e+00
1.874999999999999931e-02 4.528960000000000277e-03 4.334887826117908460e+00
2.500000000000000139e-02 2.584869999999999876e-02 3.246763637278822667e+00
9.374999999999999653e-03 7.911680000000000795e-03 3.227501123369976632e+00
0.000000000000000000e+00 1.508609999999999986e-02 2.857981121301160332e+00
1.562500000000000000e-02 2.176060000000000060e-03 4.335827156714400665e+00
5.937499999999999722e-02 9.170680000000000498e-02 2.720437747150910468e+00
3.125000000000000173e-03 1.050269999999999954e-01 2.836120291828748918e+00
0.000000000000000000e+00 1.978240000000000087e-04 3.431138203874273263e-01
0.000000000000000000e+00 2.348440000000000168e-05 4.638588063540467488e+00
0.000000000000000000e+00 1.557379999999999919e-03 8.598871627194121237e-01
0.000000000000000000e+00 2.537730000000000194e-03 4.879000577416144679e+00
0.000000000000000000e+00 3.281220000000000057e-03 2.755915477954257176e-01
3.125000000000000173e-03 3.918979999999999859e-03 1.524330191165393256e+00
3.125000000000000173e-03 1.913219999999999981e-03 3.671256199937931619e+00
1.250000000000000069e-02 9.592530000000000501e-02 1.626305091472985520e+00
0.000000000000000000e+00 4.115729999999999736e-03 4.267590215377016882e+00
1.562500000000000000e-02 2.481859999999999795e-03 1.551984266927078249e+00
0.000000000000000000e+00 3.037380000000000115e-03 3.180295321819122112e+00
1.874999999999999931e-02 5.873980000000000000e-03 1.474657946456523927e+00
0.000000000000000000e+00 1.462400000000000093e-04 6.651904226213367632e-02
0.000000000000000000e+00 7.679999999999999949e-07 1.612008316499446980e-01
0.000000000000000000e+00 8.259839999999999847e-04 1.488034392562381791e-01
1.250000000000000069e-02 2.126079999999999810e-03 3.067640671052647594e+00
0.000000000000000000e+00 1.606079999999999964e-03 6.763441327223546073e-01
1.874999999999999931e-02 1.671619999999999964e-03 2.891807210638728698e+00
5.000000000000000278e-02 9.408239999999999659e-02 1.311349304638341096e+00
0.000000000000000000e+00 2.069119999999999814e-03 5.380892828451788734e-01
0.000000000000000000e+00 1.008049999999999918e-03 3.134678990229046835e+00
1.250000000000000069e-02 7.178920000000000093e-03 5.368625354501993518e-01
0.000000000000000000e+00 1.093000000000000048e-02 1.459798096608276863e+00
0.000000000000000000e+00 1.697469999999999882e-02 4.072395779020490103e+00
1.250000000000000069e-02 2.776960000000000192e-03 1.928097027811653819e-01
3.125000000000000173e-03 3.794880000000000041e-03 2.420660524537695757e+00
0.000000000000000000e+00 1.175550000000000032e-03 3.535826166933625503e-01
0.000000000000000000e+00 1.997439999999999904e-04 3.564227823299022546e+00
1.250000000000000069e-02 1.868419999999999977e-03 4.683449796154325107e+00
0.000000000000000000e+00 9.411200000000000425e-04 7.853747712995373664e-01
2.187499999999999861e-02 2.487619999999999849e-03 2.415004801297305104e+00
6.250000000000000347e-03 1.656880000000000158e-02 1.518723611833271425e+00
0.000000000000000000e+00 6.514709999999999945e-02 4.778230808768783255e+00
1.000000000000000056e-01 8.127760000000000540e-02 1.515850869775313026e+00
0.000000000000000000e+00 5.171839999999999597e-04 2.925804914976439353e+00
0.000000000000000000e+00 1.412030000000000099e-03 3.788823194221287771e+00
0.000000000000000000e+00 1.047680000000000052e-03 2.465297550536900140e+00
2.812500000000000069e-02 8.915779999999999886e-03 4.134628425871135882e+00
1.562500000000000000e-02 3.016539999999999846e-02 4.677903196910309092e+00
0.000000000000000000e+00 3.973950000000000399e-03 2.642237267144349921e+00
0.000000000000000000e+00 1.088769999999999972e-03 2.182655871683780280e+00
3.125000000000000173e-03 9.151599999999999319e-03 2.196891872133914791e+00
9.374999999999999653e-03 7.911680000000000795e-03 1.996364789841890142e+00
1.874999999999999931e-02 9.642109999999999570e-02 4.713143749823782258e+00
1.562500000000000000e-02 3.756879999999999942e-02 1.831406828104539253e+00
0.000000000000000000e+00 9.634790000000000498e-04 3.393832977961368513e+00
0.000000000000000000e+00 1.859580000000000000e-03 6.474091486021904540e-02
0.000000000000000000e+00 5.207169999999999681e-03 1.839646975245093907e+00
0.000000000000000000e+00 1.719289999999999932e-05 1.145300988184548840e+00
0.000000000000000000e+00 1.151810000000000073e-03 3.987677584888398741e+00
6.250000000000000000e-02 2.755799999999999916e-02 4.186301659187531499e+00
1.874999999999999931e-02 3.081410000000000139e-03 2.881471180221310657e+00
3.125000000000000173e-03 1.492540000000000099e-03 2.998985970628547548e+00
0.000000000000000000e+00 1.150020000000000079e-03 1.384007720381733586e+00
0.000000000000000000e+00 9.760640000000000115e-04 2.534683950914912831e+00
6.250000000000000347e-03 1.246260000000000076e-02 1.927282026186647013e+00
3.125000000000000173e-03 1.540350000000000009e-03 2.267898925122419085e-01
0.000000000000000000e+00 3.746180000000000104e-04 9.126746601241797485e-03
2.500000000000000139e-02 2.186749999999999892e-03 3.309851066661960495e+00
0.000000000000000000e+00 2.057219999999999795e-03 2.821359462888178848e-01
0.000000000000000000e+00 2.764800000000000092e-04 2.234648833028021198e+00
1.874999999999999931e-02 2.821440000000000146e-03 4.014283930611149742e+00
0.000000000000000000e+00 9.936000000000000821e-04 1.189874061854711007e+00
0.000000000000000000e+00 2.391299999999999849e-03 2.973006819022432801e+00
0.000000000000000000e+00 0.000000000000000000e+00 4.994419502746966444e+00
0.000000000000000000e+00 2.255469999999999939e-05 4.624935485489314324e+00
1.562500000000000000e-02 1.327330000000000003e-02 4.400124490420215473e+00
2.187499999999999861e-02 2.425280000000000144e-03 4.267580325734721569e+00
2.187499999999999861e-02 3.091140000000000033e-03 1.039144018790925106e+00
0.000000000000000000e+00 9.688319999999999831e-04 4.509628054657657259e+00
0.000000000000000000e+00 5.423690000000000108e-04 2.807259593242595663e+00
3.125000000000000173e-03 3.668670000000000177e-03 9.629398902462460441e-01
6.250000000000000347e-03 1.686339999999999931e-03 1.438417430878396353e+00
2.812500000000000069e-02 1.708539999999999929e-03 1.758896514155683377e-01
1.874999999999999931e-02 1.425730000000000053e-02 4.934995217676615198e+00
0.000000000000000000e+00 5.555199999999999938e-04 2.895680875275868926e-01
0.000000000000000000e+00 1.873979999999999917e-03 2.944110558468116423e+00
0.000000000000000000e+00 2.028819999999999929e-02 1.061156253326025034e+00
3.125000000000000173e-03 2.445249999999999941e-03 2.107789512168139368e+00
1.874999999999999931e-02 2.175170000000000142e-03 1.919590508918985750e+00
3.125000000000000173e-03 4.551939999999999979e-03 2.023427407749458506e+00
0.000000000000000000e+00 4.411160000000000233e-04 3.834093575908518403e+00
1.250000000000000069e-02 1.003700000000000009e-01 1.197378584163484749e+00
0.000000000000000000e+00 4.225640000000000125e-03 5.229300502522876704e-01
2.812500000000000069e-02 1.943489999999999975e-03 4.301821843073214247e+00
2.500000000000000139e-02 2.339579999999999958e-03 2.568069477118046784e+00
0.000000000000000000e+00 1.049339999999999952e-03 4.488045802716956523e+00
0.000000000000000000e+00 1.072699999999999999e-03 4.629752082430696802e+00
3.125000000000000173e-03 2.081280000000000022e-03 9.592191936471033964e-01
0.000000000000000000e+00 6.598399999999999708e-04 2.053819262811479973e+00
0.000000000000000000e+00 8.187480000000000018e-04 3.419834284289921644e+00
9.374999999999999653e-03 1.554620000000000047e-03 3.965499087471548556e+00
0.000000000000000000e+00 3.857760000000000009e-04 2.536105518041721574e+00
0.000000000000000000e+00 1.108540000000000090e-03 1.959781922709133983e+00
1.250000000000000069e-02 6.874879999999999880e-03 1.594901426452769444e+00
0.000000000000000000e+00 1.032380000000000060e-03 8.444963435328645129e-01
0.000000000000000000e+00 5.432059999999999840e-03 3.838305103845905286e+00
1.250000000000000069e-02 9.906320000000000403e-02 1.845900591364425525e+00
3.125000000000000173e-03 4.264000000000000429e-03 2.798785347889753972e-01
0.000000000000000000e+00 2.612520000000000120e-02 4.238722851960610605e+00
0.000000000000000000e+00 3.857120000000000232e-04 2.322943473865994868e+00
0.000000000000000000e+00 1.505280000000000062e-04 1.237940888333978195e+00
3.125000000000000173e-03 1.176679999999999914e-02 4.437613073817178844e+00
0.000000000000000000e+00 4.068480000000000187e-04 3.557082340590156377e+00
0.000000000000000000e+00 4.371840000000000209e-04 3.716901455751255412e+00
0.000000000000000000e+00 1.433339999999999961e-03 3.300058882781076175e+00
1.562500000000000000e-02 2.118810000000000138e-01 2.881524018456500968e+00
0.000000000000000000e+00 7.243560000000000016e-04 2.838944828936074138e-01
0.000000000000000000e+00 5.519679999999999899e-03 4.137695406836622292e-01
2.187499999999999861e-02 6.390459999999999717e-03 2.226208791718006452e+00
0.000000000000000000e+00 1.647359999999999894e-04 2.091956713466613937e+00
1.562500000000000000e-02 2.334530000000000025e-03 7.017823381866405974e-01
2.812500000000000069e-02 2.516539999999999836e-03 4.041227312290303075e+00
3.125000000000000000e-02 3.935070000000000234e-02 1.850829475827852733e+00
0.000000000000000000e+00 7.253820000000000016e-04 3.202951070684458834e+00
3.125000000000000173e-03 1.997440000000000066e-03 3.618036812237268141e+00
0.000000000000000000e+00 5.478140000000000266e-03 1.844693170828719975e+00
0.000000000000000000e+00 4.136699999999999882e-04 3.077573336735199838e+00
3.125000000000000000e-02 2.090750000000000160e-03 4.954351242373728148e+00
1.874999999999999931e-02 9.885299999999999643e-02 9.777237793687110212e-01
4.374999999999999722e-02 3.257109999999999866e-02 5.546656961648910311e-01
2.500000000000000139e-02 7.996929999999999317e-03 1.724206830571613391e+00
0.000000000000000000e+00 1.103809999999999991e-03 2.565466912552283318e+00
1.874999999999999931e-02 3.009589999999999835e-02 3.050893005004104985e+00
3.125000000000000173e-03 3.677249999999999963e-03 4.358513515953616135e+00
3.125000000000000173e-03 1.750079999999999995e-03 2.504502410299631610e+00
2.812500000000000069e-02 2.800190000000000144e-03 2.062323591940121936e+00
0.000000000000000000e+00 3.326080000000000247e-04 4.970857425035543287e+00
0.000000000000000000e+00 1.999809999999999869e-03 1.320741848877356350e+00
0.000000000000000000e+00 9.295499999999999943e-03 3.006891750642683991e+00
0.000000000000000000e+00 1.005500000000000100e-03 1.378652098572574758e+00
0.000000000000000000e+00 3.879640000000000172e-02 3.459919890500530837e+00
6.250000000000000347e-03 1.050889999999999984e-02 1.392840434530745464e+00
0.000000000000000000e+00 0.000000000000000000e+00 3.009452179337175792e+00
0.000000000000000000e+00 1.136639999999999959e-03 2.195504772705599628e+00
3.125000000000000173e-03 9.780590000000000117e-02 3.469316461453088252e+00
3.125000000000000173e-03 1.060180000000000011e-01 5.806995138331461082e-01
2.812500000000000069e-02 8.516539999999999527e-03 1.352528928015946263e+00
2.812500000000000069e-02 9.439809999999999868e-02 2.328139695547323917e+00
3.125000000000000000e-02 9.801400000000000390e-02 4.766715148880639852e+00
0.000000000000000000e+00 2.363520000000000031e-04 5.017066209008619326e-01
2.500000000000000139e-02 2.640319999999999820e-03 4.938324140683600483e+00
1.874999999999999931e-02 2.952830000000000038e-03 2.903094068520592597e+00
1.250000000000000069e-02 2.404480000000000159e-02 2.813279199106180961e+00
0.000000000000000000e+00 2.296310000000000042e-05 4.161365125433231782e+00
2.500000000000000139e-02 3.331970000000000071e-03 3.670077938804711781e+00
0.000000000000000000e+00 1.010229999999999982e-03 2.665237160462659016e+00
0.000000000000000000e+00 1.209299999999999958e-02 3.814932295377441385e+00
0.000000000000000000e+00 4.858749999999999788e-04 1.391058347888665558e+00
3.125000000000000173e-03 1.685890000000000001e-03 1.778498885488885684e+00
0.000000000000000000e+00 5.239360000000000198e-03 2.280282692428923230e+00
0.000000000000000000e+00 1.704320000000000108e-04 1.122696594335593767e+00
0.000000000000000000e+00 1.800409999999999858e-02 4.090601925539062655e+00
2.812500000000000069e-02 4.566910000000000414e-03 3.245929913134495415e+00
0.000000000000000000e+00 3.681919999999999876e-04 3.914562426802115080e-01
0.000000000000000000e+00 1.115579999999999914e-03 2.415314909005833455e-01
1.250000000000000069e-02 2.454399999999999811e-03 2.431944443318623694e+00
1.250000000000000069e-02 1.856959999999999947e-03 1.344911407254641977e+00
2.812500000000000069e-02 3.073409999999999944e-03 1.067508398520924384e+00
5.000000000000000278e-02 9.207170000000000631e-02 6.408134122601760740e-01
0.000000000000000000e+00 2.265150000000000063e-03 3.654505667222277765e+00
0.000000000000000000e+00 5.849600000000000372e-04 2.257070970481950489e+00
3.437500000000000278e-02 5.361920000000000054e-03 3.817120246214924073e+00
0.000000000000000000e+00 9.435519999999999541e-04 2.562407208558148852e+00
8.125000000000000278e-02 2.785010000000000090e-03 2.177297123835812531e+00
1.874999999999999931e-02 2.620100000000000207e-03 4.400668584258623284e+00
3.125000000000000173e-03 4.398660000000000417e-03 3.633786826848477869e+00
3.125000000000000173e-03 5.546749999999999597e-03 1.231191968697337158e-01
6.250000000000000347e-03 1.040529999999999927e-02 3.938921121175638085e+00
0.000000000000000000e+00 6.103420000000000459e-04 3.506663306733898811e+00
3.125000000000000173e-03 4.111489999999999763e-03 2.311478193446446117e+00
0.000000000000000000e+00 1.115899999999999965e-03 4.560697294435968274e+00
3.125000000000000173e-03 2.081729999999999952e-03 4.325026734232645387e-01
2.500000000000000139e-02 2.487679999999999926e-03 4.040883378698635120e+00
0.000000000000000000e+00 1.080259999999999988e-03 4.162714341327328427e+00
0.000000000000000000e+00 2.825990000000000229e-04 4.325395402791148314e+00
2.500000000000000139e-02 2.430400000000000095e-03 2.380614808917580483e-01
1.874999999999999931e-02 2.122429999999999803e-03 4.393583424824221595e+00
0.000000000000000000e+00 1.208960000000000026e-03 1.603264789968190218e+00
9.374999999999999653e-03 7.099520000000000223e-04 1.196601864337336174e+00
1.250000000000000069e-02 3.209730000000000048e-03 1.324403336974768308e+00
0.000000000000000000e+00 3.030549999999999911e-04 2.973528797926197509e+00
0.000000000000000000e+00 4.287399999999999913e-04 2.145300015443796227e+00
0.000000000000000000e+00 1.151420000000000004e-03 9.436318702647517043e-01
0.000000000000000000e+00 1.683140000000000070e-03 2.170785395296263687e+00
0.000000000000000000e+00 3.112960000000000033e-02 2.248806996877643627e+00
3.125000000000000173e-03 3.854269999999999918e-03 2.651216229489607557e+00
0.000000000000000000e+00 2.330239999999999970e-04 4.903324620182566207e+00
0.000000000000000000e+00 2.111299999999999982e-03 2.632168728875550201e-01
9.374999999999999653e-03 6.864539999999999705e-03 4.540749224897210112e+00
0.000000000000000000e+00 6.279760000000000333e-04 4.088884636268968364e+00
9.374999999999999653e-03 2.382270000000000134e-03 1.074357765034778645e+00
0.000000000000000000e+00 1.323650000000000000e-03 4.536614852172639267e+00
1.250000000000000069e-02 1.221309999999999974e-03 1.530273833531962113e+00
3.125000000000000173e-03 1.897290000000000088e-02 2.688158937965222428e+00
3.749999999999999861e-02 3.869659999999999767e-02 2.977034117777288547e+00
3.125000000000000173e-03 4.227329999999999630e-03 1.451365649666993551e+00
1.874999999999999931e-02 1.061580000000000024e-01 1.113123318356266545e+00
0.000000000000000000e+00 5.545470000000000260e-03 1.703862663031265878e+00
1.562500000000000000e-02 2.457410000000000150e-03 5.233173140126406997e-01
3.125000000000000173e-03 5.210499999999999854e-03 1.224633472663738232e+00
9.374999999999999653e-03 2.467009999999999949e-03 2.981108240883835414e+00
3.125000000000000000e-02 1.072199999999999959e-01 3.209141651500719838e+00
0.000000000000000000e+00 1.280380000000000016e-03 3.415789830947721484e+00
0.000000000000000000e+00 1.152320000000000080e-03 1.672314623167899139e+00
6.250000000000000347e-03 4.718339999999999687e-03 8.457304814092903023e-01
0.000000000000000000e+00 3.450500000000000008e-03 2.083211876889635938e+00
0.000000000000000000e+00 2.236989999999999899e-03 1.706289321770102063e+00
0.000000000000000000e+00 2.448740000000000031e-03 3.741910589965287137e+00
0.000000000000000000e+00 2.851390000000000088e-03 2.256761288406884169e+00
0.000000000000000000e+00 4.272650000000000232e-04 8.106925582991314494e-01
1.874999999999999931e-02 3.869580000000000242e-02 1.133882700553062728e+00
0.000000000000000000e+00 2.287679999999999835e-03 2.002063520325946477e+00
1.562500000000000000e-02 2.205499999999999995e-03 4.504900629878301643e+00
0.000000000000000000e+00 1.067940000000000078e-03 1.685550146308496089e+00
1.874999999999999931e-02 2.099199999999999851e-03 9.304191037431963629e-02
3.125000000000000173e-03 9.515410000000000534e-02 1.050059902431721870e+00
0.000000000000000000e+00 1.141440000000000076e-03 3.621065261850403338e+00
6.250000000000000347e-03 1.849149999999999926e-03 3.709345054954600318e+00
0.000000000000000000e+00 1.425540000000000097e-03 4.192834840830258258e+00
0.000000000000000000e+00 7.267289999999999601e-04 4.606024723679166044e+00
3.437500000000000278e-02 9.294349999999999834e-02 4.466673893339151213e+00
3.125000000000000173e-03 1.004990000000000093e-03 4.301715389362435360e+00
0.000000000000000000e+00 2.857220000000000159e-03 4.608070749877621886e+00
0.000000000000000000e+00 6.710680000000000334e-04 6.863521409806955242e-01
3.749999999999999861e-02 1.058449999999999946e-01 6.285880609852390055e-01
0.000000000000000000e+00 2.062070000000000049e-03 4.718380219968141276e+00
0.000000000000000000e+00 2.293819999999999800e-03 3.247546305443432813e-01
0.000000000000000000e+00 4.718459999999999842e-03 2.419821461268162999e+00
3.125000000000000173e-03 1.045360000000000039e-01 8.439666231396930618e-01
0.000000000000000000e+00 1.442750000000000022e-03 1.421317934733905997e+00
0.000000000000000000e+00 2.537859999999999856e-03 3.654969018358497745e+00
0.000000000000000000e+00 1.076920000000000091e-03 2.498661933857571960e+00
3.125000000000000173e-03 4.275319999999999815e-02 3.938022617597692232e+00
0.000000000000000000e+00 5.221380000000000292e-03 3.563812690515439030e+00
0.000000000000000000e+00 1.077379999999999961e-03 4.287389611127495392e+00
3.125000000000000173e-03 2.931899999999999871e-03 4.908089129143990093e+00
0.000000000000000000e+00 1.035389999999999965e-03 8.202307446094514454e-02
0.000000000000000000e+00 5.297089999999999958e-03 2.197784518926264585e+00
9.374999999999999653e-03 2.077499999999999920e-03 1.503101198774355884e+00
1.562500000000000000e-02 5.440640000000000059e-03 1.090111872023130646e-01
6.250000000000000347e-03 4.238020000000000329e-03 4.824890758411170211e+00
5.000000000000000278e-02 9.091059999999999419e-02 2.506779898468418644e+00
0.000000000000000000e+00 1.447809999999999896e-03 4.399765202501789929e+00
6.250000000000000347e-03 3.061679999999999957e-02 2.907919805290094750e+00
0.000000000000000000e+00 1.001380000000000065e-03 1.079291404536772525e+00
0.000000000000000000e+00 1.778619999999999922e-05 2.633363212076267335e+00
0.000000000000000000e+00 2.956349999999999950e-03 1.359293653044487682e+00
0.000000000000000000e+00 2.019839999999999960e-04 4.362808935964687329e+00
0.000000000000000000e+00 4.870930000000000203e-04 2.834461396251690246e+00
0.000000000000000000e+00 2.723329999999999848e-02 3.702621899947522444e-02
1.562500000000000000e-02 1.499200000000000012e-03 6.352832488926452026e-01
0.000000000000000000e+00 1.510200000000000084e-02 4.609545661398134486e-01
0.000000000000000000e+00 1.682300000000000071e-03 6.842117820113968740e-01
0.000000000000000000e+00 9.794560000000000766e-04 1.881892407662993927e+00
3.125000000000000173e-03 4.010940000000000165e-03 2.709938668277326101e+00
0.000000000000000000e+00 1.061959999999999987e-01 1.934437867664943189e+00
2.187499999999999861e-02 2.589059999999999799e-03 4.061364068723272158e-01
0.000000000000000000e+00 6.292699999999999683e-02 4.732462846674540202e+00
1.562500000000000000e-02 2.567130000000000106e-02 9.386006130524232605e-01
0.000000000000000000e+00 1.422780000000000008e-03 2.494073651835625682e+00
0.000000000000000000e+00 1.263680000000000098e-03 4.327315689879561056e+00
0.000000000000000000e+00 1.008049999999999918e-03 2.586944143988606726e+00
0.000000000000000000e+00 2.091519999999999924e-03 4.741230954049727941e+00
2.500000000000000139e-02 1.654270000000000003e-03 1.224082859406677715e-01
0.000000000000000000e+00 1.312000000000000015e-03 1.455207031094543080e+00
0.000000000000000000e+00 1.891460000000000016e-02 2.673455107692576771e+00
9.374999999999999653e-03 1.999640000000000098e-02 1.122580509605953125e+00
0.000000000000000000e+00 5.379199999999999997e-04 1.017493769155141115e+00
0.000000000000000000e+00 1.744000000000000107e-03 4.347690781173353614e+00
3.125000000000000173e-03 4.403390000000000082e-03 6.390615911408925598e-01
3.125000000000000173e-03 6.565689999999999894e-03 1.691334943195661022e+00
3.125000000000000173e-03 4.891010000000000323e-03 3.549993580344865229e+00
2.187499999999999861e-02 2.492739999999999800e-03 2.273025212697602271e+00
0.000000000000000000e+00 2.727419999999999931e-03 4.107469009584675312e+00
1.562500000000000000e-02 1.061860000000000026e-01 7.391742869975492791e-01
2.812500000000000069e-02 1.697729999999999942e-03 3.574978434072306310e+00
0.000000000000000000e+00 1.115969999999999983e-03 5.587527243341378069e-01
0.000000000000000000e+00 1.932289999999999919e-03 2.924074354967977740e+00
2.187499999999999861e-02 2.044479999999999995e-03 1.122107733649695849e+00
0.000000000000000000e+00 2.221039999999999999e-05 4.078272225778412086e-01
2.812500000000000069e-02 1.679809999999999897e-03 1.627548135355130654e+00
0.000000000000000000e+00 2.060479999999999950e-03 4.006630410574213430e-01
6.250000000000000347e-03 1.888829999999999979e-03 1.094617388173952488e+00
0.000000000000000000e+00 7.679999999999999949e-07 3.324882716271319705e+00
3.125000000000000000e-02 2.453120000000000040e-03 4.230866472822047974e+00
0.000000000000000000e+00 4.112340000000000136e-04 4.832225972396588354e+00
1.250000000000000069e-02 1.649979999999999893e-03 7.778338984957017255e-01
3.125000000000000173e-03 3.613180000000000124e-03 2.307462266967633902e+00
1.874999999999999931e-02 4.914939999999999587e-03 1.007348725792675648e+00
0.000000000000000000e+00 1.643010000000000087e-03 3.211667485487350593e+00
0.000000000000000000e+00 7.600000000000000418e-04 4.074678534031523469e+00
0.000000000000000000e+00 3.543549999999999912e-04 5.113216521535512982e-02
9.374999999999999653e-03 1.903619999999999965e-03 1.446931176572496369e+00
0.000000000000000000e+00 3.832819999999999977e-02 3.300394463702560621e-01
1.250000000000000069e-02 2.105150000000000077e-03 1.908638410316498391e+00
0.000000000000000000e+00 7.179429999999999666e-04 5.187121040096587254e-01
2.187499999999999861e-02 4.782080000000000185e-03 4.842590181394187177e+00
9.374999999999999653e-03 1.066730000000000039e-01 3.549546573871989352e+00
1.562500000000000000e-02 9.168709999999999360e-02 3.462938280781894917e+00
3.125000000000000173e-03 5.864059999999999932e-03 5.816233268001280710e-01
1.562500000000000000e-02 2.731579999999999946e-03 4.215617721824473030e+00
9.374999999999999653e-03 1.799870000000000072e-03 3.852794992876193536e+00
0.000000000000000000e+00 1.687490000000000040e-03 1.190599095643785521e+00
1.874999999999999931e-02 1.746879999999999917e-03 1.843167463970821762e+00
6.250000000000000347e-03 2.124990000000000212e-03 4.751957095596186953e+00
0.000000000000000000e+00 7.631359999999999793e-04 2.254257683573609228e+00
0.000000000000000000e+00 3.238529999999999881e-03 3.646965001309773413e+00
0.000000000000000000e+00 1.171430000000000041e-02 4.560036796770916556e-02
1.874999999999999931e-02 1.956859999999999936e-03 2.468084630606191432e+00
0.000000000000000000e+00 5.100440000000000355e-03 3.640215299453810172e+00
0.000000000000000000e+00 4.168120000000000202e-04 1.031575123962877427e+00
0.000000000000000000e+00 3.628539999999999977e-03 3.559826784825067314e+00
0.000000000000000000e+00 2.150720000000000062e-03 3.116124676218705591e+00
0.000000000000000000e+00 3.119939999999999866e-03 4.854784071482384888e+00
0.000000000000000000e+00 3.458910000000000261e-04 4.797586384283871297e+00
3.125000000000000000e-02 1.310719999999999941e-02 4.262396120557400359e+00
0.000000000000000000e+00 6.471330000000000138e-02 1.363278744772713935e+00
2.187499999999999861e-02 3.098689999999999865e-03 2.176000218289597665e+00
0.000000000000000000e+00 2.179459999999999818e-03 1.487770377491925533e+00
0.000000000000000000e+00 1.656509999999999927e-03 3.322108823345280904e+00
3.125000000000000173e-03 3.758780000000000194e-03 4.172165868754730944e+00
0.000000000000000000e+00 9.582079999999999981e-04 2.493482119703954725e-01
2.187499999999999861e-02 2.073020000000000071e-03 6.643376740357231913e-01
3.125000000000000173e-03 9.999239999999999517e-02 1.307948457218590210e+00
0.000000000000000000e+00 7.679999999999999949e-07 2.882337828481458697e+00
3.125000000000000000e-02 9.182899999999999396e-02 9.449705850773426619e-01
8.749999999999999445e-02 9.259489999999999388e-02 6.596231376241651345e-01
0.000000000000000000e+00 3.248510000000000026e-03 3.367500338703383278e+00
0.000000000000000000e+00 0.000000000000000000e+00 2.275854947131039641e+00
3.125000000000000173e-03 7.874930000000000471e-03 2.564952431457245829e-01
8.749999999999999445e-02 9.269070000000000087e-02 4.456301100208407640e+00
0.000000000000000000e+00 1.481689999999999917e-02 4.419739909606466455e+00
0.000000000000000000e+00 3.819900000000000205e-03 5.046832556971575512e-01
2.500000000000000139e-02 6.366909999999999931e-03 4.268165626885832786e+00
0.000000000000000000e+00 2.267969999999999795e-03 9.993559043515659601e-01
3.125000000000000173e-03 4.429820000000000112e-03 4.790702676890481015e+00
2.500000000000000139e-02 2.925500000000000149e-03 1.815734552319475670e-01
2.187499999999999861e-02 8.631170000000000508e-03 6.687295589120362260e-01
3.125000000000000173e-03 2.109699999999999943e-03 2.231009751169180433e+00
0.000000000000000000e+00 1.962499999999999835e-03 3.285725841657415103e+00
2.187499999999999861e-02 2.903450000000000128e-03 1.203156607838518077e-01
3.125000000000000173e-03 1.065720000000000001e-01 3.934348044149005297e-01
0.000000000000000000e+00 9.090370000000000178e-04 5.780658339583188976e-01
3.125000000000000173e-03 5.275329999999999950e-03 1.643057786912971885e+00
6.250000000000000347e-03 2.220859999999999848e-03 3.263709341303810962e+00
0.000000000000000000e+00 3.681280000000000099e-04 3.751366807689267446e+00
0.000000000000000000e+00 9.624320000000000444e-04 3.391942249395458742e+00
0.000000000000000000e+00 1.231260000000000080e-03 2.439665798127514496e+00
0.000000000000000000e+00 2.592469999999999844e-02 2.839807150188130791e+00
2.500000000000000139e-02 2.197820000000000069e-03 2.501853869244967665e+00
0.000000000000000000e+00 6.257600000000000315e-03 2.879554231809331455e+00
1.874999999999999931e-02 1.995330000000000020e-03 2.221936784184474600e+00
0.000000000000000000e+00 2.145789999999999850e-03 3.243864485068097547e+00
1.562500000000000000e-02 1.542780000000000106e-03 1.818584924436550843e+00
0.000000000000000000e+00 1.606339999999999938e-03 2.935944540323395913e+00
0.000000000000000000e+00 1.265150000000000042e-03 4.098338095305810391e+00
0.000000000000000000e+00 1.754939999999999972e-03 2.682802716896579565e+00
1.250000000000000069e-02 1.911809999999999898e-03 4.520549423144365475e-01
0.000000000000000000e+00 9.708800000000000286e-04 4.069791003870476542e-01
0.000000000000000000e+00 5.119999999999999768e-04 4.249522180490470369e+00
0.000000000000000000e+00 9.847680000000000149e-04 1.917509819337281929e+00
0.000000000000000000e+00 1.122619999999999955e-03 1.227833069614325812e-02
0.000000000000000000e+00 1.745919999999999981e-04 2.359734643017132427e+00
0.000000000000000000e+00 6.073920000000000013e-04 2.784573479447205457e+00
2.500000000000000139e-02 1.094139999999999956e-03 2.044582924386834089e-01
0.000000000000000000e+00 3.303810000000000080e-02 4.240580461517977184e+00
1.562500000000000000e-02 9.284280000000000310e-02 1.848073058163213211e+00
0.000000000000000000e+00 7.373730000000000432e-04 2.162297308531503148e+00
0.000000000000000000e+00 2.339200000000000047e-03 1.958717970486429927e+00
6.250000000000000347e-03 2.144580000000000097e-03 4.875031936793838838e-02
0.000000000000000000e+00 3.928960000000000004e-04 4.642583027087980874e+00
0.000000000000000000e+00 4.406670000000000010e-04 4.516656436992101398e+00
1.250000000000000069e-02 4.801539999999999975e-03 1.647655355243521358e-01
0.000000000000000000e+00 5.245500000000000163e-03 4.594411145908128269e-01
0.000000000000000000e+00 1.265919999999999968e-04 2.388747631864172494e+00
6.250000000000000347e-03 2.290369999999999906e-03 2.123437815294551001e+00
0.000000000000000000e+00 9.887360000000000419e-04 2.030506014823750149e+00
3.125000000000000173e-03 1.050719999999999987e-01 7.462587705100504065e-01
1.874999999999999931e-02 1.300699999999999946e-02 1.062956053041316906e+00
0.000000000000000000e+00 1.828420000000000021e-05 4.410103176521670498e+00
1.250000000000000069e-02 1.353730000000000037e-03 9.167959797118213627e-01
0.000000000000000000e+00 5.132560000000000204e-04 3.725005117124152720e-01
1.874999999999999931e-02 2.327300000000000028e-03 4.996377259045707397e+00
0.000000000000000000e+00 8.581759999999999909e-04 2.669227553995850322e+00
0.000000000000000000e+00 1.403649999999999993e-03 1.230751490932796566e+00
0.000000000000000000e+00 3.998460000000000208e-02 3.047410456510135646e-01
0.000000000000000000e+00 1.945789999999999976e-03 3.230956229460402174e+00
6.250000000000000347e-03 6.897730000000000354e-03 3.748818589820668290e+00
2.187499999999999861e-02 1.957439999999999961e-03 1.926379752766891773e+00
0.000000000000000000e+00 3.724289999999999892e-03 4.296916660559523038e+00
3.749999999999999861e-02 1.990210000000000035e-01 9.878195055676719516e-01
6.250000000000000347e-03 9.814779999999999338e-02 1.174880599292283279e+00
0.000000000000000000e+00 4.480640000000000252e-04 2.085092006410202981e+00
1.562500000000000000e-02 2.442820000000000061e-03 1.717676414999293577e+00
1.874999999999999931e-02 2.994179999999999932e-03 3.571527081059900688e+00
0.000000000000000000e+00 1.171839999999999948e-04 2.853300985261870260e+00
3.125000000000000173e-03 1.846589999999999950e-03 2.787330738077861803e+00
6.250000000000000347e-03 3.234240000000000205e-03 2.859732705621879312e+00
0.000000000000000000e+00 3.121919999999999817e-04 4.969303650598938304e+00
2.187499999999999861e-02 5.014339999999999943e-03 3.882185852675387849e+00
0.000000000000000000e+00 4.155300000000000009e-04 3.917469158976492949e+00
6.250000000000000347e-03 1.297260000000000080e-02 4.099609191962683141e-01
9.374999999999999653e-03 2.150589999999999967e-03 8.627794878353828301e-01
6.250000000000000347e-03 2.085500000000000114e-03 3.968831528804005693e+00
0.000000000000000000e+00 8.660080000000000338e-04 2.140707533860188416e+00
1.250000000000000069e-02 1.396480000000000074e-03 2.258362036025551856e-01
0.000000000000000000e+00 6.107260000000000206e-04 2.904023914563895747e+00
2.187499999999999861e-02 1.681470000000000013e-03 2.083239959155331000e+00
2.187499999999999861e-02 2.995069999999999850e-03 4.473777951933865182e+00
0.000000000000000000e+00 2.082179999999999882e-03 3.474448591037108791e+00
1.562500000000000000e-02 9.949059999999999848e-02 2.544557270923283987e+00
0.000000000000000000e+00 1.147009999999999957e-03 4.890588305156600590e+00
1.250000000000000069e-02 7.160320000000000183e-04 8.813546919480558239e-01
0.000000000000000000e+00 5.534690000000000096e-03 8.163637236216370052e-01
0.000000000000000000e+00 3.208829999999999972e-04 3.540097737273003808e+00
9.374999999999999653e-03 9.997770000000000268e-02 2.841155764494951441e-02
3.125000000000000173e-03 1.412859999999999941e-03 1.102540364462734068e+00
0.000000000000000000e+00 1.513409999999999929e-02 3.652552189863480070e+00
2.500000000000000139e-02 5.283069999999999954e-03 4.440887048256188407e+00
0.000000000000000000e+00 3.782729999999999882e-04 3.503872135120571052e+00
3.437500000000000278e-02 9.465020000000000377e-02 8.791145812427419992e-01
0.000000000000000000e+00 4.099199999999999784e-04 6.376921070440855210e-01
2.187499999999999861e-02 3.771650000000000089e-03 2.706335637137768479e+00
0.000000000000000000e+00 1.020810000000000033e-03 1.659513147206165273e+00
1.562500000000000000e-02 1.784769999999999976e-03 4.650230338544122155e+00
3.125000000000000173e-03 9.659600000000000131e-02 3.728666912075000894e+00
0.000000000000000000e+00 9.775859999999999064e-04 2.569636163155434083e+00
8.749999999999999445e-02 9.388520000000000199e-02 3.482430284097637774e+00
0.000000000000000000e+00 2.520959999999999933e-04 3.889157177548971944e+00
3.125000000000000173e-03 9.766759999999999331e-02 6.763237964728258111e-01
0.000000000000000000e+00 1.090059999999999901e-03 1.286991590544210418e+00
3.125000000000000173e-03 4.915199999999999778e-03 2.053176051662873203e+00
3.125000000000000173e-03 3.194559999999999934e-03 3.461622214802733577e+00
3.125000000000000173e-03 1.352509999999999910e-03 7.127842111716647944e-01
0.000000000000000000e+00 1.585529999999999926e-02 1.694924267466101364e+00
0.000000000000000000e+00 7.072349999999999600e-04 2.627046792765277416e+00
0.000000000000000000e+00 4.351970000000000144e-03 4.169770063820314121e+00
0.000000000000000000e+00 7.577649999999999794e-04 3.983169035057207541e+00
3.125000000000000173e-03 2.085699999999999794e-03 4.262389064366878699e+00
0.000000000000000000e+00 7.369240000000000209e-04 4.732271649416420978e+00
2.500000000000000139e-02 8.265659999999999327e-03 4.683490114358488832e+00
2.187499999999999861e-02 2.634370000000000028e-03 8.994350235332843058e-01
0.000000000000000000e+00 0.000000000000000000e+00 4.435640855739720223e+00
0.000000000000000000e+00 1.884160000000000067e-04 4.068187561554925225e+00
3.125000000000000173e-03 5.119809999999999812e-03 4.659164458567830458e+00
2.187499999999999861e-02 2.460420000000000055e-03 3.622558937795631095e+00
1.250000000000000069e-02 1.078019999999999951e-01 2.363128450688083859e+00
0.000000000000000000e+00 7.679999999999999949e-07 3.149785262248252504e+00
2.187499999999999861e-02 1.728060000000000013e-03 4.413792127358136419e+00
0.000000000000000000e+00 3.820569999999999912e-04 6.847616768562592160e-01
0.000000000000000000e+00 2.992000000000000085e-04 4.465214498455950753e+00
2.812500000000000069e-02 3.401219999999999938e-03 1.150898069375975163e+00
2.812500000000000069e-02 3.163329999999999788e-03 3.137241937968113348e+00
0.000000000000000000e+00 2.277239999999999901e-05 4.170573693377854774e+00
0.000000000000000000e+00 8.599039999999999852e-04 4.405731819062189913e+00
1.250000000000000069e-02 1.274369999999999930e-03 4.595946469793343869e-01
0.000000000000000000e+00 1.128960000000000033e-03 6.972531460567943373e-01
3.125000000000000173e-03 2.410939999999999871e-03 2.758020904275538143e+00
0.000000000000000000e+00 3.324929999999999813e-03 2.690180999070022949e+00
2.500000000000000139e-02 1.946880000000000008e-03 2.735001568823787643e+00
2.500000000000000139e-02 1.934659999999999939e-03 2.965320193011508287e+00
3.125000000000000173e-03 2.545889999999999872e-03 2.048290859739418046e+00
9.375000000000000000e-02 5.605700000000000266e-02 1.935885982220705293e+00
2.812500000000000069e-02 2.407489999999999977e-03 1.144026595445263306e+00
0.000000000000000000e+00 4.705339999999999696e-03 3.233392159776264485e+00
3.125000000000000173e-03 7.841970000000000190e-03 1.449261890854853352e+00
0.000000000000000000e+00 3.987009999999999860e-02 1.664523583447329314e+00
0.000000000000000000e+00 9.763680000000000275e-04 3.609979077344389164e+00
2.500000000000000139e-02 1.696770000000000006e-03 4.139244258917966768e+00
6.250000000000000347e-03 9.921280000000001070e-04 1.968557377241447082e+00
1.250000000000000069e-02 2.122840000000000005e-01 1.530076025693694053e-01
9.374999999999999653e-03 2.689979999999999802e-03 2.300881249009934848e+00
0.000000000000000000e+00 9.539200000000000283e-04 2.006559682508437081e+00
0.000000000000000000e+00 5.794560000000000032e-04 7.989627089940770643e-01
4.687500000000000000e-02 3.834320000000000089e-02 2.143645447469320509e+00
0.000000000000000000e+00 1.137130000000000085e-03 2.930899069999779005e+00
0.000000000000000000e+00 1.155650000000000037e-03 3.314962963169015175e+00
0.000000000000000000e+00 4.248279999999999786e-04 1.390279943161731868e-01
3.125000000000000000e-02 1.039110000000000034e-02 3.576630194121447559e+00
0.000000000000000000e+00 2.660860000000000135e-03 2.623911514521683586e+00
0.000000000000000000e+00 2.294369999999999854e-05 4.674616783423814148e+00
0.000000000000000000e+00 2.795140000000000211e-03 1.806997009563530820e+00
0.000000000000000000e+00 4.210449999999999913e-04 3.700997666817851695e+00
4.062500000000000139e-02 9.269239999999999424e-02 7.762788988665769718e-01
6.250000000000000347e-03 1.453440000000000070e-03 1.494449242036151482e+00
6.250000000000000347e-03 6.799359999999999953e-03 1.962723381235056852e+00
3.125000000000000173e-03 2.198340000000000016e-03 1.805979754193479003e+00
3.125000000000000173e-03 1.581310000000000007e-02 1.889076582737826415e+00
0.000000000000000000e+00 1.173629999999999942e-03 3.346735407789529049e+00
9.687500000000000278e-02 4.315220000000000167e-02 5.480173056882864380e-01
9.374999999999999653e-03 6.894720000000000015e-04 2.205890771066343792e+00
0.000000000000000000e+00 2.300139999999999970e-05 1.171190985401655116e+00
3.125000000000000173e-03 3.868860000000000007e-03 4.503287412969645409e+00
0.000000000000000000e+00 1.595709999999999967e-03 3.394157045855767496e+00
2.500000000000000139e-02 2.554939999999999902e-03 4.749796572957695417e+00
3.125000000000000173e-03 3.444220000000000007e-03 1.830407115611743407e+00
4.062500000000000139e-02 9.391410000000000036e-02 4.735189734617534008e+00
3.125000000000000173e-03 8.388610000000000511e-02 4.400733628914558437e+00
6.250000000000000347e-03 9.882009999999999406e-02 5.598350104148669404e-01
2.500000000000000139e-02 2.703679999999999972e-03 4.241782112103812175e+00
0.000000000000000000e+00 1.739780000000000016e-03 2.625066047910198819e+00
2.187499999999999861e-02 7.999169999999999892e-03 1.108018173749764745e+00
1.874999999999999931e-02 2.725630000000000153e-03 4.302478281639487534e+00
1.562500000000000000e-02 9.119649999999999979e-02 4.512675299747611390e+00
3.125000000000000173e-03 4.095099999999999955e-03 1.067688023215603854e+00
6.250000000000000347e-03 1.929340000000000091e-03 9.617139008993635940e-02
0.000000000000000000e+00 4.921590000000000426e-04 3.407449824163840901e+00
2.812500000000000069e-02 2.750209999999999894e-03 6.282369569517720631e-01
0.000000000000000000e+00 1.859069999999999993e-03 5.882031321765340826e-01
0.000000000000000000e+00 3.820159999999999962e-04 4.367157266875600463e+00
9.374999999999999653e-03 1.892290000000000031e-03 3.703149574670032251e+00
0.000000000000000000e+00 2.996739999999999907e-03 3.102854516264878626e+00
0.000000000000000000e+00 9.720710000000000245e-04 9.340671756839874496e-01
0.000000000000000000e+00 2.369250000000000059e-05 2.157610516982897853e+00
3.125000000000000173e-03 4.243710000000000364e-03 2.610852919944642636e+00
3.125000000000000173e-03 4.598210000000000144e-03 3.735708578906767219e+00
1.562500000000000000e-02 2.126139999999999974e-01 2.446985683834345338e+00
0.000000000000000000e+00 5.859900000000000352e-03 4.334431423674123263e-01
1.874999999999999931e-02 2.983490000000000100e-03 1.885715670224741292e-01
9.374999999999999653e-03 9.866550000000000320e-02 2.946145867009197783e+00
0.000000000000000000e+00 0.000000000000000000e+00 4.039526593107577668e+00
0.000000000000000000e+00 6.358859999999999513e-02 1.011947301500067287e+00
0.000000000000000000e+00 1.098110000000000015e-03 1.893760137760092110e+00
6.250000000000000347e-03 9.794590000000000241e-02 7.293838162171589756e-01
0.000000000000000000e+00 7.274980000000000335e-04 1.424145992771334690e+00
0.000000000000000000e+00 6.496280000000000110e-02 2.108622696332832724e+00
0.000000000000000000e+00 2.970240000000000076e-04 2.880214595923439980e+00
0.000000000000000000e+00 6.281600000000000031e-04 1.321874610601913691e+00
9.374999999999999653e-03 1.887299999999999959e-03 4.628010958569887201e+00
3.125000000000000173e-03 4.372420000000000126e-03 7.936388217210454954e-01
0.000000000000000000e+00 3.737599999999999993e-04 4.696126375059396452e+00
2.187499999999999861e-02 9.609449999999999936e-02 3.116161705194639975e+00
9.374999999999999653e-03 1.966590000000000005e-02 4.944435017504404506e+00
0.000000000000000000e+00 1.391679999999999957e-03 1.061252981672446527e+00
3.125000000000000173e-03 3.668670000000000177e-03 4.186784721457198488e-01
0.000000000000000000e+00 1.010180000000000062e-03 2.417228395564494647e+00
0.000000000000000000e+00 4.354600000000000137e-03 2.792120021980989186e+00
6.250000000000000347e-03 1.798139999999999938e-03 2.315851465367877005e+00
2.187499999999999861e-02 2.250180000000000062e-03 4.596444616246132320e+00
0.000000000000000000e+00 4.236099999999999913e-04 2.609001312001355988e+00
0.000000000000000000e+00 3.371520000000000137e-04 3.197496266741372661e+00
3.125000000000000173e-03 1.470750000000000009e-02 3.836858885456432056e+00
3.125000000000000173e-03 9.481359999999999788e-02 3.277829584790705297e+00
0.000000000000000000e+00 9.303489999999999330e-03 1.474221697917902363e+00
1.874999999999999931e-02 6.280320000000000347e-02 1.679418411911611786e+00
0.000000000000000000e+00 3.377660000000000211e-03 2.173101043427537071e+00
1.093750000000000000e-01 9.185640000000000471e-02 2.466489661641341202e-01
3.125000000000000173e-03 4.486460000000000274e-03 4.709228065074836600e+00
0.000000000000000000e+00 1.546819999999999966e-03 2.137996611485908804e+00
0.000000000000000000e+00 1.097340000000000034e-03 3.292749599810278482e+00
0.000000000000000000e+00 9.748479999999999472e-04 4.659951171437143325e-01
0.000000000000000000e+00 2.221439999999999927e-04 1.181250219201492868e+00
0.000000000000000000e+00 1.940700000000000064e-02 1.691428237859788908e+00
0.000000000000000000e+00 1.194399999999999976e-02 3.306030837166535008e+00
0.000000000000000000e+00 1.039269999999999907e-03 3.555510934201260298e+00
0.000000000000000000e+00 9.852800000000000533e-04 4.491989898981518792e-01
0.000000000000000000e+00 1.073469999999999980e-03 3.389217384427544388e+00
0.000000000000000000e+00 3.483919999999999942e-04 3.120340553775028170e+00
0.000000000000000000e+00 6.299509999999999832e-02 4.368023060680725322e+00
0.000000000000000000e+00 1.054140000000000068e-03 1.133199207558812649e+00
0.000000000000000000e+00 1.043899999999999949e-03 4.874139334448808647e+00
3.125000000000000173e-03 1.531779999999999947e-03 3.980890095994976674e-01
0.000000000000000000e+00 1.090880000000000018e-03 1.789190317460240376e+00
0.000000000000000000e+00 4.848510000000000320e-03 4.970322319583822868e+00
2.187499999999999861e-02 2.169019999999999802e-03 1.690427276350480845e+00
6.250000000000000347e-03 1.883389999999999977e-03 4.441897994147351980e+00
6.250000000000000347e-03 4.169220000000000391e-03 2.474307270820689908e+00
0.000000000000000000e+00 1.093060000000000082e-03 4.095409790937369010e+00
0.000000000000000000e+00 8.665850000000000115e-04 1.262673306861332723e+00
0.000000000000000000e+00 1.162880000000000033e-03 2.383255734845720397e+00
3.125000000000000000e-02 5.188860000000000000e-03 3.702494529798971978e-01
0.000000000000000000e+00 9.391360000000000289e-04 4.008727088709870934e+00
0.000000000000000000e+00 1.255870000000000077e-03 8.938219223752746911e-01
2.187499999999999861e-02 2.782660000000000168e-03 1.675603122058302308e+00
0.000000000000000000e+00 4.508800000000000199e-04 3.532332073013547014e+00
0.000000000000000000e+00 1.819070000000000105e-03 1.964113002466107538e+00
0.000000000000000000e+00 3.927100000000000209e-03 1.856923140942927652e+00
0.000000000000000000e+00 4.089890000000000105e-04 3.738759257909072709e+00
1.250000000000000069e-02 1.426879999999999945e-03 3.545964350350076622e+00
0.000000000000000000e+00 7.939839999999999658e-04 2.024759460588952287e+00
0.000000000000000000e+00 5.572419999999999804e-03 4.488590670731734456e+00
