1.874999999999999931e-02 2.879360000000000079e-03 4.433956637305124460e+00
2.500000000000000139e-02 2.542400000000000215e-03 3.131981936793640564e+00
2.500000000000000139e-02 3.746240000000000073e-03 1.845866088633715263e+00
0.000000000000000000e+00 1.065020000000000073e-03 2.599801939963851893e+00
0.000000000000000000e+00 3.352130000000000040e-03 3.341703350594977806e+00
0.000000000000000000e+00 3.600629999999999846e-04 3.742308239610349752e+00
0.000000000000000000e+00 3.925760000000000035e-04 1.229227037979390147e+00
0.000000000000000000e+00 1.235070000000000005e-03 2.784946489187701157e+00
0.000000000000000000e+00 4.060399999999999600e-03 2.074275104873463116e-01
0.000000000000000000e+00 9.580930000000000306e-04 3.666114364622021338e+00
0.000000000000000000e+00 1.521299999999999953e-03 7.280391597957952543e-01
0.000000000000000000e+00 1.029250000000000000e-03 5.669015014489975357e-01
2.500000000000000139e-02 2.821569999999999807e-03 1.063092156394331411e+00
9.374999999999999653e-03 1.556609999999999938e-03 2.619962120506008629e-01
0.000000000000000000e+00 3.557020000000000039e-04 4.196361544823913547e+00
0.000000000000000000e+00 3.908420000000000232e-04 3.306656705181595157e+00
6.250000000000000347e-03 9.805750000000000577e-02 2.143602732905767638e+00
0.000000000000000000e+00 2.730240000000000097e-03 4.582569714741289602e+00
9.374999999999999653e-03 6.848319999999999755e-03 2.895943892285163246e-01
0.000000000000000000e+00 2.404990000000000079e-03 1.972104383212574419e+00
0.000000000000000000e+00 1.365059999999999971e-03 2.602261926305489581e+00
6.250000000000000347e-03 1.638399999999999926e-02 1.680002617726744640e-01
0.000000000000000000e+00 7.370880000000000010e-04 3.641343093810711640e+00
0.000000000000000000e+00 1.658879999999999947e-04 1.792142791296996718e+00
9.374999999999999653e-03 2.817730000000000061e-03 4.277689197325184267e+00
3.125000000000000173e-03 5.422030000000000426e-03 4.370355476264780492e+00
0.000000000000000000e+00 1.092819999999999989e-03 2.624201646400342369e+00
2.187499999999999861e-02 2.134459999999999916e-03 2.399351551235789248e+00
2.187499999999999861e-02 2.852420000000000042e-03 1.376766006678135090e+00
0.000000000000000000e+00 2.576699999999999911e-03 4.619964034768499594e+00
1.250000000000000069e-02 3.353469999999999888e-03 1.525163070132579124e+00
1.250000000000000069e-02 2.960260000000000148e-03 6.773990199618740160e-01
0.000000000000000000e+00 8.538239999999999892e-04 4.604070183265434935e+00
1.874999999999999931e-02 2.231040000000000106e-03 3.484910017165058882e+00
0.000000000000000000e+00 1.013060000000000089e-03 2.437967173920725816e+00
6.250000000000000347e-03 9.952260000000000273e-02 1.607285038636966368e+00
0.000000000000000000e+00 1.644159999999999925e-04 4.345153919907468243e+00
3.125000000000000173e-03 1.908930000000000089e-03 1.006842184748482527e+00
0.000000000000000000e+00 1.480830000000000037e-03 3.030654935113835435e+00
6.250000000000000347e-03 1.102850000000000054e-03 1.402470518897052543e+00
0.000000000000000000e+00 7.301910000000000431e-04 1.241090229359977926e+00
1.874999999999999931e-02 9.412030000000000049e-03 3.244579523128773957e+00
0.000000000000000000e+00 3.231359999999999962e-03 4.770997396381501332e+00
2.187499999999999861e-02 1.899899999999999940e-03 1.710109256994558624e+00
2.187499999999999861e-02 2.267260000000000109e-03 2.461092450740577142e+00
9.374999999999999653e-03 1.691009999999999952e-03 1.816970641255024610e+00
1.874999999999999931e-02 1.005370000000000014e-01 3.655515254949325943e+00
0.000000000000000000e+00 4.462709999999999941e-03 2.307310466581126818e+00
1.562500000000000000e-02 9.528319999999999845e-03 3.325926201963734119e+00
0.000000000000000000e+00 3.815679999999999896e-04 2.214653013860994779e+00
0.000000000000000000e+00 1.313590000000000070e-02 4.998489778840809805e+00
0.000000000000000000e+00 9.759829999999999894e-02 2.934808946612600167e+00
0.000000000000000000e+00 3.131840000000000318e-02 2.493289792348354794e+00
0.000000000000000000e+00 1.689729999999999965e-03 3.797973897975559066e+00
0.000000000000000000e+00 3.734189999999999732e-02 1.949455097569036122e+00
0.000000000000000000e+00 8.713949999999999604e-04 1.040396574588989154e+00
2.187499999999999861e-02 3.161180000000000240e-02 2.086327190465397940e-01
9.374999999999999653e-03 1.769280000000000028e-03 2.360312866303028834e+00
3.125000000000000173e-03 1.573149999999999896e-02 3.095876785391423081e+00
0.000000000000000000e+00 5.637230000000000235e-04 2.116791583821837186e+00
3.125000000000000173e-03 1.279170000000000047e-03 3.124399717917014652e-01
2.812500000000000069e-02 2.400699999999999969e-03 3.697219228578241257e+00
1.562500000000000000e-02 2.390139999999999799e-03 1.365805483246926411e+00
1.874999999999999931e-02 1.762110000000000065e-02 1.279650746932498029e-01
3.125000000000000173e-03 2.484099999999999937e-03 3.798864124466088565e+00
0.000000000000000000e+00 7.780480000000000425e-04 1.469147297970174737e-01
0.000000000000000000e+00 5.724799999999999941e-04 2.827561825213565250e+00
1.562500000000000000e-02 2.551919999999999883e-02 3.422364415403643001e+00
2.500000000000000139e-02 1.023420000000000059e-02 3.077475530508299695e+00
0.000000000000000000e+00 1.082819999999999963e-03 4.753789117102539485e+00
0.000000000000000000e+00 2.052319999999999839e-03 1.024579885520672917e+00
0.000000000000000000e+00 5.152509999999999903e-03 4.349552702413645555e+00
0.000000000000000000e+00 2.286470000000000150e-05 1.991904165606819266e+00
0.000000000000000000e+00 7.663999999999999806e-04 1.940941986710876810e+00
0.000000000000000000e+00 1.564030000000000108e-03 2.449300530774245477e-02
0.000000000000000000e+00 2.626299999999999815e-03 4.247190325397248500e+00
1.562500000000000000e-02 1.813699999999999904e-03 2.013090461989047952e+00
9.374999999999999653e-03 2.376130000000000169e-03 4.232627566287477938e-01
3.125000000000000173e-03 1.500860000000000041e-02 1.912774845833557613e+00
0.000000000000000000e+00 3.579519999999999772e-04 1.113757792447025441e+00
0.000000000000000000e+00 1.115579999999999914e-03 1.561317189595104349e+00
3.125000000000000173e-03 1.495739999999999960e-03 2.506391928666931168e+00
0.000000000000000000e+00 2.170120000000000154e-05 2.634788834558098980e+00
2.500000000000000139e-02 2.687099999999999992e-03 2.843299149206047094e+00
3.125000000000000173e-03 3.169219999999999936e-03 4.501417630881141996e+00
1.874999999999999931e-02 1.055470000000000019e-02 2.414267842186305746e+00
0.000000000000000000e+00 5.936640000000000406e-04 1.710446972995538495e+00
3.125000000000000173e-03 9.740970000000000184e-02 3.240765999969372313e+00
0.000000000000000000e+00 9.208960000000000409e-04 2.693662881549351962e+00
0.000000000000000000e+00 3.144959999999999921e-04 1.571048211564246566e+00
4.687500000000000000e-02 9.434339999999999393e-02 8.960029758411797163e-01
6.250000000000000347e-03 2.112450000000000092e-03 8.315914414839409297e-01
0.000000000000000000e+00 2.293889999999999818e-03 1.352538328990376959e-01
0.000000000000000000e+00 2.645380000000000127e-03 2.594275002796447849e-01
6.250000000000000347e-03 1.096189999999999925e-03 3.682413581892278298e+00
0.000000000000000000e+00 1.778550000000000107e-05 4.991028618824459251e+00
0.000000000000000000e+00 1.792380000000000102e-03 8.122031983693994706e-01
0.000000000000000000e+00 5.803520000000000163e-04 2.991534558531605992e+00
0.000000000000000000e+00 1.580030000000000063e-03 4.682068766822162331e+00
0.000000000000000000e+00 4.208519999999999883e-04 1.004638669588892030e-01
3.125000000000000173e-03 1.405180000000000014e-03 4.899801961656705451e+00
0.000000000000000000e+00 5.823830000000000109e-04 1.600849425421906336e+00
0.000000000000000000e+00 1.133890000000000028e-03 2.510431905708602862e+00
0.000000000000000000e+00 3.221439999999999894e-03 2.643109175700289804e+00
2.187499999999999861e-02 2.448000000000000089e-03 4.756961632758375025e+00
9.374999999999999653e-03 1.460799999999999946e-03 3.660389872486198737e+00
1.874999999999999931e-02 9.178669999999999884e-02 9.196381839322620433e-01
2.500000000000000139e-02 5.486780000000000129e-03 1.489107242745842274e+00
0.000000000000000000e+00 9.749119999999999791e-04 4.965896032137447236e+00
0.000000000000000000e+00 3.869440000000000141e-04 2.661186802509621252e+00
1.874999999999999931e-02 1.709570000000000100e-03 3.044617555305406675e-01
3.125000000000000173e-03 1.617000000000000035e-02 8.572539636785408979e-01
9.374999999999999653e-03 1.618300000000000034e-03 3.305389135046996163e+00
3.125000000000000173e-03 9.242340000000000147e-04 2.158258715873451195e-01
0.000000000000000000e+00 8.644059999999999635e-04 1.169127122351826253e+00
2.500000000000000139e-02 9.232219999999999316e-02 3.394606833180450867e+00
2.187499999999999861e-02 2.450749999999999804e-03 3.729711135512970177e+00
3.125000000000000173e-03 2.433410000000000000e-03 2.834322323886995232e-01
1.562500000000000000e-02 1.811839999999999892e-03 2.546449946900353201e+00
0.000000000000000000e+00 1.753139999999999956e-05 1.965039823237354488e+00
6.250000000000000347e-03 1.055169999999999997e-01 2.920117810147546678e+00
2.812500000000000069e-02 2.471679999999999971e-03 4.504441635511809316e+00
0.000000000000000000e+00 1.886270000000000004e-03 2.864059529906454848e+00
0.000000000000000000e+00 2.296320000000000132e-03 1.352105843202450197e-01
0.000000000000000000e+00 2.291540000000000086e-05 2.993005816429362032e+00
2.500000000000000139e-02 2.093890000000000161e-03 4.302965001258868050e+00
1.562500000000000000e-02 1.073270000000000057e-01 1.622893192978886567e+00
0.000000000000000000e+00 8.560640000000000220e-04 3.749143092933486354e+00
4.374999999999999722e-02 9.096010000000000206e-02 2.933914736479661389e+00
0.000000000000000000e+00 1.150589999999999946e-03 2.119729116107333944e+00
1.562500000000000000e-02 2.259900000000000016e-03 3.572607258339790981e+00
0.000000000000000000e+00 1.105340000000000012e-03 3.344334138067543982e+00
0.000000000000000000e+00 5.686610000000000362e-04 3.780839717534439259e+00
1.874999999999999931e-02 2.223300000000000103e-03 1.619432200531769173e+00
2.812500000000000069e-02 3.993659999999999571e-03 3.751045712161075407e+00
0.000000000000000000e+00 1.007419999999999973e-03 2.398014059905789086e+00
2.812500000000000069e-02 2.344960000000000100e-03 3.124345764082161025e+00
3.125000000000000000e-02 9.787619999999999654e-02 2.737725974793203676e+00
0.000000000000000000e+00 5.912320000000000205e-04 4.139108007934055422e+00
3.125000000000000173e-03 2.174779999999999856e-03 1.620036765697255854e+00
0.000000000000000000e+00 3.964799999999999987e-04 2.636606863195951167e+00
0.000000000000000000e+00 1.494590000000000068e-03 2.543858877864741519e+00
0.000000000000000000e+00 1.011390000000000032e-03 3.637040080402813569e+00
3.125000000000000173e-03 1.229700000000000020e-03 4.607565272126064926e+00
6.250000000000000347e-03 9.082460000000000533e-02 3.477468589853178749e+00
1.562500000000000000e-02 2.250499999999999896e-03 3.755680001251132660e-01
0.000000000000000000e+00 1.688830000000000105e-03 2.536214023811882434e+00
0.000000000000000000e+00 3.655679999999999802e-04 2.541306586337981788e+00
1.250000000000000069e-02 5.140160000000000388e-03 2.714809540521151421e-01
9.374999999999999653e-03 1.988360000000000127e-02 4.944095348036673165e+00
0.000000000000000000e+00 1.431940000000000036e-03 3.811071049416469680e+00
0.000000000000000000e+00 9.728000000000000102e-04 2.706651244925089905e+00
0.000000000000000000e+00 2.264299999999999988e-05 2.468612621687473752e+00
0.000000000000000000e+00 1.646720000000000117e-04 1.110784846134108550e+00
0.000000000000000000e+00 1.901310000000000153e-02 7.898962401735887262e-01
0.000000000000000000e+00 2.451329999999999829e-03 3.888851304020563227e+00
0.000000000000000000e+00 1.403259999999999924e-03 3.471845585161830172e+00
0.000000000000000000e+00 1.009520000000000079e-03 9.291577262949585192e-01
0.000000000000000000e+00 1.942740000000000092e-02 2.987970281359241476e+00
0.000000000000000000e+00 6.445199999999999887e-04 4.250249491187066297e+00
3.125000000000000173e-03 1.018649999999999937e-02 3.109784812143705945e+00
2.812500000000000069e-02 6.583359999999999906e-03 9.589421503344430775e-01
0.000000000000000000e+00 3.697150000000000176e-03 6.884826945783023566e-01
0.000000000000000000e+00 1.339899999999999989e-03 4.631635087620739055e-01
0.000000000000000000e+00 9.334400000000000076e-04 4.920014171419154536e+00
2.500000000000000139e-02 2.295549999999999934e-03 3.370646674180675095e+00
1.874999999999999931e-02 1.907070000000000076e-03 1.730852843603247759e+00
0.000000000000000000e+00 4.258539999999999786e-04 8.799746454279305796e-01
1.250000000000000069e-02 1.764219999999999938e-03 6.839741978940111489e-01
0.000000000000000000e+00 3.252420000000000007e-04 4.472743193840952536e+00
0.000000000000000000e+00 1.055109999999999945e-03 4.110739304915361991e+00
6.562500000000000278e-02 9.478440000000000476e-02 3.531197031813097631e+00
0.000000000000000000e+00 8.667129999999999669e-04 3.741998557080777665e+00
0.000000000000000000e+00 1.783680000000000107e-04 3.828816689037503274e+00
0.000000000000000000e+00 3.425339999999999809e-03 4.741332761228257198e+00
2.500000000000000139e-02 3.757180000000000155e-03 3.494609463450999876e+00
1.562500000000000000e-02 7.362940000000000110e-03 4.915290984044905720e+00
0.000000000000000000e+00 0.000000000000000000e+00 1.475188185944023012e+00
2.500000000000000139e-02 3.810819999999999919e-03 3.951140955883555073e+00
0.000000000000000000e+00 7.056960000000000142e-04 3.517059552233256170e+00
2.500000000000000139e-02 1.971070000000000114e-03 3.742420377214137783e+00
0.000000000000000000e+00 1.467900000000000064e-03 2.391788772675122132e+00
1.874999999999999931e-02 3.421500000000000062e-03 4.440485380720168074e+00
0.000000000000000000e+00 0.000000000000000000e+00 4.760206586648984661e+00
0.000000000000000000e+00 7.254460000000000335e-04 4.699937015157302334e+00
3.125000000000000173e-03 6.441279999999999749e-03 3.692894564014720160e+00
0.000000000000000000e+00 3.147580000000000083e-03 3.969054255335685788e+00
1.874999999999999931e-02 3.606980000000000082e-03 3.459104372818990747e+00
2.187499999999999861e-02 2.905150000000000007e-03 3.406114472404629279e+00
6.250000000000000347e-03 3.302339999999999963e-03 3.502659102736610519e-01
0.000000000000000000e+00 4.299579999999999787e-04 2.649210550657064012e+00
0.000000000000000000e+00 9.622399999999999487e-04 5.459797296725221738e-01
1.874999999999999931e-02 1.892419999999999910e-03 2.560047773788849401e+00
0.000000000000000000e+00 1.368450000000000005e-03 1.255654720800156277e+00
0.000000000000000000e+00 5.915529999999999790e-04 5.661374178681599645e-01
1.562500000000000000e-02 9.100740000000000218e-02 3.295958547094382851e+00
2.500000000000000139e-02 9.753599999999999857e-04 3.813943158492196339e+00
2.500000000000000139e-02 9.165120000000000211e-02 5.122764941904967007e-01
2.812500000000000069e-02 9.100429999999999631e-02 1.500346939464223706e+00
0.000000000000000000e+00 5.657220000000000130e-03 1.014616976715561503e+00
0.000000000000000000e+00 3.746560000000000125e-04 2.117154115338331977e+00
0.000000000000000000e+00 2.177469999999999926e-03 3.649637812404380011e+00
3.125000000000000173e-03 1.037179999999999960e-03 5.213513848769441017e-01
0.000000000000000000e+00 1.506879999999999938e-03 3.725226761057218283e+00
0.000000000000000000e+00 3.403779999999999913e-03 1.288434725912978696e+00
0.000000000000000000e+00 7.135190000000000239e-04 4.676115578335475753e+00
5.312499999999999861e-02 9.131209999999999327e-02 2.333607234042561984e+00
0.000000000000000000e+00 4.895939999999999884e-04 4.238776137426236268e+00
0.000000000000000000e+00 1.618939999999999919e-03 1.091778613787646179e+00
0.000000000000000000e+00 2.674820000000000062e-03 2.883790468415657227e+00
0.000000000000000000e+00 1.757309999999999992e-03 5.490313710063210451e-01
0.000000000000000000e+00 3.782090000000000105e-04 4.720187058494859755e+00
2.812500000000000069e-02 2.860929999999999810e-03 1.582608326641268714e+00
0.000000000000000000e+00 3.185279999999999969e-04 4.905654123894286123e+00
2.500000000000000139e-02 2.689539999999999813e-03 1.212053440833266826e+00
1.562500000000000000e-02 1.980159999999999906e-03 9.555824154387793090e-01
0.000000000000000000e+00 8.792960000000000055e-04 6.733649419202386577e-01
0.000000000000000000e+00 4.128639999999999827e-04 3.421584088789876077e+00
0.000000000000000000e+00 1.007169999999999940e-03 1.140604324654061585e+00
0.000000000000000000e+00 2.578749999999999879e-03 4.711628796467701719e+00
0.000000000000000000e+00 3.148220000000000185e-03 1.294963506050906155e+00
0.000000000000000000e+00 1.776119999999999861e-05 2.779892624763849795e+00
0.000000000000000000e+00 2.932480000000000221e-04 4.997488687395097884e+00
1.874999999999999931e-02 2.136830000000000153e-03 4.703527279534038819e+00
1.874999999999999931e-02 2.197629999999999896e-03 6.425246298662423694e-02
0.000000000000000000e+00 3.658239999999999994e-04 3.296702144387785971e+00
0.000000000000000000e+00 1.584319999999999956e-03 2.198404601809272663e+00
1.562500000000000000e-02 2.340159999999999983e-03 2.567799768574198893e+00
6.250000000000000347e-03 2.974909999999999881e-03 3.276874020072597649e+00
0.000000000000000000e+00 7.636770000000000190e-03 4.317154691757977503e+00
0.000000000000000000e+00 1.942400000000000105e-04 5.680447191811710539e-01
1.874999999999999931e-02 9.448840000000000017e-02 3.882204819677883112e+00
0.000000000000000000e+00 1.031809999999999975e-03 2.806770265577952728e+00
1.562500000000000000e-02 1.221379999999999992e-03 3.829474405622485200e+00
0.000000000000000000e+00 3.171709999999999894e-03 3.774960117002208460e+00
3.125000000000000173e-03 7.881159999999999902e-03 1.258043623093724861e+00
0.000000000000000000e+00 1.921379999999999963e-02 4.287656628435793316e+00
1.874999999999999931e-02 5.331970000000000112e-03 3.077535643947880040e+00
1.562500000000000000e-02 9.155989999999999962e-02 2.435343893537181170e+00
1.250000000000000069e-02 1.436930000000000108e-03 2.469958604389479895e+00
1.562500000000000000e-02 2.024769999999999955e-03 2.925635023260344081e+00
0.000000000000000000e+00 1.152699999999999992e-03 8.660604391017012738e-02
2.500000000000000139e-02 2.726530000000000013e-03 3.294051510211204015e+00
3.125000000000000173e-03 3.623040000000000115e-03 2.954951384252484381e+00
0.000000000000000000e+00 1.067779999999999944e-03 3.336209768583540569e+00
2.187499999999999861e-02 2.443009999999999800e-03 4.602281236795823460e+00
2.812500000000000069e-02 2.491010000000000099e-03 4.479968325723510114e-01
0.000000000000000000e+00 1.340290000000000058e-03 3.203605190711375617e+00
2.500000000000000139e-02 1.952959999999999896e-03 1.182314162889434028e+00
0.000000000000000000e+00 8.616129999999999622e-03 1.898886618423584860e+00
0.000000000000000000e+00 5.440450000000000320e-03 1.989395116996377944e+00
2.812500000000000069e-02 3.673599999999999956e-03 3.252049119788769094e+00
3.125000000000000173e-03 1.707839999999999966e-03 4.686232954562888686e+00
2.812500000000000069e-02 2.637700000000000201e-03 9.249990628928345116e-01
0.000000000000000000e+00 9.188160000000000771e-03 3.382617469476586258e+00
0.000000000000000000e+00 1.073790000000000031e-03 1.144084330697515028e+00
1.562500000000000000e-02 1.922429999999999929e-03 4.276492197929446348e+00
3.125000000000000173e-03 3.916799999999999796e-03 2.994502200857187990e+00
0.000000000000000000e+00 8.385919999999999833e-04 3.472610238711392849e+00
2.812500000000000069e-02 1.931329999999999983e-03 2.750975905534952526e-01
0.000000000000000000e+00 3.884800000000000210e-04 2.428335766764975645e+00
0.000000000000000000e+00 4.154109999999999921e-03 1.467000630720997734e+00
2.187499999999999861e-02 3.075259999999999799e-03 4.720207118087914822e+00
0.000000000000000000e+00 7.836160000000000000e-04 4.301441382962099880e+00
0.000000000000000000e+00 1.405439999999999988e-03 3.041503265557088387e+00
1.562500000000000000e-02 2.267900000000000211e-03 4.324817046316811187e+00
0.000000000000000000e+00 1.489150000000000066e-03 1.250649024608708082e+00
0.000000000000000000e+00 1.920000000000000049e-04 2.796962527754880856e+00
0.000000000000000000e+00 1.405439999999999988e-03 1.778125193595623710e+00
0.000000000000000000e+00 1.347649999999999933e-03 1.374733035030493156e+00
1.562500000000000000e-02 2.891969999999999784e-03 1.691533400050497349e+00
0.000000000000000000e+00 1.247810000000000022e-03 1.461667178120356070e+00
2.500000000000000139e-02 2.172739999999999828e-03 2.943900844922459736e+00
0.000000000000000000e+00 6.635010000000000430e-04 2.451146023464189305e+00
0.000000000000000000e+00 2.288900000000000057e-05 2.402264080191621964e+00
0.000000000000000000e+00 4.198399999999999918e-04 1.483179602125681562e+00
0.000000000000000000e+00 3.482369999999999823e-03 1.619968730720785510e+00
6.250000000000000347e-03 1.067580000000000057e-01 4.221835010462965165e+00
0.000000000000000000e+00 2.278309999999999876e-05 2.877017138512388161e+00
0.000000000000000000e+00 1.029119999999999905e-03 4.077034841817336108e+00
0.000000000000000000e+00 1.095099999999999893e-03 4.361230806409798433e+00
0.000000000000000000e+00 9.223039999999999841e-04 1.937725521115441385e+00
0.000000000000000000e+00 2.668670000000000157e-03 2.377249418577994433e+00
6.250000000000000347e-03 5.081979999999999831e-03 3.216507004160430228e+00
0.000000000000000000e+00 4.406909999999999994e-03 4.751939518313919919e+00
1.562500000000000000e-02 2.341119999999999920e-03 3.556371269147160064e+00
0.000000000000000000e+00 1.146239999999999976e-03 3.092638812116541569e+00
6.250000000000000347e-03 1.471169999999999943e-03 5.398243446786737954e-01
0.000000000000000000e+00 4.382429999999999659e-03 3.182159087838880129e+00
1.874999999999999931e-02 9.226620000000000654e-02 3.716936280333174025e+00
3.125000000000000173e-03 1.055539999999999951e-01 1.482355721951324590e+00
0.000000000000000000e+00 9.607220000000000083e-04 4.585464087710954040e+00
0.000000000000000000e+00 3.020289999999999911e-04 2.687318844460451217e-01
0.000000000000000000e+00 7.241640000000000143e-04 2.622301844284391503e-01
0.000000000000000000e+00 6.818559999999999986e-04 2.191834110641360134e+00
1.874999999999999931e-02 1.005179999999999962e-02 2.872774060594154300e+00
0.000000000000000000e+00 2.232959999999999980e-03 1.511114749174263805e-01
0.000000000000000000e+00 4.398970000000000202e-04 3.005691964118473170e+00
1.874999999999999931e-02 7.038739999999999927e-03 2.534378248492789254e+00
0.000000000000000000e+00 2.101120000000000103e-04 2.772835844966070162e+00
0.000000000000000000e+00 1.603009999999999982e-03 1.412632024590485980e+00
1.874999999999999931e-02 9.444929999999999992e-02 1.791631440210411652e+00
0.000000000000000000e+00 1.126849999999999987e-03 3.685065339690221098e+00
3.125000000000000173e-03 1.583809999999999949e-03 2.646918877312069540e+00
6.250000000000000347e-03 2.888959999999999879e-03 4.329725106859706685e+00
0.000000000000000000e+00 8.158080000000000062e-04 1.214165296442126785e+00
1.874999999999999931e-02 1.574400000000000105e-03 1.287500083902143322e+00
6.250000000000000347e-03 9.651350000000000207e-02 2.314593154787028428e+00
3.125000000000000173e-03 6.532430000000000181e-02 2.680506450977031108e+00
2.812500000000000069e-02 2.611710000000000160e-03 2.421289385875902145e-01
0.000000000000000000e+00 4.711679999999999991e-04 3.233243669571189027e+00
2.187499999999999861e-02 1.878209999999999949e-03 4.281149788069687823e+00
2.500000000000000139e-02 2.237760000000000096e-03 2.380551431699317710e+00
0.000000000000000000e+00 1.616320000000000083e-03 7.306750360068114958e-02
0.000000000000000000e+00 1.089279999999999979e-03 2.826230165233345470e-01
0.000000000000000000e+00 1.968699999999999877e-03 1.161087991227455873e+00
0.000000000000000000e+00 5.075200000000000197e-04 1.739894058451746384e-01
2.500000000000000139e-02 3.011139999999999824e-03 4.947173306572870466e+00
0.000000000000000000e+00 3.015739999999999827e-03 1.147208548322594668e+00
3.125000000000000173e-03 2.859909999999999796e-03 6.269636724674965134e-01
0.000000000000000000e+00 2.019969999999999839e-03 6.649580337040661426e-02
8.125000000000000278e-02 9.464279999999999915e-02 2.228950536367051427e+00
0.000000000000000000e+00 5.250559999999999819e-04 4.036147327100482407e+00
0.000000000000000000e+00 5.768960000000000277e-04 4.980475650091079842e+00
3.125000000000000173e-03 2.362879999999999928e-03 1.972386395043110419e+00
0.000000000000000000e+00 7.291650000000000431e-04 1.728079672839355485e-01
0.000000000000000000e+00 8.978560000000000447e-04 3.423981614931288942e+00
0.000000000000000000e+00 5.065889999999999976e-04 4.322092128751434892e+00
0.000000000000000000e+00 1.059779999999999967e-03 8.188111475435144726e-01
0.000000000000000000e+00 3.593599999999999746e-04 1.333432173737376658e+00
0.000000000000000000e+00 7.581439999999999837e-04 4.528414662225648257e+00
1.250000000000000069e-02 1.396029999999999927e-03 4.555748401647099932e+00
0.000000000000000000e+00 1.180220000000000054e-03 3.873922672132104950e+00
3.125000000000000173e-03 1.014649999999999927e-02 3.205014768310476825e-01
0.000000000000000000e+00 1.814209999999999911e-03 2.729452834415804219e+00
2.812500000000000069e-02 2.259390000000000009e-03 4.690277357600024288e+00
0.000000000000000000e+00 5.141120000000000542e-04 1.549117641689364167e+00
1.562500000000000000e-02 1.936379999999999916e-03 4.706895900529589616e-01
0.000000000000000000e+00 5.824639999999999852e-04 3.031230651622883077e+00
0.000000000000000000e+00 9.999659999999999192e-04 2.844322707126462735e+00
9.687500000000000278e-02 5.174669999999999964e-02 4.068325454082112991e+00
2.187499999999999861e-02 2.524349999999999858e-03 2.682191954600833483e+00
6.250000000000000347e-03 9.800380000000000202e-02 4.580665015227383563e+00
0.000000000000000000e+00 0.000000000000000000e+00 3.983857041426831280e+00
5.625000000000000139e-02 9.086279999999999357e-02 4.320564951917593710e-01
3.125000000000000173e-03 9.582010000000000527e-02 2.849009164310216669e+00
1.250000000000000069e-02 1.259329999999999911e-03 4.733311874498728145e+00
0.000000000000000000e+00 1.326719999999999928e-04 3.733840965349710217e+00
0.000000000000000000e+00 4.100789999999999882e-04 4.491858831723608780e+00
0.000000000000000000e+00 6.385279999999999689e-04 4.939825024749289195e-01
0.000000000000000000e+00 7.373939999999999662e-02 6.957970545507219384e-01
3.125000000000000173e-03 2.111940000000000085e-03 3.595532079112761625e+00
0.000000000000000000e+00 1.090299999999999993e-03 4.349799166744701573e+00
0.000000000000000000e+00 1.635200000000000065e-04 1.240334442635679491e+00
2.500000000000000139e-02 2.437250000000000180e-03 7.508315298679052452e-01
0.000000000000000000e+00 1.089860000000000004e-03 4.158706482625022183e+00
9.687500000000000278e-02 9.157980000000000287e-02 1.547783456335007912e+00
3.125000000000000173e-03 1.939180000000000070e-02 4.895989964606420664e+00
3.125000000000000173e-03 4.915199999999999778e-03 1.474873242201976131e+00
0.000000000000000000e+00 3.123530000000000230e-04 1.626922152103673191e+00
1.874999999999999931e-02 1.068469999999999975e-01 3.757322722233674028e+00
0.000000000000000000e+00 2.270710000000000152e-05 1.363485902836289565e+00
0.000000000000000000e+00 4.879269999999999788e-04 1.596039938272511005e+00
0.000000000000000000e+00 3.769269999999999912e-04 4.739193714616430242e+00
2.500000000000000139e-02 2.687099999999999992e-03 4.475667390186941041e+00
9.374999999999999653e-03 9.211199999999999943e-02 2.318049671856053928e-01
3.125000000000000173e-03 3.375799999999999981e-03 8.830656226795430275e-01
1.562500000000000000e-02 2.510590000000000044e-03 2.341693560291957965e+00
0.000000000000000000e+00 1.098749999999999900e-03 2.993913929146640562e+00
2.812500000000000069e-02 2.868480000000000075e-03 2.273439715924807647e-02
0.000000000000000000e+00 3.516099999999999868e-03 8.881148350734674457e-01
0.000000000000000000e+00 1.009020000000000012e-03 3.916377062835139089e+00
2.812500000000000069e-02 2.718209999999999984e-03 4.729818246843207064e+00
0.000000000000000000e+00 3.306690000000000150e-03 3.032019656479308267e+00
0.000000000000000000e+00 1.639550000000000035e-03 3.540972559467219227e+00
1.874999999999999931e-02 1.564990000000000044e-03 4.305883206020790333e+00
0.000000000000000000e+00 1.525819999999999997e-03 1.123259909140706281e+00
0.000000000000000000e+00 1.189600000000000032e-02 1.147596554584004558e+00
3.125000000000000173e-03 2.252290000000000108e-03 9.660390981269906252e-01
3.749999999999999861e-02 9.311189999999999745e-02 2.493142025128580741e+00
3.125000000000000173e-03 1.624259999999999983e-03 1.808599207071489579e+00
0.000000000000000000e+00 1.407419999999999938e-03 3.980758718472743318e+00
2.500000000000000139e-02 1.102979999999999933e-03 8.374892891963980901e-01
0.000000000000000000e+00 2.158849999999999918e-03 3.553617666932727737e+00
0.000000000000000000e+00 6.871680000000000453e-04 3.529877264367995426e+00
0.000000000000000000e+00 4.123880000000000232e-04 1.190968922629027205e+00
2.500000000000000139e-02 2.998980000000000048e-03 3.965793491189357756e+00
6.250000000000000347e-03 2.162110000000000073e-03 2.332257702845757397e+00
0.000000000000000000e+00 2.684290000000000200e-03 2.364760246314299152e+00
6.250000000000000347e-03 3.968939999999999968e-02 6.089921175370005546e-01
9.374999999999999653e-03 2.206140000000000097e-03 1.665620771078635265e+00
9.374999999999999653e-03 9.593949999999999700e-02 3.399727432843214991e+00
2.500000000000000139e-02 2.015680000000000163e-03 1.779175581588086086e+00
1.562500000000000000e-02 3.482820000000000187e-03 3.554231048019889982e+00
3.125000000000000173e-03 9.173660000000000148e-02 4.829891520303758234e+00
9.374999999999999653e-03 3.471479999999999705e-02 3.601210662785447436e+00
1.562500000000000000e-02 1.006570000000000034e-02 4.078985155565810317e+00
0.000000000000000000e+00 5.406270000000000346e-03 1.522485589968666231e+00
2.500000000000000139e-02 2.473980000000000189e-03 4.822144757650337343e-01
2.812500000000000069e-02 2.810239999999999874e-03 1.270249838241893636e+00
0.000000000000000000e+00 1.665859999999999910e-03 3.166642534461515002e+00
0.000000000000000000e+00 9.884799999999999143e-04 3.314107682069628025e-01
0.000000000000000000e+00 4.264579999999999586e-03 2.463733951907873809e+00
3.125000000000000000e-02 9.104220000000000368e-02 3.003280839719610462e+00
0.000000000000000000e+00 1.763779999999999949e-03 3.833316071423891191e+00
0.000000000000000000e+00 1.597569999999999980e-03 4.844485185746353118e+00
1.562500000000000000e-02 1.251970000000000036e-03 6.419901835868802031e-01
9.374999999999999653e-03 1.165429999999999938e-02 3.741209234305329367e+00
1.562500000000000000e-02 2.572290000000000080e-03 4.665982065843902404e+00
6.250000000000000347e-03 1.850819999999999983e-03 2.284040428379519039e-01
2.500000000000000139e-02 2.225729999999999983e-03 3.262734636952516087e+00
2.187499999999999861e-02 2.846589999999999971e-03 2.921159914984901018e+00
3.125000000000000173e-03 3.970239999999999880e-03 2.844204842727947380e+00
0.000000000000000000e+00 1.788929999999999991e-03 3.755567203334928106e+00
0.000000000000000000e+00 1.060739999999999903e-03 1.202678997538580319e+00
3.125000000000000173e-03 3.433470000000000098e-03 4.341292553529537024e+00
3.125000000000000173e-03 9.626790000000000347e-02 2.831550062365837839e+00
0.000000000000000000e+00 1.780099999999999955e-03 9.224007050991739343e-01
9.374999999999999653e-03 3.276030000000000088e-03 7.534634752443530870e-01
0.000000000000000000e+00 1.000060000000000098e-03 1.445413839361735953e+00
1.562500000000000000e-02 2.737729999999999851e-03 3.785738488565588256e+00
0.000000000000000000e+00 6.983229999999999993e-02 2.290439716518880786e+00
1.250000000000000069e-02 6.245219999999999938e-02 3.935579640031858784e+00
1.562500000000000000e-02 9.267970000000000375e-02 9.148013308892821716e-01
2.500000000000000139e-02 2.284480000000000191e-03 1.694029410385829992e+00
0.000000000000000000e+00 1.486080000000000083e-03 1.210825824291644759e+00
1.562500000000000000e-02 3.006140000000000027e-03 1.870049265340889999e+00
3.125000000000000000e-02 9.438050000000000606e-02 4.634559060833998601e+00
0.000000000000000000e+00 5.546620000000000369e-03 2.984714324695296295e+00
0.000000000000000000e+00 8.330879999999999492e-04 1.369529959681074605e+00
0.000000000000000000e+00 1.504780000000000006e-02 2.531686828869739170e-01
0.000000000000000000e+00 1.381059999999999927e-03 1.557654133081385339e+00
9.374999999999999653e-03 9.690419999999999590e-02 1.571818006895743247e+00
2.812500000000000069e-02 4.789299999999999807e-02 1.956973146876178626e+00
3.125000000000000173e-03 5.298200000000000305e-03 3.587329537954633718e+00
2.187499999999999861e-02 1.727170000000000094e-03 3.128466717363413530e+00
2.187499999999999861e-02 4.027260000000000388e-03 4.827743663724240797e+00
0.000000000000000000e+00 9.634790000000000498e-04 2.653786934581718437e+00
2.187499999999999861e-02 9.542459999999999831e-02 2.201016826211144028e-01
6.250000000000000347e-03 1.508739999999999951e-03 9.310872126611652311e-01
0.000000000000000000e+00 1.003259999999999959e-03 4.187404304475395023e-01
1.874999999999999931e-02 1.958019999999999986e-03 3.602626181039172870e+00
1.562500000000000000e-02 2.493759999999999814e-03 2.518701304039931532e+00
3.125000000000000173e-03 1.833089999999999893e-03 4.708906527105119366e+00
0.000000000000000000e+00 1.353660000000000019e-03 4.975026010355943384e+00
0.000000000000000000e+00 5.078700000000000011e-04 3.449404974573758054e+00
3.125000000000000173e-03 7.522179999999999839e-03 3.469814848485284209e+00
3.437500000000000278e-02 9.347959999999999603e-02 4.617687758526805908e+00
2.187499999999999861e-02 2.237820000000000174e-03 2.050114199426555484e+00
2.500000000000000139e-02 1.389570000000000041e-02 3.203548057992536613e+00
0.000000000000000000e+00 4.050559999999999924e-04 4.813997761138404385e+00
2.812500000000000069e-02 2.349889999999999878e-03 4.340821219866580982e+00
0.000000000000000000e+00 1.266619999999999985e-03 1.381158582423797077e+00
0.000000000000000000e+00 1.194430000000000014e-03 2.151028807150126010e+00
3.125000000000000173e-03 1.611229999999999954e-02 7.361204698427548099e-01
0.000000000000000000e+00 5.660029999999999922e-03 3.451190133785906777e+00
1.874999999999999931e-02 7.012970000000000315e-03 4.962332544769330944e+00
0.000000000000000000e+00 1.473920000000000091e-03 7.086074800256808581e-01
2.500000000000000139e-02 2.814459999999999965e-03 4.772005656062922263e+00
3.125000000000000173e-03 3.196860000000000153e-03 4.225317743744215093e+00
0.000000000000000000e+00 1.175990000000000021e-02 4.102290395020200542e+00
0.000000000000000000e+00 1.046019999999999936e-03 2.601656187803568887e+00
0.000000000000000000e+00 1.945090000000000013e-02 4.943894039089861359e+00
1.250000000000000069e-02 2.121679999999999955e-01 2.493544944479388459e+00
1.000000000000000056e-01 8.162110000000000198e-02 4.264386382225535677e+00
0.000000000000000000e+00 2.804290000000000081e-03 1.486939342026127875e+00
0.000000000000000000e+00 1.078530000000000070e-03 3.160623478935535413e+00
9.374999999999999653e-03 1.865789999999999983e-03 6.666150948742305404e-01
0.000000000000000000e+00 1.394620000000000061e-03 3.739141889065275670e+00
0.000000000000000000e+00 5.567330000000000109e-04 1.448203377996750696e+00
1.250000000000000069e-02 1.197120000000000085e-03 1.281841411532250730e+00
0.000000000000000000e+00 3.458910000000000261e-04 3.774072705796655214e+00
9.374999999999999653e-03 1.292440000000000082e-02 7.144619525066142618e-01
0.000000000000000000e+00 5.989119999999999470e-04 2.822990847304223117e+00
0.000000000000000000e+00 9.223039999999999841e-04 4.095160262831221587e+00
0.000000000000000000e+00 5.283580000000000394e-03 1.938286989107175229e+00
3.125000000000000000e-02 3.874040000000000122e-02 1.553141216975062022e+00
0.000000000000000000e+00 9.082880000000000424e-04 4.225589313198163666e-01
3.125000000000000173e-03 9.906270000000000353e-02 3.604987093223228189e+00
0.000000000000000000e+00 1.218689999999999921e-03 5.995154443035838332e-01
3.749999999999999861e-02 3.039299999999999988e-02 6.804635041155671082e-01
0.000000000000000000e+00 1.801019999999999965e-03 4.236506841774067667e+00
0.000000000000000000e+00 1.712639999999999920e-04 2.965682335360944055e+00
2.812500000000000069e-02 2.322499999999999912e-03 2.322555968556039296e-01
6.250000000000000347e-03 2.272129999999999810e-03 8.392661204068840863e-01
0.000000000000000000e+00 1.911440000000000014e-02 1.588900430029700939e+00
2.812500000000000069e-02 1.987899999999999910e-03 1.113135785634752351e+00
0.000000000000000000e+00 3.077760000000000023e-04 2.075852123766521284e+00
0.000000000000000000e+00 1.040190000000000082e-03 4.356053336842887092e+00
2.187499999999999861e-02 3.101440000000000013e-03 6.263405674049837835e-01
0.000000000000000000e+00 7.107609999999999666e-04 8.687622599411859436e-02
1.874999999999999931e-02 9.260690000000000588e-02 2.638902870847182225e+00
0.000000000000000000e+00 2.050689999999999978e-03 2.952875346611416596e-01
3.125000000000000173e-03 1.726239999999999979e-03 7.538457576480250832e-02
3.125000000000000173e-03 3.863999999999999813e-03 9.371193645676273443e-01
1.562500000000000000e-02 2.130500000000000015e-03 4.373521215606414714e+00
0.000000000000000000e+00 7.468000000000000463e-04 4.089024400408370674e+00
0.000000000000000000e+00 1.182270000000000022e-03 1.784811522610013634e-01
0.000000000000000000e+00 1.623039999999999965e-04 2.526404556513130117e+00
1.874999999999999931e-02 2.592060000000000197e-03 2.535676108677272111e+00
3.125000000000000173e-03 9.213419999999999943e-03 2.256432550351898492e+00
0.000000000000000000e+00 5.681279999999999924e-04 1.895791265989384300e+00
6.250000000000000347e-03 9.761250000000000482e-02 4.648073128660984432e-01
0.000000000000000000e+00 1.055859999999999958e-02 3.682894236279218525e+00
2.500000000000000139e-02 2.655419999999999916e-03 2.720989077852301818e+00
0.000000000000000000e+00 5.142179999999999885e-04 2.216118471671823187e+00
0.000000000000000000e+00 3.832420000000000271e-02 3.347298042545435059e+00
3.125000000000000173e-03 2.179389999999999800e-03 1.720699766618749127e+00
0.000000000000000000e+00 7.327559999999999889e-04 4.980116129244688272e-01
0.000000000000000000e+00 4.208640000000000146e-04 2.976382991584468840e+00
0.000000000000000000e+00 1.925320000000000156e-02 4.755617353096896593e+00
3.125000000000000173e-03 9.644669999999999632e-02 4.536927483960015550e+00
0.000000000000000000e+00 3.987199999999999772e-04 1.503940993275574733e+00
0.000000000000000000e+00 3.107519999999999900e-03 1.991363195432130917e+00
0.000000000000000000e+00 1.201379999999999939e-03 2.683691446467323161e+00
0.000000000000000000e+00 1.003779999999999907e-03 3.048117212035329260e+00
0.000000000000000000e+00 4.200830000000000232e-04 4.570752956095883945e+00
1.250000000000000069e-02 4.528150000000000230e-02 4.765020442342738249e+00
0.000000000000000000e+00 1.211009999999999994e-03 3.861603750727114370e+00
4.687500000000000000e-02 2.606349999999999986e-02 8.624290958865432621e-01
6.250000000000000347e-03 1.739330000000000086e-03 2.616477837618337965e+00
0.000000000000000000e+00 1.479419999999999954e-03 4.324088045264162794e+00
0.000000000000000000e+00 3.737200000000000201e-04 2.539059003843929574e+00
0.000000000000000000e+00 7.208930000000000112e-04 3.315026003936285104e+00
3.125000000000000173e-03 2.326209999999999996e-03 2.481826618571641996e-01
0.000000000000000000e+00 2.427780000000000042e-03 1.020053317923091951e-01
1.874999999999999931e-02 2.109179999999999996e-03 3.841153425254757892e+00
0.000000000000000000e+00 2.999039999999999801e-04 8.961921729574151563e-01
6.250000000000000347e-03 2.122999999999999887e-01 1.770162759051618906e+00
2.500000000000000139e-02 3.372990000000000189e-03 1.120632183141303528e+00
3.125000000000000173e-03 2.756929999999999884e-03 1.734158066400355303e+00
0.000000000000000000e+00 7.289729999999999474e-04 2.708957972763122335e+00
1.250000000000000069e-02 1.298610000000000042e-02 2.725506588107524220e+00
0.000000000000000000e+00 2.660739999999999980e-03 4.472739456281893400e-01
0.000000000000000000e+00 3.615810000000000118e-03 3.628314501370072165e+00
0.000000000000000000e+00 1.580159999999999996e-04 4.600799004257257963e+00
9.374999999999999653e-03 2.492540000000000120e-03 9.394525451614721412e-01
0.000000000000000000e+00 0.000000000000000000e+00 1.742692024560393849e-01
2.812500000000000069e-02 2.524929999999999883e-03 4.701239242752405012e+00
0.000000000000000000e+00 1.984640000000000026e-04 1.061307367161925086e+00
0.000000000000000000e+00 3.465409999999999931e-03 1.688643298172743945e+00
0.000000000000000000e+00 1.158140000000000037e-02 2.916027255485373004e+00
0.000000000000000000e+00 1.354240000000000044e-03 4.152870723824984900e+00
0.000000000000000000e+00 9.011200000000000460e-04 9.528857696521425558e-01
3.125000000000000173e-03 2.360060000000000196e-03 5.055025758108255829e-01
2.812500000000000069e-02 3.301500000000000181e-03 4.472738415441547488e+00
9.374999999999999653e-03 1.168330000000000063e-02 4.940238053417019159e+00
0.000000000000000000e+00 5.077420000000000457e-04 3.903838472262648907e+00
0.000000000000000000e+00 1.952500000000000069e-02 2.240769977923890544e+00
9.374999999999999653e-03 1.641019999999999979e-03 4.914802324865902960e+00
6.250000000000000347e-03 9.966909999999999659e-02 4.754611772434913064e+00
0.000000000000000000e+00 9.828479999999999248e-04 1.022515657537506062e+00
0.000000000000000000e+00 1.356989999999999976e-03 4.717852812712849619e+00
0.000000000000000000e+00 3.808640000000000181e-04 4.210412407881345409e+00
3.125000000000000173e-03 1.973120000000000082e-03 3.747424839938336305e+00
1.250000000000000069e-02 2.701630000000000004e-03 1.227664054415646522e+00
1.874999999999999931e-02 1.026370000000000060e-02 3.239275877489520727e+00
0.000000000000000000e+00 2.177280000000000133e-04 4.119959666894292383e+00
0.000000000000000000e+00 1.119870000000000023e-03 1.473191177904500382e+00
2.187499999999999861e-02 2.901439999999999922e-03 9.730615894695548995e-01
0.000000000000000000e+00 2.191219999999999800e-03 2.281123589335971591e+00
0.000000000000000000e+00 5.149879999999999692e-04 3.567194678238988503e-01
0.000000000000000000e+00 1.115330000000000097e-03 1.820142618002709156e+00
1.250000000000000069e-02 3.799229999999999795e-03 4.742262068878753567e+00
6.250000000000000347e-03 1.443779999999999977e-03 4.486683982343691923e+00
0.000000000000000000e+00 7.946239999999999597e-04 3.418375545984380537e+00
9.374999999999999653e-03 2.129219999999999811e-03 4.361437415979378507e+00
0.000000000000000000e+00 3.171199999999999995e-04 1.017757487267095140e+00
0.000000000000000000e+00 2.529990000000000190e-03 4.615708918385256432e+00
0.000000000000000000e+00 6.332799999999999541e-04 2.620232672155939913e+00
0.000000000000000000e+00 1.837930000000000119e-02 2.161402088873537686e+00
1.250000000000000069e-02 1.636480000000000053e-03 4.081853959381515295e+00
0.000000000000000000e+00 1.742529999999999947e-03 3.648210033884220937e+00
1.874999999999999931e-02 3.190670000000000311e-02 4.512390103155757615e+00
0.000000000000000000e+00 3.281599999999999968e-03 3.753770276491630309e+00
0.000000000000000000e+00 2.288450000000000033e-03 6.913957352639726883e-01
0.000000000000000000e+00 7.693720000000000463e-04 1.512877891830543664e+00
0.000000000000000000e+00 1.142980000000000038e-03 6.592726979356794414e-01
0.000000000000000000e+00 2.584640000000000028e-03 1.914016880243046836e-01
1.874999999999999931e-02 2.536769999999999824e-03 3.010648345390399161e+00
1.250000000000000069e-02 1.385280000000000018e-03 2.578021667061891620e-02
0.000000000000000000e+00 2.582339999999999809e-03 1.606926776847442673e+00
0.000000000000000000e+00 7.256380000000000208e-04 3.341341395385811985e+00
3.125000000000000173e-03 8.782720000000000370e-04 2.247227277166066628e+00
0.000000000000000000e+00 8.803840000000000060e-04 4.107819271265022998e-01
6.250000000000000347e-03 2.212800000000000010e-03 3.332670109860994323e+00
3.437500000000000278e-02 9.046269999999999312e-02 4.686626351972716265e+00
0.000000000000000000e+00 2.407939999999999907e-03 9.068487013036269362e-01
0.000000000000000000e+00 1.668669999999999919e-03 3.608016299918482162e+00
0.000000000000000000e+00 4.199550000000000136e-04 4.078653706612947794e+00
0.000000000000000000e+00 1.828999999999999937e-05 3.462354115757767303e+00
6.250000000000000347e-03 1.442879999999999900e-03 2.705753621541451270e+00
0.000000000000000000e+00 4.279700000000000106e-04 3.896870938077836577e+00
0.000000000000000000e+00 1.102209999999999952e-03 8.925477239732615420e-01
0.000000000000000000e+00 1.043890000000000009e-03 6.462377342670039271e-01
3.125000000000000173e-03 1.724220000000000049e-03 5.265973863254452825e-01
3.749999999999999861e-02 9.354460000000000552e-02 1.816008870043703816e+00
0.000000000000000000e+00 3.638399999999999859e-04 3.294590260258355663e+00
3.125000000000000173e-03 4.046050000000000341e-02 1.795112173008167611e+00
2.500000000000000139e-02 2.988419999999999879e-03 4.615424514731507166e+00
0.000000000000000000e+00 3.952019999999999882e-04 1.963482685605704159e+00
0.000000000000000000e+00 1.234660000000000054e-03 4.114339594591747584e+00
0.000000000000000000e+00 3.532219999999999978e-03 1.353783474212441718e+00
0.000000000000000000e+00 9.349119999999999826e-04 1.488336949838152679e+00
0.000000000000000000e+00 1.177789999999999957e-03 4.268299519489183957e+00
0.000000000000000000e+00 1.915519999999999983e-04 4.210402350448713804e+00
0.000000000000000000e+00 4.257409999999999667e-03 1.189927463636817340e+00
1.250000000000000069e-02 3.333570000000000109e-03 2.194805326871800411e+00
0.000000000000000000e+00 5.761920000000000019e-04 3.156599145754391600e+00
2.812500000000000069e-02 2.942339999999999886e-03 4.005293481401512423e+00
1.250000000000000069e-02 1.667969999999999956e-03 3.566244529226708870e+00
0.000000000000000000e+00 1.630079999999999951e-04 3.343744982985272340e+00
0.000000000000000000e+00 5.556429999999999789e-04 3.386313498610027839e+00
0.000000000000000000e+00 9.260990000000000194e-03 3.616709483756015864e+00
0.000000000000000000e+00 6.677980000000000461e-04 4.193782736029815439e+00
0.000000000000000000e+00 3.441979999999999866e-03 2.490366844192868356e+00
2.500000000000000139e-02 3.229380000000000011e-03 2.025844821230926129e+00
6.250000000000000347e-03 9.132160000000000060e-04 9.607264251582897652e-01
1.874999999999999931e-02 2.003839999999999788e-03 1.306739130465193632e+00
0.000000000000000000e+00 9.719680000000000290e-04 4.777517417834856950e+00
6.250000000000000347e-03 1.638399999999999926e-02 1.698675150140763757e+00
0.000000000000000000e+00 2.034109999999999998e-03 1.663284476027806047e+00
0.000000000000000000e+00 4.072319999999999933e-04 2.822717469391154310e+00
3.125000000000000173e-03 1.514820000000000055e-03 1.701725363421749293e+00
0.000000000000000000e+00 3.176580000000000029e-03 2.276816043009737278e+00
0.000000000000000000e+00 1.499669999999999996e-02 2.905015225890983377e-01
6.250000000000000347e-03 1.638399999999999926e-02 4.085640640477961938e+00
1.250000000000000069e-02 2.385979999999999785e-03 6.108761552693553476e-01
0.000000000000000000e+00 4.949120000000000212e-04 1.997820652443583755e+00
0.000000000000000000e+00 1.401789999999999980e-03 1.992359899203390849e+00
0.000000000000000000e+00 5.137410000000000240e-03 3.616823785078450815e+00
2.187499999999999861e-02 2.718270000000000061e-03 1.122521658210236417e+00
0.000000000000000000e+00 1.081469999999999957e-03 2.505946179400443619e+00
0.000000000000000000e+00 3.699369999999999785e-04 4.285944625980405931e+00
0.000000000000000000e+00 2.508100000000000086e-03 2.897935591403619782e+00
6.875000000000000555e-02 9.633469999999999533e-02 3.630153450719970643e+00
1.000000000000000056e-01 9.855450000000000321e-02 3.763145382296060326e+00
3.125000000000000173e-03 9.657110000000000694e-02 2.032703270595785483e+00
0.000000000000000000e+00 1.025089999999999986e-03 2.535169312798833285e+00
9.374999999999999653e-03 9.949710000000000498e-02 4.255103098989723165e+00
