0.000000000000000000e+00 2.679290000000000144e-02 1.242269803536997674e+00
0.000000000000000000e+00 1.183099999999999950e-02 1.373808774355971263e+00
1.250000000000000069e-02 9.705869999999999775e-02 4.252967982177430883e+00
1.250000000000000069e-02 1.318209999999999998e-03 7.377386950034081625e-01
3.437500000000000278e-02 7.736940000000000310e-03 4.202634088229008746e+00
2.812500000000000069e-02 2.333700000000000184e-03 1.757391767451649933e+00
0.000000000000000000e+00 3.753470000000000070e-03 5.797401636237986544e-02
0.000000000000000000e+00 9.525760000000000087e-04 4.177030046548402265e-02
0.000000000000000000e+00 9.735040000000000360e-04 1.596173647584713251e+00
6.875000000000000555e-02 2.667589999999999892e-02 1.485315337448818607e+00
0.000000000000000000e+00 3.166080000000000153e-04 4.363002402406291225e+00
0.000000000000000000e+00 9.868159999999999519e-04 1.958937494377506194e+00
2.812500000000000069e-02 2.624580000000000055e-03 4.580454266210346681e+00
0.000000000000000000e+00 8.926719999999999534e-04 2.723517706596794152e+00
0.000000000000000000e+00 1.078909999999999982e-03 3.584620847777395536e+00
0.000000000000000000e+00 1.358779999999999970e-03 1.606395121119154723e+00
0.000000000000000000e+00 1.024579999999999979e-03 3.292021808994216592e-01
0.000000000000000000e+00 3.745660000000000048e-03 3.586994785999364055e+00
6.250000000000000347e-03 1.878270000000000026e-03 3.911195037434105792e+00
6.250000000000000347e-03 7.873659999999999340e-03 8.306424181318949884e-01
0.000000000000000000e+00 9.257599999999999727e-04 2.003477556225649714e+00
0.000000000000000000e+00 2.698429999999999926e-03 1.733862949916035845e+00
0.000000000000000000e+00 1.093379999999999916e-03 1.370364615136799191e+00
0.000000000000000000e+00 1.592190000000000055e-03 3.098256095900394413e+00
0.000000000000000000e+00 7.255099999999999570e-04 1.494222201023570618e+00
0.000000000000000000e+00 1.712189999999999936e-03 4.964631186801917728e+00
0.000000000000000000e+00 9.089280000000000363e-04 6.000952221210087423e-01
0.000000000000000000e+00 3.142399999999999729e-04 4.710931470075649052e+00
2.812500000000000069e-02 2.705149999999999916e-03 3.310028136145697353e+00
0.000000000000000000e+00 9.520639999999999702e-04 4.728542538483171853e+00
0.000000000000000000e+00 9.812480000000001028e-04 4.133361710675007572e+00
0.000000000000000000e+00 5.884109999999999471e-04 2.443206426173055945e+00
1.874999999999999931e-02 2.324670000000000035e-03 2.641510007350318823e+00
1.874999999999999931e-02 4.635389999999999650e-03 1.582570067748441556e+00
1.874999999999999931e-02 4.511549999999999588e-03 4.047864052640660404e+00
3.125000000000000173e-03 1.056829999999999922e-02 3.076411709143248352e+00
4.374999999999999722e-02 9.180900000000000172e-02 1.914417483688154453e+00
6.250000000000000347e-03 1.909569999999999974e-03 4.166822040354491108e+00
6.250000000000000347e-03 1.782020000000000045e-03 3.276237108595215552e+00
0.000000000000000000e+00 1.587840000000000030e-04 6.373674831069636726e-01
0.000000000000000000e+00 3.779839999999999914e-04 3.312039775423372578e+00
0.000000000000000000e+00 8.864900000000000210e-03 3.954683637646281724e+00
3.125000000000000000e-02 3.161090000000000080e-03 2.385733688954480236e+00
2.187499999999999861e-02 1.737279999999999901e-03 3.181106765479841503e+00
1.874999999999999931e-02 3.178679999999999700e-02 2.033437332895325689e+00
2.187499999999999861e-02 2.823099999999999828e-03 3.418432457840496763e+00
0.000000000000000000e+00 1.733820000000000066e-03 1.172167279792647454e+00
6.250000000000000347e-03 9.665250000000000230e-02 1.916394887187719664e+00
0.000000000000000000e+00 3.537220000000000208e-03 1.867670551246971566e+00
2.500000000000000139e-02 1.892669999999999943e-03 4.489500871571327600e+00
3.125000000000000173e-03 1.689090000000000079e-03 3.994087242947183647e+00
3.125000000000000173e-03 1.239939999999999966e-02 4.381776526036681219e+00
0.000000000000000000e+00 3.771329999999999821e-03 4.453328038038293357e+00
1.874999999999999931e-02 1.584700000000000084e-03 4.440571169648355188e-01
0.000000000000000000e+00 1.010419999999999938e-03 7.735460470004468236e-01
0.000000000000000000e+00 8.242239999999999636e-03 2.299410126698316681e+00
0.000000000000000000e+00 1.418060000000000067e-03 2.330197093245125028e+00
1.562500000000000000e-02 2.091519999999999924e-03 1.599100312473266117e+00
2.500000000000000139e-02 1.377090000000000085e-03 3.636766203815906540e+00
3.125000000000000000e-02 9.206269999999999731e-02 3.317940282056708767e+00
0.000000000000000000e+00 8.912739999999999508e-04 1.645027469665699682e+00
3.125000000000000173e-03 4.396350000000000258e-03 1.291268262287606383e+00
3.125000000000000173e-03 4.714109999999999655e-03 1.137899100712014278e+00
0.000000000000000000e+00 7.843839999999999493e-04 4.309946432941356598e+00
0.000000000000000000e+00 2.228930000000000061e-03 2.785356011193621306e+00
3.125000000000000173e-03 3.051279999999999964e-02 3.439993806427872780e+00
0.000000000000000000e+00 2.300139999999999970e-05 4.239896870183068600e+00
3.125000000000000173e-03 2.112189999999999901e-03 3.441518023667917259e+00
0.000000000000000000e+00 3.686270000000000172e-03 2.449990449462744913e+00
6.250000000000000347e-03 2.504699999999999895e-03 4.859840030208092188e+00
0.000000000000000000e+00 5.151799999999999565e-04 3.063646339730459633e+00
0.000000000000000000e+00 9.253119999999999661e-04 1.362325002007573449e+00
0.000000000000000000e+00 0.000000000000000000e+00 1.388303789970610769e+00
0.000000000000000000e+00 2.269189999999999868e-05 3.336489352366825312e+00
1.250000000000000069e-02 9.756370000000000320e-02 2.990806667397167384e+00
2.187499999999999861e-02 2.018750000000000145e-03 4.230143668610973684e+00
3.125000000000000173e-03 1.000200000000000047e-02 1.015943650083031002e+00
0.000000000000000000e+00 9.178860000000000274e-04 1.828638205636663017e+00
0.000000000000000000e+00 3.068289999999999993e-03 3.264238660129198388e-01
0.000000000000000000e+00 1.127299999999999917e-03 1.149361947646723614e+00
1.250000000000000069e-02 2.517219999999999874e-02 4.172052893239873050e+00
6.250000000000000347e-03 3.091319999999999832e-02 4.268723768963195164e-01
0.000000000000000000e+00 5.950139999999999596e-03 1.771232660553491156e+00
2.812500000000000069e-02 9.273259999999999836e-02 4.963194643458558986e+00
6.562500000000000278e-02 4.177659999999999707e-02 3.183946509917830348e+00
9.374999999999999653e-03 1.989760000000000140e-03 3.581639159439118814e+00
2.500000000000000139e-02 3.841830000000000245e-02 2.281671157803442096e+00
9.374999999999999653e-03 1.562620000000000025e-03 3.810129433516725062e+00
0.000000000000000000e+00 4.461439999999999894e-04 2.184381773035743102e+00
1.250000000000000069e-02 1.228609999999999989e-03 3.587087570760497890e+00
2.187499999999999861e-02 2.761920000000000174e-03 6.016099211437880845e-01
0.000000000000000000e+00 4.915819999999999565e-04 3.645640161275653934e-01
9.374999999999999653e-03 4.634880000000000076e-03 1.757849309662141035e+00
1.250000000000000069e-02 2.116439999999999988e-01 2.413017750109713866e+00
0.000000000000000000e+00 2.295680000000000084e-04 4.993929637158903923e+00
1.562500000000000000e-02 2.807039999999999796e-03 8.892864530142430279e-01
0.000000000000000000e+00 3.919360000000000096e-04 4.294348472486649193e+00
0.000000000000000000e+00 7.284649999999999719e-04 3.468577549999567911e+00
1.562500000000000000e-02 2.746109999999999957e-03 2.671167504529121661e+00
3.125000000000000000e-02 9.275440000000000074e-02 2.562804256001531833e+00
2.500000000000000139e-02 8.190400000000000458e-03 2.670126095963600399e+00
3.125000000000000000e-02 4.899579999999999734e-03 3.063970020818673312e+00
2.812500000000000069e-02 2.439619999999999983e-03 1.793333184236949762e+00
0.000000000000000000e+00 9.192960000000000020e-04 4.682544991893489161e-01
0.000000000000000000e+00 2.107330000000000141e-03 2.180649647609493869e+00
0.000000000000000000e+00 2.724739999999999801e-03 3.485962884059126576e+00
1.874999999999999931e-02 3.677380000000000058e-03 3.426297879765376475e+00
2.812500000000000069e-02 3.147969999999999935e-03 1.414853484254537941e+00
0.000000000000000000e+00 5.726359999999999784e-03 2.379363503138206326e+00
9.374999999999999653e-03 1.381280000000000008e-02 2.355282907496624833e+00
0.000000000000000000e+00 3.751679999999999967e-04 4.230491383182655163e-02
0.000000000000000000e+00 1.015229999999999995e-03 2.702052513380169163e+00
3.125000000000000173e-03 4.363200000000000238e-03 2.844539016647390506e-01
6.250000000000000347e-03 9.356130000000000002e-02 1.889449793089479801e+00
0.000000000000000000e+00 1.103779999999999952e-03 3.910854987483002976e+00
3.125000000000000173e-03 4.651139999999999788e-03 4.213049470166287058e+00
0.000000000000000000e+00 9.795839999999999236e-04 1.983174046890786579e+00
0.000000000000000000e+00 4.234820000000000251e-03 1.888115685299914803e+00
0.000000000000000000e+00 1.497899999999999926e-03 4.897687162343163259e+00
0.000000000000000000e+00 9.133439999999999614e-04 1.060534005301807969e+00
0.000000000000000000e+00 4.248920000000000106e-04 4.251147120048185180e+00
5.937499999999999722e-02 2.597199999999999856e-02 3.802507690508656779e+00
0.000000000000000000e+00 9.656960000000000457e-04 2.072875900848836661e+00
0.000000000000000000e+00 7.648699999999999596e-03 4.974578995222747935e+00
0.000000000000000000e+00 1.838779999999999928e-03 1.529925971571230559e+00
0.000000000000000000e+00 3.913599999999999935e-04 4.102421877152488072e+00
0.000000000000000000e+00 3.112450000000000112e-03 2.622089514208251870e+00
0.000000000000000000e+00 1.197690000000000039e-02 2.065471098744333656e+00
0.000000000000000000e+00 3.996270000000000009e-04 3.438992503670568190e+00
0.000000000000000000e+00 3.037019999999999997e-02 1.536362206360338822e+00
3.125000000000000173e-03 1.755090000000000122e-02 2.884747256392339310e-01
0.000000000000000000e+00 2.078290000000000053e-04 4.965129792431231870e+00
6.250000000000000347e-03 9.718699999999999561e-02 3.515665127498540654e-01
0.000000000000000000e+00 5.917439999999999506e-04 1.956509360706129463e+00
1.000000000000000056e-01 8.099339999999999318e-02 3.472062147125491549e+00
0.000000000000000000e+00 1.428739999999999958e-03 3.647766159520963392e+00
0.000000000000000000e+00 2.832449999999999812e-03 1.038945572318265009e+00
1.562500000000000000e-02 3.845120000000000048e-03 3.226515031628994556e+00
0.000000000000000000e+00 3.551890000000000039e-04 2.358616157899855015e+00
9.374999999999999653e-03 1.606529999999999894e-03 4.966019591994867532e+00
2.812500000000000069e-02 1.530050000000000030e-03 2.382235791955858328e+00
0.000000000000000000e+00 1.287619999999999954e-03 2.561683091925198053e+00
0.000000000000000000e+00 1.007040000000000062e-03 1.721948573263849092e+00
0.000000000000000000e+00 9.940729999999999944e-05 3.814203616627076965e+00
3.125000000000000173e-03 1.844289999999999949e-03 4.438484015777401481e+00
1.250000000000000069e-02 2.781500000000000118e-03 2.851016564641337236e+00
9.374999999999999653e-03 9.206430000000000169e-02 2.634527131256487742e+00
0.000000000000000000e+00 3.311230000000000076e-03 3.728743553630067264e+00
3.125000000000000173e-03 2.641790000000000197e-03 3.198595091226246634e+00
0.000000000000000000e+00 9.958619999999999192e-04 3.815383645791460054e+00
0.000000000000000000e+00 1.378179999999999900e-03 8.877938211960867410e-01
1.250000000000000069e-02 1.960320000000000205e-03 4.298732963553102415e+00
2.187499999999999861e-02 1.051639999999999936e-01 4.815306553059386374e+00
1.874999999999999931e-02 1.806850000000000036e-03 4.588176706895968238e+00
6.250000000000000347e-03 1.058110000000000023e-01 1.547098556577730655e-01
0.000000000000000000e+00 4.448640000000000233e-03 2.924074936298552974e+00
0.000000000000000000e+00 4.611139999999999683e-03 2.324518547064802210e-01
0.000000000000000000e+00 6.052479999999999622e-04 1.376693987710114753e+00
2.500000000000000139e-02 4.559490000000000244e-03 4.445687252856725280e+00
0.000000000000000000e+00 9.884159999999999908e-04 8.512425298611181468e-01
3.125000000000000173e-03 9.926730000000000276e-02 2.055808285442806138e+00
0.000000000000000000e+00 4.260990000000000090e-03 1.153184640830871022e+00
2.187499999999999861e-02 2.684740000000000130e-03 1.687941760728399299e+00
0.000000000000000000e+00 1.271680000000000076e-03 4.897868681198015217e+00
2.812500000000000069e-02 4.497020000000000010e-03 1.331533143509288752e+00
2.187499999999999861e-02 9.197539999999999882e-02 1.555955379415466799e+00
0.000000000000000000e+00 1.000159999999999938e-03 1.325281682445708098e+00
2.812500000000000069e-02 3.742019999999999982e-03 2.682767767657241897e+00
3.125000000000000173e-03 4.713469999999999986e-03 3.345515553222619509e+00
1.874999999999999931e-02 1.812859999999999906e-03 3.023316980992163394e-01
3.125000000000000173e-03 4.475260000000000002e-03 4.272066193312150872e+00
1.250000000000000069e-02 9.291610000000000147e-02 3.902875718133134164e+00
0.000000000000000000e+00 4.082199999999999913e-04 2.215919945340559138e+00
4.687500000000000000e-02 1.055829999999999963e-01 3.674169224125475974e+00
0.000000000000000000e+00 1.008719999999999929e-02 4.606955422275959222e+00
0.000000000000000000e+00 9.796480000000000639e-04 4.818671106355189693e+00
0.000000000000000000e+00 1.106369999999999966e-03 4.012317347988187954e+00
3.125000000000000173e-03 1.657920000000000010e-03 1.055459631512293939e+00
0.000000000000000000e+00 3.930430000000000382e-03 4.673161474324803777e+00
2.500000000000000139e-02 2.088959999999999949e-03 2.267420472025756251e+00
0.000000000000000000e+00 1.185599999999999979e-03 6.159643855699797887e-01
0.000000000000000000e+00 1.024009999999999894e-03 4.967329263443195586e+00
2.812500000000000069e-02 9.288079999999999947e-02 1.597606454367189066e+00
3.125000000000000173e-03 4.395839999999999817e-03 2.844285285573964206e+00
0.000000000000000000e+00 3.501629999999999934e-03 3.764477170280361662e+00
0.000000000000000000e+00 0.000000000000000000e+00 3.146262615488338632e+00
0.000000000000000000e+00 1.493560000000000026e-02 2.147053146278188773e+00
1.562500000000000000e-02 9.762550000000000394e-02 4.485683596630811287e+00
2.812500000000000069e-02 1.931779999999999912e-03 4.838302148191076846e+00
3.125000000000000000e-02 4.045549999999999841e-02 2.759664657728528425e+00
0.000000000000000000e+00 3.938879999999999638e-03 3.446981105455310335e+00
0.000000000000000000e+00 9.366819999999999313e-02 4.832181325305972663e+00
0.000000000000000000e+00 6.465769999999999851e-02 1.233634963672607388e+00
0.000000000000000000e+00 1.094080000000000096e-03 3.800514482203165567e-01
1.874999999999999931e-02 2.124159999999999937e-03 2.378748389617305392e+00
0.000000000000000000e+00 2.281770000000000009e-05 3.598608908263821071e+00
0.000000000000000000e+00 6.147839999999999468e-04 2.384184700474365926e+00
2.500000000000000139e-02 3.251260000000000174e-03 1.674999770816210098e+00
6.250000000000000347e-03 3.238520000000000287e-02 3.908126573891572697e+00
6.250000000000000347e-03 9.909590000000000065e-02 4.625787952301650741e+00
0.000000000000000000e+00 6.144640000000000041e-04 6.944337508292125483e-01
0.000000000000000000e+00 9.836800000000000144e-04 2.193665547651302283e+00
0.000000000000000000e+00 2.831680000000000048e-03 1.923138849704126851e+00
0.000000000000000000e+00 2.958779999999999830e-03 8.683402049920418975e-01
0.000000000000000000e+00 1.787259999999999934e-03 2.203830693856399847e+00
2.187499999999999861e-02 3.297280000000000089e-03 4.979563068147115246e+00
0.000000000000000000e+00 3.431529999999999997e-02 6.897371526859114033e-01
1.874999999999999931e-02 3.705149999999999937e-03 4.037880180044427725e+00
1.874999999999999931e-02 1.767300000000000077e-03 4.130587668994335715e+00
0.000000000000000000e+00 1.057149999999999973e-03 3.169013080477174782e+00
0.000000000000000000e+00 7.131340000000000335e-04 3.932556354802554388e+00
2.500000000000000139e-02 1.172330000000000073e-02 4.936211735891992802e+00
2.187499999999999861e-02 1.255240000000000002e-02 2.369313349423451953e-01
0.000000000000000000e+00 1.704449999999999932e-03 2.387255483289279390e+00
2.187499999999999861e-02 2.890300000000000161e-03 4.302561313324420489e+00
0.000000000000000000e+00 3.675519999999999937e-04 1.667030099228663964e+00
0.000000000000000000e+00 4.335750000000000194e-03 1.370204780841730585e+00
0.000000000000000000e+00 7.681279999999999749e-04 2.649950145978245075e+00
3.125000000000000173e-03 1.762429999999999943e-03 4.840127964223440493e+00
0.000000000000000000e+00 4.422120000000000217e-02 2.800659792617842037e+00
0.000000000000000000e+00 1.178940000000000066e-03 4.087621889012605259e+00
0.000000000000000000e+00 4.419529999999999986e-02 4.004920274139079694e+00
0.000000000000000000e+00 3.462719999999999861e-03 2.887642654829564393e+00
0.000000000000000000e+00 1.042820000000000075e-03 4.428417950049601259e-01
9.374999999999999653e-03 2.670780000000000202e-03 2.545292301689171310e+00
3.125000000000000173e-03 3.122619999999999996e-03 4.280915529762293836e+00
3.125000000000000173e-03 3.880269999999999900e-03 4.701070160739102555e+00
9.374999999999999653e-03 1.580159999999999941e-03 4.233834828716437348e-01
0.000000000000000000e+00 9.588609999999999798e-04 3.416562905301072650e+00
0.000000000000000000e+00 1.901320000000000093e-02 1.195639086746551172e+00
3.125000000000000173e-03 3.372990000000000189e-03 3.464033457763359358e+00
6.250000000000000347e-03 1.675070000000000075e-03 1.321577722430005597e+00
0.000000000000000000e+00 2.666239999999999734e-04 1.645917310596419769e+00
0.000000000000000000e+00 7.639100000000000230e-03 5.471273020415623467e-01
9.374999999999999653e-03 2.470019999999999855e-03 3.327817163760945718e+00
1.874999999999999931e-02 1.745540000000000069e-03 3.930255404205491132e+00
1.562500000000000000e-02 1.752770000000000066e-03 2.445390013610531987e+00
2.187499999999999861e-02 2.603519999999999793e-03 1.924064638583457665e+00
0.000000000000000000e+00 1.121409999999999985e-03 3.645904633594041488e+00
0.000000000000000000e+00 5.072289999999999915e-04 3.854960852667077997e+00
1.562500000000000000e-02 1.884800000000000060e-03 2.202570187919263844e+00
2.500000000000000139e-02 3.778109999999999889e-03 9.816141225739954956e-01
3.125000000000000173e-03 4.431619999999999830e-03 1.336519103831138588e+00
0.000000000000000000e+00 3.661699999999999938e-03 4.695804734321055385e+00
1.874999999999999931e-02 2.736129999999999812e-03 4.452687892221814714e+00
1.874999999999999931e-02 1.809599999999999967e-03 3.725636577103415004e+00
0.000000000000000000e+00 4.418280000000000124e-03 4.773358167698170007e+00
0.000000000000000000e+00 1.511549999999999960e-03 5.137711178930060019e-01
3.749999999999999861e-02 3.821990000000000109e-02 4.815900275370517569e+00
1.562500000000000000e-02 2.127739999999999927e-03 3.572555970379064583e+00
9.374999999999999653e-03 9.270069999999999699e-02 3.941853821985271011e+00
0.000000000000000000e+00 6.976210000000000484e-04 3.718602487392042910e+00
6.250000000000000347e-03 1.478209999999999984e-03 4.164053413712489160e+00
0.000000000000000000e+00 1.367549999999999929e-03 4.807835969809089782e+00
0.000000000000000000e+00 3.113600000000000005e-04 4.104670757802908465e-01
0.000000000000000000e+00 8.522210000000000115e-04 2.991960365202061212e+00
1.562500000000000000e-02 1.285020000000000086e-02 3.375434120473272959e+00
1.250000000000000069e-02 6.901720000000000077e-03 1.121888902544612598e+00
0.000000000000000000e+00 4.153380000000000136e-04 4.076300544270823778e+00
0.000000000000000000e+00 1.502059999999999940e-03 4.442792969282731264e+00
9.374999999999999653e-03 9.466470000000000440e-02 4.855899897953683819e+00
0.000000000000000000e+00 3.693119999999999823e-03 6.523315611919311419e-01
6.250000000000000347e-03 3.026500000000000110e-03 1.225250438620921756e+00
1.562500000000000000e-02 9.261500000000000288e-02 5.334938977192998921e-01
6.250000000000000347e-03 2.837249999999999928e-03 2.040209309907171864e+00
3.125000000000000173e-03 9.731309999999999960e-02 4.436714691551557621e+00
4.374999999999999722e-02 4.691899999999999717e-03 1.889227279447629027e+00
1.250000000000000069e-02 1.573760000000000003e-03 1.098159081355625677e+00
0.000000000000000000e+00 3.576259999999999942e-04 6.653100432435427036e-01
9.374999999999999653e-03 9.609180000000000499e-02 3.636303615016455826e+00
0.000000000000000000e+00 1.369729999999999993e-03 2.427516161991201571e+00
0.000000000000000000e+00 1.071169999999999978e-03 2.698195023277170090e+00
0.000000000000000000e+00 7.284649999999999719e-04 1.786376194619526014e+00
1.874999999999999931e-02 3.090110000000000079e-03 4.312747353734669886e+00
2.187499999999999861e-02 2.347580000000000153e-03 2.824205700698913191e+00
2.500000000000000139e-02 2.084669999999999839e-03 1.037897914750941508e+00
2.187499999999999861e-02 2.601149999999999990e-03 1.993883602871160399e-01
0.000000000000000000e+00 1.953600000000000215e-03 2.490345574324936528e+00
0.000000000000000000e+00 8.483740000000000465e-04 2.312665817074628372e+00
1.250000000000000069e-02 1.411520000000000092e-03 4.815634802384931135e+00
0.000000000000000000e+00 3.700419999999999838e-03 9.494847101614845020e-01
0.000000000000000000e+00 5.563519999999999750e-04 3.339354061302809207e+00
3.125000000000000173e-03 1.070929999999999972e-02 2.488993126680717261e+00
3.125000000000000173e-03 2.080770000000000015e-03 3.480227952385110957e+00
9.374999999999999653e-03 1.332099999999999951e-02 1.244694274833115344e+00
0.000000000000000000e+00 1.078020000000000063e-03 2.027851712634406667e+00
0.000000000000000000e+00 5.525649999999999789e-04 4.589611308095018494e+00
0.000000000000000000e+00 3.290249999999999880e-04 1.274448948291191819e+00
3.125000000000000173e-03 2.225599999999999887e-03 1.117273185836961114e+00
0.000000000000000000e+00 1.751039999999999932e-03 4.004800416965130339e+00
0.000000000000000000e+00 3.753599999999999840e-04 1.659323929724243474e+00
4.687500000000000000e-02 9.205059999999999631e-02 1.348912095028662606e+00
3.125000000000000173e-03 2.062529999999999919e-02 4.737246176341420423e+00
3.125000000000000173e-03 7.711479999999999724e-03 9.370994911684382700e-01
0.000000000000000000e+00 9.757439999999999603e-04 2.584512088083585457e+00
0.000000000000000000e+00 9.688319999999999831e-04 1.650357128654476480e+00
2.500000000000000139e-02 4.711420000000000191e-02 3.167418509995934883e+00
9.374999999999999653e-03 1.986749999999999974e-02 2.615266466212627261e+00
0.000000000000000000e+00 7.031309999999999600e-04 4.614548540251796283e+00
0.000000000000000000e+00 1.543679999999999965e-04 4.846532661212449078e+00
1.187499999999999944e-01 9.373960000000000625e-02 6.627668671276254475e-01
0.000000000000000000e+00 9.425279999999999856e-04 3.961512742767357320e+00
2.812500000000000069e-02 3.129789999999999916e-03 4.205914182312119109e+00
3.125000000000000173e-03 4.792959999999999755e-03 1.628186890042555124e+00
2.500000000000000139e-02 2.696580000000000071e-03 1.555613638335799465e+00
2.500000000000000139e-02 1.848000000000000033e-03 1.388004817330484864e-01
0.000000000000000000e+00 2.649980000000000131e-03 4.509676112853966412e-02
6.250000000000000347e-03 2.587760000000000060e-02 2.186989677852424929e+00
0.000000000000000000e+00 1.056639999999999966e-03 3.936610104933844667e+00
0.000000000000000000e+00 1.046520000000000002e-03 2.836686018390362385e+00
3.125000000000000000e-02 9.420599999999999807e-02 1.384309718810059930e+00
3.437500000000000278e-02 9.149580000000000213e-02 2.704363301671624420e+00
9.375000000000000000e-02 9.542760000000000131e-02 4.620450136699592925e+00
0.000000000000000000e+00 1.946049999999999863e-02 1.390504662431026883e+00
3.125000000000000173e-03 5.049920000000000277e-03 1.127453653045373816e-01
3.125000000000000173e-03 9.592820000000000513e-02 3.517058746452708995e+00
0.000000000000000000e+00 1.813119999999999879e-04 1.483814932593369162e+00
0.000000000000000000e+00 5.744370000000000162e-04 4.029068546595310218e-01
1.562500000000000000e-02 9.772430000000000005e-02 2.826903207268638418e-02
3.437500000000000278e-02 4.331780000000000352e-03 5.424761853703163883e-02
0.000000000000000000e+00 8.668159999999999624e-04 7.285880388999199653e-01
0.000000000000000000e+00 7.659729999999999794e-04 2.344193500445440614e-01
2.812500000000000069e-02 1.845059999999999929e-03 1.673590828866744484e+00
3.125000000000000173e-03 1.070330000000000031e-01 1.975888842136768186e+00
0.000000000000000000e+00 4.077120000000000050e-02 4.211875299439568288e+00
3.125000000000000000e-02 5.013309999999999989e-03 3.863731185066741514e+00
0.000000000000000000e+00 2.350019999999999974e-03 3.403832526374190870e+00
3.125000000000000173e-03 4.439169999999999922e-02 4.975705360094272223e+00
2.812500000000000069e-02 4.282620000000000003e-03 1.572406583265689717e-01
2.187499999999999861e-02 1.103489999999999940e-03 4.631235458220904988e+00
1.874999999999999931e-02 3.500609999999999920e-03 2.948354493388721131e+00
0.000000000000000000e+00 5.451519999999999630e-03 3.018099310546992875e+00
6.250000000000000347e-03 2.504319999999999984e-03 1.538051268901862167e+00
9.374999999999999653e-03 1.572929999999999945e-03 3.556220005040029886e+00
0.000000000000000000e+00 1.070849999999999927e-03 4.774227825202734365e+00
0.000000000000000000e+00 3.855360000000000167e-04 6.510473252919923848e-02
0.000000000000000000e+00 3.574340000000000069e-04 2.862399138016156197e+00
1.250000000000000069e-02 1.280319999999999939e-03 3.442450842491461493e+00
0.000000000000000000e+00 1.171550000000000022e-02 4.552736125073497675e-01
1.562500000000000000e-02 7.085619999999999939e-03 3.943560023946139470e+00
0.000000000000000000e+00 1.142580000000000028e-03 2.586925632204636116e+00
0.000000000000000000e+00 1.941179999999999989e-02 4.741913012943029138e+00
0.000000000000000000e+00 2.308550000000000115e-05 3.799499343087540115e+00
0.000000000000000000e+00 3.661310000000000085e-03 3.584339974101938608e+00
0.000000000000000000e+00 1.765499999999999925e-03 2.356322961070376643e+00
0.000000000000000000e+00 5.564160000000000069e-04 4.802731773109292668e+00
0.000000000000000000e+00 1.026110000000000000e-03 2.632580235313242589e+00
0.000000000000000000e+00 6.369409999999999720e-05 7.231479192701600889e-01
3.125000000000000173e-03 4.964610000000000377e-03 1.820779427570389686e+00
0.000000000000000000e+00 3.777599999999999882e-04 8.134656501294396103e-01
0.000000000000000000e+00 4.511359999999999849e-03 4.222201372390271823e-01
0.000000000000000000e+00 6.170359999999999734e-03 2.733409218724332401e+00
2.812500000000000069e-02 2.036539999999999878e-03 5.756662019029801236e-01
0.000000000000000000e+00 4.919030000000000234e-04 4.765084542018425573e+00
1.562500000000000000e-02 1.059120000000000061e-01 4.503150551333977347e+00
1.250000000000000069e-02 2.833940000000000070e-02 7.813594518302491299e-01
0.000000000000000000e+00 1.768960000000000085e-04 1.681740187698772093e+00
0.000000000000000000e+00 3.893120000000000022e-04 6.385790312890154974e-01
6.562500000000000278e-02 3.641590000000000105e-02 1.190745880754191077e+00
0.000000000000000000e+00 4.131569999999999882e-04 4.408545334034005947e+00
0.000000000000000000e+00 3.742980000000000135e-04 2.221214616338096803e+00
6.250000000000000347e-03 4.238210000000000068e-03 4.073183951019317739e+00
0.000000000000000000e+00 1.371779999999999961e-03 7.755141778714003120e-01
1.874999999999999931e-02 2.704439999999999969e-02 4.337628901630401046e+00
3.125000000000000173e-03 1.008120000000000023e-02 2.073021069532006155e+00
6.250000000000000347e-03 1.463939999999999946e-03 2.662390265603776118e+00
0.000000000000000000e+00 4.472079999999999914e-04 4.797912521545243614e+00
1.250000000000000069e-02 2.289919999999999976e-03 5.355493692895557656e-01
5.312499999999999861e-02 9.346029999999999616e-02 3.400185105305117528e+00
2.500000000000000139e-02 2.204349999999999886e-03 8.158793286228605002e-01
0.000000000000000000e+00 7.466070000000000432e-04 3.252635183986116729e+00
9.374999999999999653e-03 2.079419999999999793e-03 2.199733608476678093e+00
0.000000000000000000e+00 8.265079999999999953e-04 1.511532762051184253e+00
0.000000000000000000e+00 4.564799999999999934e-03 4.827371357317048250e+00
3.125000000000000173e-03 1.599490000000000070e-03 1.776746389755313738e+00
0.000000000000000000e+00 1.227220000000000004e-03 2.503308655466000232e+00
0.000000000000000000e+00 4.382910000000000278e-03 3.595143752687828709e+00
0.000000000000000000e+00 4.178559999999999783e-04 4.203424600225788232e+00
2.812500000000000069e-02 5.357569999999999867e-03 1.958505681041809332e+00
3.125000000000000173e-03 1.462589999999999940e-03 3.792753158962366200e+00
0.000000000000000000e+00 6.209920000000000067e-04 9.220030961500247368e-01
2.187499999999999861e-02 9.931379999999999375e-02 2.495427641349993841e+00
0.000000000000000000e+00 2.585919999999999799e-03 1.644099216943754049e+00
0.000000000000000000e+00 2.760059999999999944e-03 1.361336283180215601e+00
0.000000000000000000e+00 1.140670000000000095e-03 4.462353549870440972e+00
1.562500000000000000e-02 2.766530000000000118e-03 4.422179341792263685e+00
3.125000000000000173e-03 1.036289999999999954e-02 6.602851806989273875e-02
0.000000000000000000e+00 4.298940000000000010e-04 1.408504453661096889e+00
2.500000000000000139e-02 1.163800000000000077e-02 3.093075149340551278e+00
0.000000000000000000e+00 1.037790000000000067e-02 2.153462252045312830e+00
0.000000000000000000e+00 4.303740000000000343e-03 3.887690084963983495e+00
0.000000000000000000e+00 2.646180000000000147e-03 2.995700195407303923e+00
3.125000000000000173e-03 4.388740000000000349e-03 2.884223357604822624e+00
0.000000000000000000e+00 3.272960000000000105e-03 3.199593498680511239e+00
0.000000000000000000e+00 3.479359999999999918e-03 3.215382494493266297e+00
0.000000000000000000e+00 2.294960000000000131e-05 3.196638550331551976e+00
2.500000000000000139e-02 1.715069999999999963e-03 9.428120952095742080e-01
0.000000000000000000e+00 1.087939999999999914e-03 3.319227950767352553e+00
1.874999999999999931e-02 2.166850000000000113e-03 1.269793419290554670e-01
0.000000000000000000e+00 0.000000000000000000e+00 4.330626711361997394e+00
0.000000000000000000e+00 7.778750000000000074e-03 1.150514094075940186e+00
0.000000000000000000e+00 2.794050000000000179e-03 9.853155895017229327e-01
2.500000000000000139e-02 4.102399999999999797e-02 4.254983413753812727e+00
3.125000000000000173e-03 4.915199999999999778e-03 1.595081315312730785e+00
0.000000000000000000e+00 2.457600000000000062e-02 1.887273938119988781e+00
0.000000000000000000e+00 2.177919999999999910e-04 1.603992386106507073e+00
1.562500000000000000e-02 1.921540000000000010e-03 1.260232576507830382e-01
0.000000000000000000e+00 1.640319999999999907e-04 2.852521920458934712e+00
0.000000000000000000e+00 3.465969999999999750e-04 3.791097756960740917e+00
1.562500000000000000e-02 1.730559999999999911e-03 8.256371178623161944e-01
6.250000000000000347e-03 1.517040000000000055e-02 4.602668169115790242e+00
0.000000000000000000e+00 3.640319999999999841e-03 4.012257064225716263e+00
1.874999999999999931e-02 7.910719999999999558e-03 2.621663553291235349e+00
0.000000000000000000e+00 4.270079999999999883e-04 4.538878651615782189e+00
6.250000000000000347e-03 2.497599999999999994e-03 2.372065222981679433e+00
0.000000000000000000e+00 2.792509999999999784e-03 3.203047491947736969e+00
1.250000000000000069e-02 2.742339999999999795e-03 4.710160184553796592e-01
0.000000000000000000e+00 2.601600000000000028e-04 9.046125710683600163e-01
0.000000000000000000e+00 1.615999999999999978e-04 1.404517891153862497e+00
0.000000000000000000e+00 1.075900000000000077e-03 4.005378975783170148e+00
6.250000000000000347e-03 5.000509999999999677e-03 7.695321315622738467e-01
0.000000000000000000e+00 1.604160000000000091e-03 4.700292518037571199e+00
0.000000000000000000e+00 3.257310000000000159e-05 3.986829659788606595e+00
6.250000000000000347e-03 9.665250000000000230e-02 4.364770922583699253e+00
2.500000000000000139e-02 1.657279999999999908e-03 4.748401454110945608e+00
0.000000000000000000e+00 5.477760000000000355e-04 3.365190063728625169e+00
2.500000000000000139e-02 9.218780000000000030e-02 1.587546227929342857e+00
0.000000000000000000e+00 2.290559999999999970e-04 3.198828922988845580e+00
0.000000000000000000e+00 3.820159999999999962e-04 1.226035858470527762e+00
0.000000000000000000e+00 2.330070000000000058e-02 1.186370746109677743e+00
0.000000000000000000e+00 3.547409999999999973e-04 5.381675966999988070e-01
0.000000000000000000e+00 3.738880000000000090e-04 1.940033651942552062e+00
0.000000000000000000e+00 1.094659999999999904e-03 2.703496538060762955e+00
6.250000000000000347e-03 1.612799999999999954e-03 4.271331550005330602e-01
3.125000000000000173e-03 1.761470000000000006e-03 4.690541784804668879e+00
3.125000000000000173e-03 4.403459999999999666e-03 4.621336573977402606e-01
0.000000000000000000e+00 4.995340000000000457e-04 2.199403189475494624e+00
1.562500000000000000e-02 7.718399999999999827e-04 3.557010772518863995e+00
0.000000000000000000e+00 4.222629999999999786e-04 7.183708328283772149e-01
0.000000000000000000e+00 3.314559999999999815e-03 3.263171203346215687e-01
2.500000000000000139e-02 4.748779999999999668e-02 1.779680959534418738e-01
0.000000000000000000e+00 3.755899999999999950e-03 2.003094339872784957e+00
2.812500000000000069e-02 1.163699999999999977e-02 3.212004888138465297e+00
3.125000000000000173e-03 3.779080000000000199e-03 2.051823062431229472e-01
0.000000000000000000e+00 1.764610000000000007e-03 5.028385707558907791e-01
2.500000000000000139e-02 9.051649999999999627e-03 2.544807822501713002e+00
3.125000000000000173e-03 1.056700000000000044e-03 2.837790664429950205e+00
6.250000000000000347e-03 1.058110000000000023e-01 5.425314761137800534e-01
0.000000000000000000e+00 3.260800000000000222e-04 3.089672012187069328e+00
6.250000000000000347e-03 1.210119999999999946e-02 2.834734451265442878e+00
2.187499999999999861e-02 2.839099999999999784e-03 4.903094095876554981e+00
0.000000000000000000e+00 4.554240000000000089e-04 4.222416338301060446e-01
8.437500000000000555e-02 6.398539999999999783e-02 3.329259921171715320e+00
3.125000000000000000e-02 1.310719999999999941e-02 4.552577645065121636e+00
0.000000000000000000e+00 8.626559999999999480e-04 4.822785375597887558e+00
2.812500000000000069e-02 9.199440000000000395e-02 1.199567805647687724e+00
1.250000000000000069e-02 3.744899999999999791e-03 2.736870284104532480e+00
3.437500000000000278e-02 9.889359999999999817e-03 2.571595720030359189e+00
3.125000000000000173e-03 1.594179999999999946e-03 3.624483625557027189e+00
0.000000000000000000e+00 1.720319999999999955e-04 1.312964135815049449e+00
0.000000000000000000e+00 7.471199999999999890e-04 3.483677478867936994e+00
1.874999999999999931e-02 1.689149999999999940e-03 2.328720079732200077e+00
0.000000000000000000e+00 3.782400000000000107e-04 1.369184393504466746e+00
5.625000000000000139e-02 3.924559999999999854e-02 2.635110637909440001e+00
3.125000000000000173e-03 8.647320000000000007e-03 3.141235391001653721e+00
2.500000000000000139e-02 2.618940000000000157e-03 4.527030684659548498e+00
3.749999999999999861e-02 3.975399999999999767e-02 4.088928491931805631e+00
1.874999999999999931e-02 9.074379999999999946e-02 2.240102266696942124e+00
0.000000000000000000e+00 1.007489999999999991e-03 1.360231502614284160e+00
1.874999999999999931e-02 3.956559999999999938e-02 2.780960744866516343e+00
0.000000000000000000e+00 4.279040000000000014e-04 2.464769983775910944e+00
0.000000000000000000e+00 9.560399999999999454e-02 4.700193350516990165e+00
3.125000000000000173e-03 1.072940000000000005e-02 3.590502425595490266e+00
0.000000000000000000e+00 1.456690000000000068e-02 1.037809647578069594e+00
0.000000000000000000e+00 7.297420000000000209e-04 3.612612764189238046e-01
3.125000000000000173e-03 4.915199999999999778e-03 1.681800537407045937e+00
3.125000000000000173e-03 2.014339999999999881e-03 3.590297520715361124e+00
1.874999999999999931e-02 1.657019999999999934e-03 3.159602661111462041e+00
2.812500000000000069e-02 3.163140000000000049e-03 1.041495008853746018e+00
2.187499999999999861e-02 2.924609999999999797e-03 1.998899789680097960e+00
1.874999999999999931e-02 2.822079999999999814e-03 2.231518928450884065e+00
3.125000000000000173e-03 2.694910000000000014e-03 1.952308319723641272e+00
2.187499999999999861e-02 6.090560000000000071e-03 8.760169976470594255e-01
0.000000000000000000e+00 1.141040000000000066e-03 1.829955771607280735e+00
0.000000000000000000e+00 5.780610000000000262e-03 1.620328607849969016e-01
0.000000000000000000e+00 3.896959999999999769e-04 8.052547254859465653e-01
0.000000000000000000e+00 4.453440000000000350e-03 3.452163097181222273e+00
1.562500000000000000e-02 1.877060000000000057e-03 3.161965771524466007e+00
3.125000000000000000e-02 4.097320000000000129e-02 2.231112590148392361e+00
0.000000000000000000e+00 5.137050000000000427e-04 8.537215398458475324e-01
0.000000000000000000e+00 3.889600000000000002e-03 7.091778006692178726e-01
0.000000000000000000e+00 1.211070000000000072e-03 4.058086747486059132e+00
0.000000000000000000e+00 2.044289999999999823e-03 1.009908574197515563e+00
0.000000000000000000e+00 2.635650000000000145e-02 1.811383734734446804e+00
2.812500000000000069e-02 9.075640000000000096e-02 1.668502372348831253e+00
1.562500000000000000e-02 5.260860000000000015e-03 3.164694039195430353e+00
0.000000000000000000e+00 9.301760000000000063e-04 2.000004198950411372e-02
3.125000000000000173e-03 5.293629999999999690e-03 1.862289695714981486e+00
2.187499999999999861e-02 1.073830000000000062e-01 3.146189943100432096e+00
0.000000000000000000e+00 1.039229999999999928e-03 4.841118382422270550e+00
3.125000000000000173e-03 2.479269999999999998e-03 3.872601720341120046e+00
0.000000000000000000e+00 2.286399999999999996e-05 1.573503505750432074e+00
1.874999999999999931e-02 2.275329999999999887e-03 4.825520660560350450e+00
6.250000000000000347e-03 1.472699999999999964e-03 1.814348201565835206e-01
0.000000000000000000e+00 4.207360000000000049e-04 8.329740313143341179e-01
2.500000000000000139e-02 9.416399999999999770e-02 3.104440611968409147e+00
1.874999999999999931e-02 2.243390000000000054e-03 8.240564529556620998e-01
0.000000000000000000e+00 5.823889999999999970e-04 1.606734464436012200e+00
0.000000000000000000e+00 7.943040000000000170e-04 1.352935820985894377e+00
0.000000000000000000e+00 0.000000000000000000e+00 2.861681448099056446e+00
6.250000000000000347e-03 3.238520000000000287e-02 1.830278169800281240e+00
0.000000000000000000e+00 9.180160000000000143e-04 8.781959885157175627e-01
2.812500000000000069e-02 3.505090000000000202e-03 1.320121451009790281e+00
0.000000000000000000e+00 1.094420000000000028e-03 8.211822453829309421e-01
0.000000000000000000e+00 1.552640000000000096e-04 3.674082600543363775e+00
9.374999999999999653e-03 1.985090000000000118e-03 4.244439746690204629e+00
2.187499999999999861e-02 3.199739999999999963e-03 4.854677908911556372e+00
0.000000000000000000e+00 9.356800000000000403e-04 5.000047402688390097e-02
0.000000000000000000e+00 1.011460000000000050e-03 3.122603592675190498e+00
1.250000000000000069e-02 3.103419999999999963e-03 1.305096354939286885e+00
0.000000000000000000e+00 4.031999999999999885e-04 8.809636159979206127e-01
3.125000000000000000e-02 9.613370000000000248e-02 3.356435273126827656e+00
1.250000000000000069e-02 1.612609999999999998e-03 4.939828902409145961e+00
2.812500000000000069e-02 8.159100000000000727e-03 2.967682267262150120e+00
0.000000000000000000e+00 9.948159999999999295e-04 2.903837437600280680e+00
1.562500000000000000e-02 3.014719999999999813e-03 2.676181781713526942e-02
0.000000000000000000e+00 4.943740000000000287e-03 4.358121059977756673e+00
9.374999999999999653e-03 3.805699999999999968e-03 1.561433704405469358e+00
0.000000000000000000e+00 7.369240000000000209e-04 2.749965458535432727e+00
3.125000000000000173e-03 1.631939999999999910e-03 3.209881520375222230e+00
7.187499999999999445e-02 2.519570000000000143e-02 2.475796639682260825e+00
3.125000000000000173e-03 2.965479999999999852e-02 2.168837880204080193e+00
0.000000000000000000e+00 3.435830000000000069e-04 3.316758639700491784e+00
0.000000000000000000e+00 7.653119999999999801e-04 4.943966686112183595e+00
2.812500000000000069e-02 2.069629999999999821e-03 4.499416803019006927e+00
0.000000000000000000e+00 1.691970000000000106e-03 4.030458321713358494e+00
0.000000000000000000e+00 3.266849999999999962e-03 3.198240777907517707e+00
9.374999999999999653e-03 2.270530000000000204e-03 1.886202280742619752e+00
0.000000000000000000e+00 8.617790000000000172e-03 6.560519242479084800e-01
1.562500000000000000e-02 2.516579999999999859e-02 3.346104136303935661e+00
1.187499999999999944e-01 9.373960000000000625e-02 1.372589481314606674e-01
6.250000000000000347e-03 9.604859999999999787e-02 1.122199290217896106e+00
2.500000000000000139e-02 2.252029999999999917e-03 5.926170976748568187e-01
0.000000000000000000e+00 5.421440000000000460e-04 2.846625724121066625e+00
0.000000000000000000e+00 3.387930000000000108e-02 4.333086608599779233e+00
1.250000000000000069e-02 2.082370000000000054e-03 2.348772690237351135e+00
1.874999999999999931e-02 2.510459999999999949e-03 3.392217247026769744e+00
0.000000000000000000e+00 9.053820000000000401e-04 4.032856662873333775e+00
2.812500000000000069e-02 2.642730000000000079e-02 3.086315114041088492e+00
0.000000000000000000e+00 7.369240000000000209e-04 6.795372429311064000e-01
5.937499999999999722e-02 4.088760000000000311e-02 1.588395168316658612e-02
3.125000000000000173e-03 1.711870000000000102e-03 2.110146147063973743e+00
2.187499999999999861e-02 2.217600000000000127e-03 2.096931061106277472e-01
1.562500000000000000e-02 2.998849999999999953e-03 6.576090529189881906e-01
1.250000000000000069e-02 2.311619999999999907e-03 3.711083319884482812e+00
0.000000000000000000e+00 1.509760000000000128e-04 3.354936897476879842e+00
0.000000000000000000e+00 9.411200000000000425e-04 1.463589372224979313e+00
9.374999999999999653e-03 2.490689999999999831e-03 2.197386919003659234e+00
0.000000000000000000e+00 1.181949999999999971e-03 4.833074965089414476e+00
3.125000000000000173e-03 1.035969999999999990e-03 4.364381080694571757e+00
0.000000000000000000e+00 3.818240000000000089e-04 1.041767114940430616e+00
0.000000000000000000e+00 3.842370000000000009e-04 4.264085784390972300e+00
2.812500000000000069e-02 2.737859999999999946e-03 4.983244228479088989e+00
0.000000000000000000e+00 1.236169999999999977e-02 1.998977292204710654e+00
0.000000000000000000e+00 1.912050000000000099e-05 4.741686408022863120e+00
6.250000000000000347e-03 1.640640000000000067e-03 4.080259443343134507e+00
6.250000000000000347e-03 2.785409999999999883e-03 1.486969853229882066e+00
2.812500000000000069e-02 3.026050000000000181e-03 1.335910683087578876e+00
1.250000000000000069e-02 2.137659999999999994e-03 1.776988660880529647e-01
0.000000000000000000e+00 2.161789999999999805e-03 6.924123996084080579e-01
1.874999999999999931e-02 1.833729999999999995e-03 2.398385679894245559e+00
0.000000000000000000e+00 5.975040000000000039e-04 4.819952842927760273e+00
0.000000000000000000e+00 1.785539999999999957e-03 1.345774296564233863e+00
3.125000000000000173e-03 1.026730000000000004e-02 1.134892587339075831e-01
0.000000000000000000e+00 1.182459999999999978e-03 4.708387814253339521e+00
0.000000000000000000e+00 5.148600000000000138e-04 1.088462240431040673e+00
0.000000000000000000e+00 3.612670000000000117e-03 5.030969254769102061e-01
0.000000000000000000e+00 3.257600000000000252e-04 3.756951015813015271e+00
0.000000000000000000e+00 5.159549999999999727e-03 4.827357824350021254e+00
1.874999999999999931e-02 5.517629999999999930e-03 2.997537692232097317e+00
0.000000000000000000e+00 1.043139999999999909e-03 7.652167646183877237e-01
0.000000000000000000e+00 2.657220000000000068e-03 2.134142760604798461e+00
2.812500000000000069e-02 3.164609999999999992e-03 2.294230014994340650e+00
2.500000000000000139e-02 2.891139999999999943e-03 3.362839036821322125e+00
2.500000000000000139e-02 2.285629999999999867e-03 2.040672638599306588e+00
2.812500000000000069e-02 2.743210000000000093e-02 4.999670625466282381e+00
3.125000000000000173e-03 9.370829999999999438e-02 2.554172754852241933e+00
0.000000000000000000e+00 0.000000000000000000e+00 2.246129291745325496e+00
0.000000000000000000e+00 7.276259999999999889e-04 1.277235553636688614e+00
0.000000000000000000e+00 5.470079999999999778e-04 9.024940307695017427e-02
0.000000000000000000e+00 8.572799999999999778e-04 3.626134112623874417e-01
0.000000000000000000e+00 1.851009999999999938e-03 1.175031282728290494e+00
3.125000000000000173e-03 4.348860000000000399e-03 2.082956690144364575e+00
1.250000000000000069e-02 5.760129999999999591e-03 1.369110281867802037e+00
0.000000000000000000e+00 1.007279999999999938e-03 3.553326000510522054e+00
0.000000000000000000e+00 1.507059999999999997e-02 2.989267266968659964e+00
0.000000000000000000e+00 3.835320000000000135e-04 4.388611949926875866e+00
0.000000000000000000e+00 2.176580000000000008e-03 1.658696180809587917e+00
0.000000000000000000e+00 5.067519999999999620e-04 4.807485832657160785e+00
0.000000000000000000e+00 1.657150000000000029e-03 3.616025043511403858e+00
0.000000000000000000e+00 9.724570000000000306e-04 2.696862857566201477e+00
1.874999999999999931e-02 2.716989999999999857e-03 4.486646988708065997e+00
0.000000000000000000e+00 9.965290000000000259e-02 3.649028175351633596e+00
9.374999999999999653e-03 9.777859999999999330e-02 9.595212418819687450e-01
4.062500000000000139e-02 9.087090000000000445e-02 1.559115914117310098e+00
2.812500000000000069e-02 1.194429999999999971e-02 1.105285018204082981e+00
0.000000000000000000e+00 3.631360000000000143e-04 3.733670350452527043e+00
9.374999999999999653e-03 2.427460000000000208e-03 2.544466214572314477e+00
3.125000000000000173e-03 1.182270000000000022e-03 3.233380448124483664e+00
0.000000000000000000e+00 3.590399999999999777e-04 9.598731746038646762e-02
0.000000000000000000e+00 1.736960000000000121e-04 2.822023316850397645e+00
0.000000000000000000e+00 1.469119999999999975e-03 3.980692559132990915e+00
2.812500000000000069e-02 3.642110000000000052e-03 2.690209628740118042e+00
0.000000000000000000e+00 1.288260000000000056e-03 1.299534164156958660e+00
2.812500000000000069e-02 1.069390000000000063e-01 2.061138227473677365e+00
1.250000000000000069e-02 1.776639999999999903e-03 2.667654585940181455e+00
3.125000000000000173e-03 4.254850000000000125e-03 4.898339166414134915e+00
0.000000000000000000e+00 7.212139999999999697e-04 1.977513874970125318e+00
0.000000000000000000e+00 1.067550000000000009e-03 1.722469884160779952e+00
0.000000000000000000e+00 1.482940000000000083e-03 3.739289645378953697e+00
5.312499999999999861e-02 9.241249999999999465e-02 4.460449599752514871e+00
0.000000000000000000e+00 1.575549999999999997e-03 1.038944617413133376e+00
0.000000000000000000e+00 2.623809999999999858e-03 4.059251817507373516e+00
3.125000000000000173e-03 1.068420000000000064e-01 3.709214797433184607e+00
0.000000000000000000e+00 2.313190000000000125e-05 3.429576609519437547e+00
0.000000000000000000e+00 3.125249999999999990e-03 2.551579204954183666e+00
3.125000000000000173e-03 5.169149999999999960e-03 1.061545039900446685e+00
1.562500000000000000e-02 2.104770000000000165e-03 1.163016988773823979e-01
1.874999999999999931e-02 3.111039999999999812e-03 4.917932030348890926e+00
0.000000000000000000e+00 2.124350000000000110e-03 4.638620520710123429e+00
0.000000000000000000e+00 2.317759999999999872e-03 4.286052366499132127e+00
0.000000000000000000e+00 2.417280000000000004e-04 5.048668286449248255e-01
0.000000000000000000e+00 9.884159999999999908e-04 2.516574543017763510e+00
6.250000000000000347e-03 9.751100000000000045e-02 3.814967170857635814e+00
0.000000000000000000e+00 2.041659999999999829e-03 4.958537081467885521e+00
0.000000000000000000e+00 1.416829999999999999e-03 8.390588479834465430e-01
0.000000000000000000e+00 2.544509999999999827e-03 4.539092494600854621e+00
9.375000000000000000e-02 9.094960000000000544e-02 4.640836686180607629e+00
2.500000000000000139e-02 2.652799999999999863e-03 3.416156331384319955e+00
0.000000000000000000e+00 2.240059999999999881e-03 4.530076934176815229e+00
