6.250000000000000347e-03 3.276799999999999852e-03 2.492403115787528378e+00
2.187499999999999861e-02 2.563580000000000199e-03 1.871380949660978565e+00
0.000000000000000000e+00 9.651840000000000072e-04 1.792360753437906684e+00
2.812500000000000069e-02 6.436880000000000379e-02 6.979600626522092233e-01
0.000000000000000000e+00 7.292800000000000107e-04 2.256079302967055167e+00
3.125000000000000173e-03 2.401790000000000001e-03 3.072007774311551920e+00
6.250000000000000347e-03 9.032830000000000373e-03 5.418110160716455015e-01
9.374999999999999653e-03 9.182229999999999559e-02 4.616555751980123468e+00
0.000000000000000000e+00 3.982720000000000249e-04 1.969393187437140202e+00
3.125000000000000173e-03 1.356669999999999925e-03 2.787698363662273859e+00
0.000000000000000000e+00 4.117359999999999770e-02 9.670026188982716597e-02
0.000000000000000000e+00 2.478080000000000235e-04 3.518691165766280049e-01
9.374999999999999653e-03 2.425730000000000074e-03 3.480667396808705405e+00
0.000000000000000000e+00 1.234429999999999902e-03 1.378892033387113525e+00
1.156250000000000056e-01 7.892010000000000691e-02 8.649700934307918976e-01
0.000000000000000000e+00 2.208830000000000168e-03 4.307517494691238014e+00
0.000000000000000000e+00 6.293830000000000258e-02 4.489656521930223576e+00
0.000000000000000000e+00 6.193919999999999678e-04 1.324670958102568408e+00
3.125000000000000000e-02 1.038170000000000065e-02 1.240731974273699301e+00
1.250000000000000069e-02 1.266240000000000074e-03 2.686030049357857052e+00
0.000000000000000000e+00 1.806019999999999978e-03 1.851673179400002311e+00
3.125000000000000173e-03 1.310719999999999941e-02 1.292336649897094514e+00
0.000000000000000000e+00 4.003200000000000161e-04 1.533907517171819723e+00
0.000000000000000000e+00 1.908479999999999996e-04 2.049205510683430376e+00
0.000000000000000000e+00 4.972859999999999954e-03 2.456297610288887157e+00
3.437500000000000278e-02 9.129539999999999877e-02 6.498901088764380551e-01
0.000000000000000000e+00 1.466620000000000076e-03 3.244819532893705283e+00
0.000000000000000000e+00 9.233279999999999526e-04 4.611178132134452490e+00
2.812500000000000069e-02 1.063049999999999967e-01 2.115322052227849969e+00
6.250000000000000347e-03 9.684900000000000453e-02 4.561625759452153872e+00
0.000000000000000000e+00 1.932959999999999887e-02 1.373131933616219547e+00
1.874999999999999931e-02 2.271169999999999873e-03 4.761043237614970280e-01
3.125000000000000173e-03 1.737470000000000073e-03 1.872918948750632584e+00
0.000000000000000000e+00 2.099259999999999928e-03 1.009689410462185633e+00
3.125000000000000173e-03 1.892540000000000064e-03 2.273285308382113179e+00
2.187499999999999861e-02 2.129409999999999983e-03 8.479854998646230158e-02
2.500000000000000139e-02 4.161800000000000221e-02 4.641730236293753364e+00
0.000000000000000000e+00 6.751080000000000015e-04 4.982024589877230625e+00
0.000000000000000000e+00 1.033539999999999893e-03 5.031713905719903401e-01
0.000000000000000000e+00 1.155839999999999992e-03 2.647535629089980969e-01
0.000000000000000000e+00 2.294810000000000141e-05 3.902298824001773081e+00
0.000000000000000000e+00 5.110759999999999565e-04 3.214747522710574401e+00
0.000000000000000000e+00 5.447999999999999718e-03 3.253847074452470567e-01
3.125000000000000173e-03 5.217730000000000284e-03 3.807835138913190365e-01
0.000000000000000000e+00 1.929979999999999977e-03 4.369062441593333901e+00
0.000000000000000000e+00 1.040899999999999985e-03 9.398875686951241315e-01
0.000000000000000000e+00 4.130690000000000230e-03 1.677537974654208508e-01
0.000000000000000000e+00 7.323069999999999666e-04 3.663749366772717231e-02
2.187499999999999861e-02 1.055539999999999951e-01 3.099934116020639951e+00
0.000000000000000000e+00 9.296639999999999678e-04 1.186884989847650118e+00
3.125000000000000173e-03 1.844610000000000000e-03 1.079939668411388221e+00
0.000000000000000000e+00 1.721200000000000055e-05 3.151592461952022362e+00
9.374999999999999653e-03 7.229179999999999981e-03 2.786603929585742989e+00
0.000000000000000000e+00 1.386110000000000076e-03 3.891579383983731599e+00
0.000000000000000000e+00 3.085690000000000199e-04 1.940348412885550822e+00
3.125000000000000173e-03 3.400770000000000008e-03 6.537580560538103214e-01
3.125000000000000173e-03 7.915270000000000292e-03 2.409522708713807582e+00
0.000000000000000000e+00 5.117309999999999914e-03 1.676325171687774063e+00
3.125000000000000173e-03 9.188720000000000221e-02 1.130580017662357051e+00
6.250000000000000347e-03 3.276799999999999852e-03 4.640977032810540415e+00
5.312499999999999861e-02 9.201090000000000657e-02 4.843774731749209472e+00
0.000000000000000000e+00 4.262390000000000232e-04 2.419033464888560747e+00
6.250000000000000347e-03 1.695670000000000163e-02 4.929330751316514991e+00
0.000000000000000000e+00 3.497379999999999912e-04 7.036412741215114508e-01
6.250000000000000347e-03 3.276799999999999852e-03 8.114397584965643562e-01
1.874999999999999931e-02 2.624459999999999987e-02 2.654715460954903961e-01
0.000000000000000000e+00 9.162180000000000324e-02 3.562807870145284106e+00
0.000000000000000000e+00 1.061380000000000006e-03 4.447880644652274285e+00
3.125000000000000173e-03 9.379010000000000125e-02 4.675704527377525288e+00
1.562500000000000000e-02 1.887620000000000010e-03 4.840597937958776242e+00
0.000000000000000000e+00 1.423419999999999894e-03 4.577552991719063158e+00
9.374999999999999653e-03 1.986279999999999990e-02 1.974967702791770030e+00
0.000000000000000000e+00 4.252770000000000009e-04 1.764900148707107430e+00
2.500000000000000139e-02 4.984259999999999906e-03 2.792907210123123818e+00
0.000000000000000000e+00 2.522240000000000029e-04 4.293532322222159969e+00
1.562500000000000000e-02 2.751829999999999901e-02 2.996331673098922010e+00
3.125000000000000173e-03 1.124159999999999916e-03 4.757363154216958989e+00
3.125000000000000173e-03 4.563900000000000075e-03 3.387552049386965969e+00
1.000000000000000056e-01 9.182310000000000472e-02 3.528331654373635384e+00
3.125000000000000173e-03 2.283009999999999814e-03 3.363333791316955868e+00
1.250000000000000069e-02 1.627779999999999895e-03 3.332464650528195182e+00
2.187499999999999861e-02 9.719150000000000011e-02 2.654855198138330152e+00
0.000000000000000000e+00 1.011460000000000050e-03 3.685523011763551793e+00
0.000000000000000000e+00 4.563779999999999920e-03 3.124042872661739523e+00
0.000000000000000000e+00 1.744000000000000107e-03 4.982833993755980906e+00
5.312499999999999861e-02 9.593469999999999775e-02 4.690519753815003412e-01
5.000000000000000278e-02 9.155929999999999624e-02 4.898523392648795216e+00
0.000000000000000000e+00 4.609950000000000137e-04 1.553195319364539362e+00
0.000000000000000000e+00 9.716870000000000498e-04 1.893041107699615644e+00
6.250000000000000347e-03 3.276799999999999852e-03 3.574776578955759732e+00
1.874999999999999931e-02 9.334439999999999404e-02 1.683498095037598397e+00
2.187499999999999861e-02 1.987459999999999921e-03 4.142763335833415717e+00
0.000000000000000000e+00 1.762099999999999951e-05 2.804152333474971837e+00
5.312499999999999861e-02 1.000539999999999936e-02 2.115698344187649127e+00
0.000000000000000000e+00 4.403200000000000126e-04 4.125984443740696506e+00
0.000000000000000000e+00 9.804799999999999367e-04 4.393679279790964287e+00
3.125000000000000173e-03 4.617150000000000420e-03 3.884713406843091743e+00
6.250000000000000347e-03 3.276799999999999852e-03 2.230985085255105638e+00
0.000000000000000000e+00 2.302070000000000136e-05 1.521140359037890244e+00
0.000000000000000000e+00 2.956160000000000103e-04 1.416584012056156361e+00
0.000000000000000000e+00 1.193279999999999905e-03 1.649746584834890673e+00
3.125000000000000173e-03 1.047870000000000051e-01 4.660467981641192914e+00
0.000000000000000000e+00 1.340739999999999987e-03 9.049304245569844696e-01
0.000000000000000000e+00 1.718209999999999963e-03 1.042318588912128252e+00
0.000000000000000000e+00 4.546749999999999577e-03 1.960093362249102800e+00
3.125000000000000173e-03 2.334140000000000173e-03 4.006677337388048876e+00
3.125000000000000173e-03 4.698370000000000324e-03 1.125172792757669349e+00
0.000000000000000000e+00 4.132860000000000353e-03 8.058360057468838544e-01
3.125000000000000173e-03 2.405819999999999920e-03 4.461780473716161488e+00
3.125000000000000173e-03 4.663549999999999814e-03 1.351003816406193270e-01
0.000000000000000000e+00 4.222629999999999786e-04 2.112926282921372856e+00
3.125000000000000173e-03 1.027899999999999994e-03 3.922713180074088868e+00
0.000000000000000000e+00 7.310889999999999793e-04 4.890865870785311209e+00
0.000000000000000000e+00 2.287550000000000146e-05 4.062170445107216921e+00
3.125000000000000173e-03 3.221569999999999989e-03 1.572834268146954706e+00
2.500000000000000139e-02 1.832000000000000078e-03 1.707951487868362150e+00
0.000000000000000000e+00 2.285940000000000004e-05 2.500011652468967505e+00
1.250000000000000069e-02 1.851970000000000092e-03 1.318200542244268858e-01
0.000000000000000000e+00 1.372040000000000065e-02 4.498176434981849603e+00
3.125000000000000173e-03 3.191999999999999959e-03 3.310516026650829779e+00
0.000000000000000000e+00 1.666559999999999982e-04 1.845540179335421360e+00
3.125000000000000173e-03 2.306879999999999868e-03 1.097014208149158510e+00
0.000000000000000000e+00 4.357930000000000202e-04 1.271098846925601267e+00
3.125000000000000173e-03 4.407549999999999663e-03 2.434001664984958957e+00
1.250000000000000069e-02 9.598270000000000413e-02 3.923595156239245707e-01
1.250000000000000069e-02 2.252160000000000013e-03 1.738169890603047829e+00
0.000000000000000000e+00 4.421920000000000017e-02 1.820105912844740992e+00
1.250000000000000069e-02 2.515330000000000083e-03 3.366517897109244206e+00
6.250000000000000347e-03 2.064260000000000053e-03 1.982403557808805505e+00
6.250000000000000347e-03 3.276799999999999852e-03 3.826823982461289742e+00
0.000000000000000000e+00 4.890800000000000008e-02 3.663288546526953127e+00
0.000000000000000000e+00 1.268520000000000064e-02 2.519340545832626788e+00
0.000000000000000000e+00 3.941120000000000105e-04 1.959328019748558525e+00
6.250000000000000347e-03 3.276799999999999852e-03 1.392602795022764184e+00
6.250000000000000347e-03 7.288320000000000042e-04 3.553584334878043371e+00
6.250000000000000347e-03 3.276799999999999852e-03 4.983481182341210847e+00
9.374999999999999653e-03 2.874620000000000040e-03 3.618293903137046907e+00
0.000000000000000000e+00 3.538430000000000069e-04 3.844758523023547703e+00
0.000000000000000000e+00 1.048000000000000103e-03 2.411488976526616312e+00
0.000000000000000000e+00 2.621629999999999794e-03 3.975189214426814832e+00
6.250000000000000347e-03 3.684479999999999960e-03 4.106574067319246346e+00
3.125000000000000173e-03 4.506050000000000159e-03 4.878560458277803491e+00
3.125000000000000173e-03 4.480129999999999703e-03 4.670345254004309332e+00
0.000000000000000000e+00 4.157440000000000094e-04 1.830795881665266966e+00
0.000000000000000000e+00 1.143300000000000089e-03 2.694232761429046885e+00
3.125000000000000173e-03 4.284669999999999972e-03 2.671187471138277036e+00
2.812500000000000069e-02 1.640699999999999928e-03 3.993221367392385979e+00
0.000000000000000000e+00 5.601860000000000173e-03 9.192982048925790739e-01
1.874999999999999931e-02 4.148220000000000206e-03 3.365395712184044541e+00
2.500000000000000139e-02 2.360769999999999882e-03 1.162381709516182582e+00
4.062500000000000139e-02 9.713810000000000500e-02 1.999131370822288645e+00
6.250000000000000347e-03 3.276799999999999852e-03 2.279261174820863101e+00
9.374999999999999653e-03 2.041020000000000161e-03 1.902027190551428548e+00
0.000000000000000000e+00 7.911040000000000476e-04 1.511520942884827079e+00
0.000000000000000000e+00 8.521600000000000268e-04 1.901399329321026954e+00
0.000000000000000000e+00 2.078079999999999945e-03 1.075799113013725661e-01
6.250000000000000347e-03 2.346290000000000042e-01 7.110036518214563062e-01
0.000000000000000000e+00 1.282109999999999934e-03 1.209895362139253860e+00
0.000000000000000000e+00 7.925119999999999908e-04 2.191028490094361736e+00
0.000000000000000000e+00 4.407620000000000114e-03 3.022996314630752135e+00
3.125000000000000173e-03 4.644670000000000049e-03 2.336309328416429132e+00
0.000000000000000000e+00 1.135420000000000049e-03 2.528964593721127585e+00
6.250000000000000347e-03 7.916350000000000817e-03 4.286015663067864523e+00
3.125000000000000000e-02 9.538130000000000219e-02 4.320381550823054972e+00
0.000000000000000000e+00 2.085249999999999864e-03 3.716331207934189695e+00
2.500000000000000139e-02 9.341689999999999716e-02 1.223241407837236228e+00
3.125000000000000000e-02 1.058530000000000026e-01 4.427051198924002229e+00
0.000000000000000000e+00 2.086399999999999973e-03 1.018472930444848767e+00
0.000000000000000000e+00 1.087360000000000106e-03 3.735658997419707639e+00
2.187499999999999861e-02 1.869060000000000079e-03 3.684672266797409002e+00
0.000000000000000000e+00 1.589120000000000127e-04 4.956747546119829373e+00
0.000000000000000000e+00 5.513790000000000184e-03 1.661925755180487130e+00
0.000000000000000000e+00 1.871040000000000030e-03 3.290201362304101984e+00
0.000000000000000000e+00 9.958619999999999192e-04 3.558794908672340718e+00
1.874999999999999931e-02 3.188990000000000054e-03 3.951056138891044345e+00
0.000000000000000000e+00 3.980220000000000286e-02 4.104874287407865197e+00
0.000000000000000000e+00 3.884159999999999891e-04 4.655703045506270676e+00
1.562500000000000000e-02 3.703630000000000116e-02 3.230970140541052249e+00
0.000000000000000000e+00 5.297149999999999602e-03 2.360510149578785022e+00
5.000000000000000278e-02 9.417219999999999758e-02 3.914152325954041167e+00
0.000000000000000000e+00 7.873649999999999399e-03 7.488744405319658348e-02
0.000000000000000000e+00 1.404480000000000051e-03 8.664722402856583905e-01
0.000000000000000000e+00 9.229519999999999955e-04 7.895816935431254624e-01
9.374999999999999653e-03 2.162429999999999908e-03 3.288946967005040856e-01
0.000000000000000000e+00 1.053440000000000105e-03 4.813207499239656073e+00
1.874999999999999931e-02 9.763620000000000632e-02 2.240866715261925712e+00
1.874999999999999931e-02 2.444930000000000107e-03 2.114317839672854138e+00
0.000000000000000000e+00 1.569269999999999997e-03 2.340888832573084777e+00
9.374999999999999653e-03 2.206210000000000115e-03 8.372825891341389992e-01
0.000000000000000000e+00 7.948159999999999470e-04 3.779994268832342463e+00
0.000000000000000000e+00 1.007620000000000087e-03 6.819424203376717175e-01
0.000000000000000000e+00 4.854849999999999964e-03 3.380796572442835046e+00
0.000000000000000000e+00 7.369240000000000209e-04 1.515893337404303765e+00
0.000000000000000000e+00 1.090620000000000044e-03 3.862230690441612158e+00
3.125000000000000173e-03 7.029699999999999838e-03 4.984206021338527748e+00
0.000000000000000000e+00 9.908479999999999024e-04 3.216328645837783995e+00
0.000000000000000000e+00 4.093440000000000164e-04 2.434030099494541410e+00
2.812500000000000069e-02 9.903180000000000316e-02 4.215167589896241296e+00
0.000000000000000000e+00 9.214079999999999710e-04 2.570186900360952986e+00
0.000000000000000000e+00 2.501499999999999817e-03 3.865149116771371407e-01
2.187499999999999861e-02 2.473410000000000105e-03 1.418967003088352774e+00
6.250000000000000347e-03 9.740010000000000334e-02 4.601345321904430463e+00
0.000000000000000000e+00 6.070080000000000267e-03 3.398142558817172088e+00
0.000000000000000000e+00 4.232829999999999926e-03 2.401436953921638473e+00
0.000000000000000000e+00 4.353860000000000195e-03 1.498500434698650352e+00
2.812500000000000069e-02 2.692829999999999877e-02 3.524145420325038636e+00
1.250000000000000069e-02 9.576629999999999865e-02 3.128807018968793319e-01
3.125000000000000173e-03 1.022779999999999939e-01 4.831796119671359691e+00
2.500000000000000139e-02 8.110910000000000689e-03 4.706452295387764106e-01
0.000000000000000000e+00 1.136700000000000037e-03 2.681859775768089094e+00
0.000000000000000000e+00 1.040059999999999986e-03 2.876175370885440508e+00
0.000000000000000000e+00 1.071679999999999985e-03 2.545259320455413921e+00
3.125000000000000000e-02 9.357219999999999427e-02 4.239519102301693820e+00
0.000000000000000000e+00 1.795139999999999974e-03 4.852918577721531790e+00
0.000000000000000000e+00 2.289109999999999840e-05 5.618297179308362477e-01
6.250000000000000347e-03 7.989080000000000834e-03 1.074125304424915051e+00
1.874999999999999931e-02 2.629890000000000179e-03 7.154824453283015195e-01
4.687500000000000000e-02 7.134780000000000288e-03 3.783562995176672050e+00
1.562500000000000000e-02 1.512770000000000087e-03 1.352629212482938659e+00
2.500000000000000139e-02 1.677499999999999955e-03 4.444154768054886517e+00
3.125000000000000173e-03 1.718340000000000058e-03 3.197808417701950567e+00
0.000000000000000000e+00 6.160510000000000291e-02 2.331779114336339109e+00
2.500000000000000139e-02 1.178500000000000034e-02 1.736978007455484141e+00
0.000000000000000000e+00 8.911449999999999797e-04 4.226716161411418149e+00
2.187499999999999861e-02 1.751299999999999905e-03 8.031106205170374102e-01
0.000000000000000000e+00 1.596080000000000068e-02 4.960949840906111241e+00
0.000000000000000000e+00 3.415300000000000020e-03 2.080095824539851534e-01
0.000000000000000000e+00 4.893759999999999603e-03 4.648160683510875302e+00
0.000000000000000000e+00 1.571260000000000105e-03 1.900851737440043543e+00
0.000000000000000000e+00 4.331070000000000232e-03 2.890208670692891335e+00
2.500000000000000139e-02 9.306939999999999658e-02 5.631296699863030941e-01
6.250000000000000347e-03 4.024790000000000312e-02 1.707755565915070051e-01
0.000000000000000000e+00 1.758210000000000068e-03 1.030532885390923470e+00
2.500000000000000139e-02 3.957719999999999988e-02 3.894749026209904930e+00
1.874999999999999931e-02 1.986690000000000157e-03 3.235345582724121982e+00
3.125000000000000173e-03 4.439359999999999834e-03 6.148150167536536870e-01
3.125000000000000173e-03 1.429570000000000016e-03 2.907998091665120466e+00
0.000000000000000000e+00 4.132860000000000136e-04 4.078948167531200930e+00
0.000000000000000000e+00 9.615999999999999548e-04 2.918207484576631483e+00
2.812500000000000069e-02 9.398800000000000210e-02 2.397536993395233296e+00
2.812500000000000069e-02 2.995390000000000118e-03 2.556210657145002729e-01
0.000000000000000000e+00 1.794749999999999904e-03 3.171282601228057274e+00
0.000000000000000000e+00 2.504059999999999793e-03 4.898197050801410768e+00
6.250000000000000347e-03 3.276799999999999852e-03 1.985179263507501179e+00
1.250000000000000069e-02 5.395780000000000194e-03 6.003597969386681443e-01
0.000000000000000000e+00 7.169820000000000143e-04 9.198998424180754307e-01
2.500000000000000139e-02 2.705790000000000018e-03 2.956725815307222227e+00
0.000000000000000000e+00 3.827200000000000220e-04 4.160997577749704135e+00
0.000000000000000000e+00 7.378859999999999890e-04 4.249968730940911765e-01
3.125000000000000173e-03 1.723099999999999979e-03 4.900449212609113481e+00
1.562500000000000000e-02 1.388420000000000019e-03 1.364769884280929713e+00
0.000000000000000000e+00 1.166850000000000092e-03 4.256419380566864419e+00
0.000000000000000000e+00 2.234190000000000134e-02 2.485260717093799698e+00
0.000000000000000000e+00 3.926399999999999812e-04 3.394278943786090519e+00
0.000000000000000000e+00 1.360510000000000105e-03 9.070997767535476930e-01
6.250000000000000347e-03 1.031390000000000085e-02 7.696539258102647052e-01
0.000000000000000000e+00 3.482639999999999846e-04 3.333722152580792519e-01
2.812500000000000069e-02 2.454720000000000079e-03 2.415175659194186863e+00
3.125000000000000173e-03 6.784769999999999864e-03 4.261077746319746673e+00
0.000000000000000000e+00 9.481599999999999751e-04 3.242504428988056908e+00
0.000000000000000000e+00 1.145020000000000066e-03 2.394249309057773889e+00
0.000000000000000000e+00 3.616019999999999846e-04 3.819938229829888954e+00
0.000000000000000000e+00 8.656000000000000066e-04 3.631294423326080878e+00
4.062500000000000139e-02 3.155829999999999746e-02 1.569221206937143620e+00
7.187499999999999445e-02 3.625280000000000169e-02 4.284772318879967123e+00
0.000000000000000000e+00 1.944100000000000038e-04 2.173993536830266748e+00
1.250000000000000069e-02 7.541759999999999567e-04 4.404476584047094967e+00
3.125000000000000173e-03 4.475899999999999671e-03 4.116380244460954074e+00
1.874999999999999931e-02 2.047230000000000143e-03 3.122942878489098462e+00
0.000000000000000000e+00 4.124520000000000009e-04 2.878870009515126061e+00
1.874999999999999931e-02 4.977279999999999725e-03 4.942604125642974466e+00
0.000000000000000000e+00 6.089599999999999701e-04 1.250290359131718265e+00
0.000000000000000000e+00 1.300219999999999935e-03 1.628495561955436433e+00
3.125000000000000173e-03 5.144750000000000234e-04 3.499060513757624946e+00
6.250000000000000347e-03 2.044219999999999805e-03 3.492063182354442574e+00
0.000000000000000000e+00 3.379200000000000172e-04 8.122124422852428083e-03
6.250000000000000347e-03 3.276799999999999852e-03 4.440564393949411048e+00
0.000000000000000000e+00 1.307009999999999943e-03 4.199207505201837165e+00
1.874999999999999931e-02 4.148220000000000206e-03 3.523062146842563358e+00
0.000000000000000000e+00 9.383679999999999712e-04 3.941936243597300660e+00
0.000000000000000000e+00 7.454330000000000678e-02 2.052972154443926556e+00
0.000000000000000000e+00 1.138050000000000042e-03 2.705346167963548876e+00
3.125000000000000173e-03 1.877820000000000097e-03 4.946366522886464168e+00
0.000000000000000000e+00 1.976579999999999917e-03 2.796643392613949342e+00
0.000000000000000000e+00 1.072830000000000094e-03 4.206253278731385770e+00
4.062500000000000139e-02 9.591300000000000520e-03 4.274171671830401031e+00
3.125000000000000173e-03 1.804100000000000105e-03 2.081854972889354727e+00
0.000000000000000000e+00 8.807039999999999487e-04 2.140638340221903135e+00
1.874999999999999931e-02 3.619649999999999864e-03 1.100203256832507748e+00
0.000000000000000000e+00 7.858520000000000783e-03 4.376638679961807554e+00
1.562500000000000000e-02 1.933309999999999933e-03 2.027018483827572659e+00
3.125000000000000173e-03 5.176749999999999928e-03 1.800849223362000373e+00
2.812500000000000069e-02 9.637309999999999627e-03 3.086879627228247269e+00
0.000000000000000000e+00 1.157499999999999892e-03 4.778101307163168165e+00
0.000000000000000000e+00 6.191359999999999919e-03 3.521135154330286454e+00
2.187499999999999861e-02 1.938180000000000068e-03 7.056149786188620210e-01
9.374999999999999653e-03 1.172290000000000094e-03 3.089066348202689216e+00
0.000000000000000000e+00 2.664829999999999977e-03 9.143669628039613473e-01
0.000000000000000000e+00 2.476860000000000173e-02 2.788448902530658469e+00
0.000000000000000000e+00 9.779840000000001015e-04 1.491222698721901718e+00
3.125000000000000173e-03 2.586300000000000144e-03 1.502369933965079341e+00
2.187499999999999861e-02 1.067379999999999995e-01 3.862469503429102780e+00
1.562500000000000000e-02 9.192029999999999645e-02 2.735487159370249444e+00
0.000000000000000000e+00 1.961339999999999785e-03 1.346236429669356305e+00
3.125000000000000000e-02 9.114049999999999929e-02 1.840458358119270610e+00
4.062500000000000139e-02 9.712900000000000006e-03 3.197381745388301777e+00
0.000000000000000000e+00 1.683650000000000077e-03 4.455065154446485876e-01
0.000000000000000000e+00 3.904639999999999804e-04 3.887394197669613582e-01
1.250000000000000069e-02 1.517949999999999898e-03 2.916209174537870430e-01
2.812500000000000069e-02 6.436880000000000379e-02 4.138414566489223567e+00
0.000000000000000000e+00 1.498690000000000005e-03 3.366100126833199369e+00
0.000000000000000000e+00 1.347840000000000106e-03 3.587271571872749476e+00
0.000000000000000000e+00 1.024720000000000015e-03 3.064377926127193508e+00
3.125000000000000000e-02 1.310719999999999941e-02 4.667779675837518960e-01
0.000000000000000000e+00 4.695039999999999825e-04 3.606645156796300933e-01
0.000000000000000000e+00 1.356100000000000057e-03 3.901360308244617325e+00
3.125000000000000173e-03 5.101699999999999811e-03 1.491664427285997352e+00
0.000000000000000000e+00 1.046980000000000089e-03 4.457569451098379432e+00
0.000000000000000000e+00 1.255169999999999897e-03 6.914689366685711214e-01
0.000000000000000000e+00 5.156930000000000108e-04 2.505077653857427755e+00
3.125000000000000173e-03 1.332520000000000059e-02 1.585496034692723821e+00
6.250000000000000347e-03 2.572750000000000037e-02 4.593478625574269003e+00
6.250000000000000347e-03 3.276799999999999852e-03 7.628970516138111613e-01
9.374999999999999653e-03 1.252859999999999955e-03 1.228666471781775904e+00
1.250000000000000069e-02 1.635780000000000090e-03 3.076741929813495258e+00
0.000000000000000000e+00 7.290369999999999793e-04 1.180493586600160238e+00
2.500000000000000139e-02 2.016959999999999933e-03 3.562150814425448342e+00
3.125000000000000173e-03 1.770110000000000086e-03 2.180305863164285540e+00
0.000000000000000000e+00 7.255099999999999570e-04 8.472134701329370188e-01
0.000000000000000000e+00 2.309630000000000016e-03 4.216038555401006249e+00
0.000000000000000000e+00 4.112000000000000204e-04 4.665057389962853129e+00
6.250000000000000347e-03 1.761729999999999893e-02 2.192935324209988046e+00
0.000000000000000000e+00 1.187459999999999991e-03 2.110212741076681997e+00
0.000000000000000000e+00 2.466240000000000186e-03 4.203672167101890622e-01
0.000000000000000000e+00 2.642690000000000056e-03 3.496406183398157452e+00
1.874999999999999931e-02 4.760699999999999654e-03 3.558769625214744270e+00
0.000000000000000000e+00 2.783680000000000182e-03 3.603659931740743172e+00
0.000000000000000000e+00 1.175299999999999999e-03 3.329305869499204373e+00
0.000000000000000000e+00 4.579839999999999844e-04 2.348869524544650034e-01
3.125000000000000173e-03 8.357759999999999885e-04 7.474239154686612707e-01
0.000000000000000000e+00 2.965760000000000011e-04 1.636375241563827743e+00
0.000000000000000000e+00 5.395480000000000458e-04 3.455332816648424732e+00
0.000000000000000000e+00 3.898589999999999695e-02 4.206228230075961250e+00
0.000000000000000000e+00 3.944339999999999847e-04 1.029690527350990426e-01
0.000000000000000000e+00 1.292219999999999957e-03 1.431172166532517664e+00
3.125000000000000173e-03 1.582910000000000090e-03 2.930884340208710803e+00
3.125000000000000173e-03 1.750660000000000020e-03 1.758349062145360797e+00
0.000000000000000000e+00 1.149250000000000098e-03 3.340019367522065075e+00
0.000000000000000000e+00 1.086399999999999953e-03 5.348278815631751781e-01
2.500000000000000139e-02 2.894589999999999837e-03 2.316451634437542317e+00
0.000000000000000000e+00 7.050879999999999821e-04 3.118880560120906864e-01
0.000000000000000000e+00 1.912120000000000139e-02 3.694599591683514372e+00
1.562500000000000000e-02 2.544639999999999923e-03 1.853016875411674480e+00
9.687500000000000278e-02 2.762210000000000013e-02 1.943353819163239349e+00
4.374999999999999722e-02 6.539649999999999630e-02 4.233952510420216697e+00
1.874999999999999931e-02 9.772300000000000431e-02 1.182452149480440085e+00
2.187499999999999861e-02 5.150079999999999589e-03 4.888816638715576257e-01
0.000000000000000000e+00 5.435880000000000139e-04 4.332332536231779940e+00
0.000000000000000000e+00 4.855230000000000309e-03 1.803836314311519473e+00
1.874999999999999931e-02 2.378369999999999877e-03 1.823374545020850501e-02
0.000000000000000000e+00 2.653490000000000102e-04 4.455650213617207811e+00
0.000000000000000000e+00 4.775490000000000290e-03 4.016281990281338921e+00
2.500000000000000139e-02 1.535619999999999910e-03 2.842524645381497184e+00
6.562500000000000278e-02 3.826679999999999665e-02 1.970460661067435115e+00
1.562500000000000000e-02 7.644159999999999670e-04 7.576171513658191969e-02
0.000000000000000000e+00 0.000000000000000000e+00 1.213439111914624835e+00
0.000000000000000000e+00 4.437579999999999997e-03 9.194333848489627536e-01
0.000000000000000000e+00 8.977920000000000128e-04 2.337542267415155806e+00
3.125000000000000173e-03 2.876969999999999961e-03 1.093466632426097096e+00
0.000000000000000000e+00 2.734530000000000207e-03 8.302888187759360772e-01
0.000000000000000000e+00 4.507599999999999628e-03 4.035174696594196142e+00
0.000000000000000000e+00 5.131919999999999885e-04 2.009275215352315680e+00
0.000000000000000000e+00 1.079740000000000040e-03 5.371641021280404438e-01
0.000000000000000000e+00 2.296419999999999945e-05 3.623960338678193338e+00
3.125000000000000173e-03 1.055680000000000030e-03 3.441563884840888932e+00
1.062499999999999972e-01 4.802150000000000168e-02 4.197445915384262483e-01
5.625000000000000139e-02 9.130690000000000334e-03 3.280455467083050358e+00
0.000000000000000000e+00 5.920640000000000017e-04 1.945873745748178951e+00
0.000000000000000000e+00 5.162940000000000411e-03 1.477931059064475638e+00
0.000000000000000000e+00 3.728000000000000085e-04 4.258525996799710889e+00
0.000000000000000000e+00 3.885439999999999987e-04 8.946138933945502192e-01
0.000000000000000000e+00 1.072830000000000094e-03 2.142508557278106185e+00
0.000000000000000000e+00 4.446140000000000335e-03 4.635732327415166054e+00
1.562500000000000000e-02 7.340800000000000190e-04 8.481613005898108737e-01
0.000000000000000000e+00 9.090689999999999882e-02 5.583357503101726849e-01
2.812500000000000069e-02 1.799229999999999970e-03 1.482814700980463751e+00
0.000000000000000000e+00 1.039360000000000023e-03 4.537529880220609435e+00
0.000000000000000000e+00 1.178999999999999927e-03 1.159251829303283854e+00
0.000000000000000000e+00 4.136699999999999882e-04 2.513782251590224170e+00
2.500000000000000139e-02 2.034750000000000100e-03 4.341455906633916229e+00
0.000000000000000000e+00 2.469820000000000175e-03 4.797689379050259717e+00
6.250000000000000000e-02 3.964600000000000068e-02 4.661655702972475446e+00
0.000000000000000000e+00 1.273660000000000026e-03 2.900768961787684397e+00
0.000000000000000000e+00 3.822720000000000154e-04 4.247174957985614618e+00
0.000000000000000000e+00 9.850239999999999257e-04 4.175268897682610003e+00
7.187499999999999445e-02 9.137059999999999627e-02 3.820725613546049004e+00
1.874999999999999931e-02 1.683899999999999893e-03 3.129117878344083614e+00
0.000000000000000000e+00 3.815040000000000119e-04 4.203711482036683655e+00
0.000000000000000000e+00 2.296610000000000022e-05 5.127598560005769412e-01
0.000000000000000000e+00 3.785920000000000257e-02 5.824326195726631239e-01
1.562500000000000000e-02 2.097920000000000080e-03 1.255824614784470938e+00
2.500000000000000139e-02 9.174670000000000047e-02 2.176703223099232254e+00
3.125000000000000173e-03 2.361999999999999864e-02 4.135292861341466342e-01
5.000000000000000278e-02 9.205850000000000144e-02 1.923662166290245334e+00
0.000000000000000000e+00 5.293439999999999517e-04 2.805813478228493363e+00
1.250000000000000069e-02 2.840000000000000076e-03 4.321680778302228187e-01
6.250000000000000347e-03 4.823420000000000138e-03 2.799503500668073741e+00
3.125000000000000000e-02 9.101639999999999731e-02 3.425264085367516920e+00
9.374999999999999653e-03 2.859200000000000109e-03 2.111175792248393357e+00
0.000000000000000000e+00 1.237889999999999954e-03 3.897159058173211843e+00
0.000000000000000000e+00 6.604230000000000430e-04 3.991632888272839130e-01
6.250000000000000347e-03 2.718209999999999984e-03 3.309849508620776426e+00
0.000000000000000000e+00 1.670399999999999999e-04 3.848873107011068662e+00
6.250000000000000347e-03 3.276799999999999852e-03 2.836160997841746134e+00
1.250000000000000069e-02 1.546180000000000080e-03 2.609289853018389671e+00
0.000000000000000000e+00 1.180859999999999939e-03 3.026271775575018808e+00
0.000000000000000000e+00 9.394320000000000274e-04 4.658200030233282440e+00
2.500000000000000139e-02 9.156630000000000325e-02 9.683977888630385111e-01
9.374999999999999653e-03 1.965310000000000060e-03 2.606286876419073195e+00
0.000000000000000000e+00 2.226430000000000162e-03 1.819696552055188876e+00
3.125000000000000173e-03 8.667520000000000389e-04 2.623378929265469672e+00
0.000000000000000000e+00 7.248689999999999474e-04 4.546312014006391955e+00
0.000000000000000000e+00 2.651900000000000004e-03 3.346439851444371616e-01
9.374999999999999653e-03 1.597569999999999980e-03 3.940235226018100612e+00
2.812500000000000069e-02 3.581630000000000143e-03 3.230546982900182051e+00
1.562500000000000000e-02 4.567100000000000153e-03 2.703250522242714560e+00
0.000000000000000000e+00 2.948480000000000068e-04 1.826512013932588108e+00
3.125000000000000173e-03 4.688259999999999650e-03 3.419618627077547934e+00
1.874999999999999931e-02 1.957309999999999866e-03 4.322454558062911900e+00
0.000000000000000000e+00 2.692479999999999808e-04 2.850869297247204059e+00
0.000000000000000000e+00 3.707070000000000135e-04 3.438620540274162085e-02
0.000000000000000000e+00 7.338880000000000316e-04 3.817722084104353097e+00
1.250000000000000069e-02 9.390690000000000148e-02 1.309188038837835188e+00
3.125000000000000173e-03 1.490690000000000027e-03 8.656993136886198537e-01
0.000000000000000000e+00 2.611619999999999827e-03 4.352833046439996245e+00
0.000000000000000000e+00 1.090819999999999941e-03 7.464701768900189327e-01
0.000000000000000000e+00 1.201220000000000022e-03 3.680256485274662204e+00
0.000000000000000000e+00 1.488130000000000052e-03 8.672736493924648737e-01
0.000000000000000000e+00 1.050050000000000072e-03 3.747364679301295354e+00
1.562500000000000000e-02 1.589380000000000046e-03 6.692687923385953752e-02
0.000000000000000000e+00 2.659730000000000080e-02 4.807485063170044093e+00
0.000000000000000000e+00 1.236489999999999985e-02 9.416887231265136382e-01
9.374999999999999653e-03 2.264770000000000151e-03 3.610712375066035484e+00
3.125000000000000173e-03 1.566539999999999946e-02 3.636095867750279709e+00
3.125000000000000173e-03 1.019349999999999944e-02 1.470136663827442680e-01
9.374999999999999653e-03 9.953270000000000173e-02 2.633382325992930095e+00
3.125000000000000173e-03 2.337420000000000209e-03 1.600706485286882863e+00
0.000000000000000000e+00 1.515589999999999993e-02 2.401452063987453478e+00
6.250000000000000347e-03 2.757609999999999922e-02 1.583047712284624708e+00
0.000000000000000000e+00 3.507200000000000031e-04 3.895288362349691447e-01
3.125000000000000173e-03 4.442109999999999982e-03 5.287346640441076273e-01
2.812500000000000069e-02 9.821870000000000600e-02 4.924784028360440491e-02
0.000000000000000000e+00 3.794919999999999912e-04 3.364766936443474243e+00
3.125000000000000173e-03 2.284220000000000000e-03 3.038441682689162704e+00
0.000000000000000000e+00 5.400960000000000006e-04 4.106362899275500133e+00
0.000000000000000000e+00 7.133260000000000208e-04 4.657941201867336289e+00
9.374999999999999653e-03 2.608829999999999916e-03 4.192186903450147994e+00
0.000000000000000000e+00 4.338060000000000136e-04 1.114467283814806642e+00
0.000000000000000000e+00 2.096639999999999875e-03 1.380247445972928588e+00
0.000000000000000000e+00 9.591820000000000467e-04 5.500618158549924752e-01
0.000000000000000000e+00 2.299959999999999914e-05 3.327819028270901924e+00
0.000000000000000000e+00 1.820690000000000086e-01 6.557266060641719907e-01
0.000000000000000000e+00 4.717659999999999909e-02 1.825779240523095925e+00
2.812500000000000069e-02 3.586450000000000141e-03 3.503459522117868374e+00
2.500000000000000139e-02 1.830140000000000065e-03 4.874667566731255341e+00
6.250000000000000347e-03 9.904899999999999816e-02 2.219458498178924266e+00
0.000000000000000000e+00 1.930049999999999995e-03 3.877619327823427220e+00
0.000000000000000000e+00 2.497730000000000089e-03 4.243105952035338468e+00
1.874999999999999931e-02 2.596799999999999803e-03 3.817604372803995449e+00
6.250000000000000347e-03 3.276799999999999852e-03 1.669087619992731808e+00
2.500000000000000139e-02 3.603649999999999909e-03 3.021436550809033506e+00
2.812500000000000069e-02 3.540100000000000018e-03 2.538781617138266888e+00
0.000000000000000000e+00 7.627520000000000047e-04 1.305169751892967245e+00
1.000000000000000056e-01 9.339530000000000054e-02 4.686954450855791876e+00
0.000000000000000000e+00 0.000000000000000000e+00 1.708496181059051544e+00
0.000000000000000000e+00 3.471740000000000069e-04 3.788597793776273370e+00
6.250000000000000347e-03 9.903080000000000216e-02 5.256483989588933703e-01
3.125000000000000173e-03 2.900929999999999915e-03 2.826677151272126487e+00
8.125000000000000278e-02 9.136589999999999989e-02 3.720939590310283762e+00
0.000000000000000000e+00 9.511679999999999571e-04 4.201572179407620844e+00
0.000000000000000000e+00 1.205700000000000088e-03 8.782364463264824561e-01
3.125000000000000173e-03 3.157449999999999840e-02 2.833786220937608125e+00
6.250000000000000347e-03 3.276799999999999852e-03 3.092577738214263849e+00
3.125000000000000173e-03 4.476220000000000372e-03 1.677872718002957342e+00
0.000000000000000000e+00 1.265060000000000073e-01 4.569591142076506740e-01
0.000000000000000000e+00 2.782080000000000035e-04 2.357310138078847483e+00
0.000000000000000000e+00 3.982720000000000249e-04 3.724861834938038463e+00
5.312499999999999861e-02 9.107800000000000618e-02 3.374575805452693977e+00
0.000000000000000000e+00 1.108669999999999968e-03 1.251016856557121582e+00
3.125000000000000173e-03 7.678009999999999870e-03 4.735121737982639800e+00
0.000000000000000000e+00 4.935680000000000015e-04 3.789418074893231125e+00
0.000000000000000000e+00 4.610880000000000360e-03 1.621305004408303940e+00
0.000000000000000000e+00 9.920000000000000432e-04 1.500119165199141236e+00
1.250000000000000069e-02 1.487940000000000096e-03 4.985884463324797622e+00
0.000000000000000000e+00 1.246530000000000034e-03 2.247054119499441338e+00
0.000000000000000000e+00 0.000000000000000000e+00 9.278815138843765631e-01
1.874999999999999931e-02 2.435520000000000046e-02 2.620922020561022858e+00
0.000000000000000000e+00 1.178990000000000073e-02 3.305295534202334906e+00
0.000000000000000000e+00 5.401600000000000325e-04 2.957841261530420596e+00
3.125000000000000173e-03 6.482560000000000492e-04 2.690339047230938530e+00
9.374999999999999653e-03 6.770690000000000215e-03 1.452783817856472259e+00
0.000000000000000000e+00 1.067969999999999900e-03 3.055488276646649126e+00
0.000000000000000000e+00 4.170050000000000232e-04 4.975863643381702950e+00
3.437500000000000278e-02 9.210430000000000353e-03 1.345734735493242518e+00
0.000000000000000000e+00 4.157219999999999882e-04 1.607522941968166919e+00
3.125000000000000173e-03 4.943040000000000107e-03 9.453752169576279396e-02
3.437500000000000278e-02 9.688709999999999684e-03 3.620451059789303372e+00
0.000000000000000000e+00 5.772919999999999961e-03 4.658463519799397545e+00
3.125000000000000173e-03 8.879359999999999770e-04 4.539868017757636487e+00
0.000000000000000000e+00 5.121019999999999565e-04 3.658086272359365232e+00
3.437500000000000278e-02 9.105810000000000293e-02 2.535524590862310745e+00
0.000000000000000000e+00 5.101139999999999885e-04 2.292759701220321134e+00
3.125000000000000173e-03 9.672650000000000692e-02 3.868459073924304548e+00
3.125000000000000000e-02 3.435730000000000034e-02 2.168813520359642144e+00
0.000000000000000000e+00 1.505669999999999925e-02 1.353250770875352726e+00
6.250000000000000000e-02 9.149160000000000625e-02 1.379301604896716160e+00
3.125000000000000173e-03 4.519360000000000044e-03 2.556100899254148295e+00
3.125000000000000173e-03 9.516159999999999636e-04 9.269455434379419989e-01
0.000000000000000000e+00 1.129280000000000084e-03 4.904896084828513025e+00
3.125000000000000173e-03 1.557439999999999996e-03 2.560093440355491357e+00
3.125000000000000173e-03 7.266690000000000649e-02 2.044351611565535798e+00
3.125000000000000173e-03 3.422269999999999826e-03 3.537517953873625665e+00
0.000000000000000000e+00 1.625179999999999941e-03 6.402603202541545802e-01
0.000000000000000000e+00 4.575359999999999779e-04 2.942116362274049823e-01
6.250000000000000000e-02 9.118139999999999579e-02 2.317408038941737303e-01
0.000000000000000000e+00 8.781439999999999732e-04 4.462313827367676566e+00
0.000000000000000000e+00 5.121919999999999642e-04 2.714499102820675080e+00
3.125000000000000000e-02 3.170520000000000282e-02 3.635125505292666315e+00
3.437500000000000278e-02 9.808429999999999926e-02 2.159786347096389392e+00
2.187499999999999861e-02 9.311049999999999882e-02 4.315283113880886035e+00
0.000000000000000000e+00 2.305230000000000126e-03 8.303132998134327147e-01
9.374999999999999653e-03 6.877000000000000300e-03 8.565463586465693613e-01
0.000000000000000000e+00 2.485760000000000053e-03 1.159723158726382763e+00
0.000000000000000000e+00 1.803329999999999907e-03 2.117952852440224909e+00
0.000000000000000000e+00 2.261370000000000001e-05 2.539177994046193376e-01
1.562500000000000000e-02 1.017220000000000103e-03 2.619241159934820873e-01
0.000000000000000000e+00 1.006210000000000004e-03 3.586563843615883762e+00
3.125000000000000173e-03 4.785600000000000097e-03 1.288105962536451710e+00
0.000000000000000000e+00 3.346729999999999844e-02 8.773517606636488386e-01
7.812500000000000000e-02 9.297669999999999546e-02 4.261087845887370662e+00
0.000000000000000000e+00 2.300139999999999970e-05 5.713117865714650856e-01
0.000000000000000000e+00 4.576000000000000098e-04 2.049653843535049091e+00
1.562500000000000000e-02 1.670660000000000027e-03 1.264731009079255841e+00
0.000000000000000000e+00 4.933760000000000142e-04 4.326054103857817523e+00
0.000000000000000000e+00 3.966719999999999860e-04 4.274451278343372351e+00
0.000000000000000000e+00 1.156289999999999922e-03 4.320639170446367139e+00
6.250000000000000347e-03 1.813570000000000026e-03 2.141652504624898867e+00
0.000000000000000000e+00 1.117890000000000073e-03 2.309331565500624350e+00
7.187499999999999445e-02 9.171940000000000648e-02 2.432956399685952675e+00
0.000000000000000000e+00 1.828669999999999905e-03 4.314464840559337766e+00
0.000000000000000000e+00 3.912960000000000158e-04 3.065412112303729675e+00
9.374999999999999653e-03 2.428099999999999876e-03 4.226371560794975224e+00
2.187499999999999861e-02 8.170749999999999194e-03 1.997502130237372997e+00
0.000000000000000000e+00 5.907199999999999821e-04 4.157007046657114735e+00
0.000000000000000000e+00 1.389379999999999955e-03 2.412010847762972254e+00
6.250000000000000347e-03 2.012159999999999817e-03 1.514503644283957673e+00
0.000000000000000000e+00 5.290880000000000409e-04 2.043177951716396157e-01
0.000000000000000000e+00 2.484070000000000028e-02 1.324336397404443755e+00
0.000000000000000000e+00 1.556349999999999964e-03 7.603421035451207732e-01
1.874999999999999931e-02 2.194429999999999818e-03 6.724130089140245570e-01
3.125000000000000173e-03 1.892459999999999976e-02 4.683149844581765642e+00
6.250000000000000347e-03 3.276799999999999852e-03 4.680905067255998198e+00
0.000000000000000000e+00 4.216220000000000232e-04 3.652623080079062223e+00
3.125000000000000173e-03 3.789439999999999822e-03 1.154779626935235726e+00
3.125000000000000000e-02 9.444080000000000530e-02 4.762957003060558137e+00
0.000000000000000000e+00 4.452479999999999763e-04 2.468380363498971164e+00
0.000000000000000000e+00 7.541120000000000332e-04 6.946599529362335046e-01
0.000000000000000000e+00 4.161710000000000105e-04 3.341288497575931604e+00
3.125000000000000173e-03 1.001800000000000086e-02 2.859716446068170548e+00
0.000000000000000000e+00 1.429719999999999949e-02 4.766759899573863812e+00
0.000000000000000000e+00 1.958979999999999923e-03 2.500974990725647995e+00
0.000000000000000000e+00 4.934530000000000340e-03 2.439925307666465759e+00
2.187499999999999861e-02 2.107330000000000141e-03 4.045548136134579309e+00
5.312499999999999861e-02 8.938110000000000846e-03 4.273253228683050686e+00
0.000000000000000000e+00 2.648380000000000092e-03 4.996976505662134471e+00
0.000000000000000000e+00 4.432959999999999787e-04 3.037554550896613748e+00
3.125000000000000000e-02 9.164229999999999599e-02 8.115428049073691863e-01
4.062500000000000139e-02 9.150719999999999341e-03 2.154276230542338411e+00
2.187499999999999861e-02 4.325569999999999936e-03 1.023321790108886464e+00
0.000000000000000000e+00 7.328200000000000209e-04 1.127235312205948636e+00
0.000000000000000000e+00 1.830019999999999911e-03 3.717689194923538665e+00
1.874999999999999931e-02 1.855490000000000004e-03 4.284420190895731118e+00
3.125000000000000000e-02 4.019910000000000150e-02 4.810518489331781389e+00
3.125000000000000000e-02 9.232010000000000216e-02 4.018667944218398347e+00
4.062500000000000139e-02 9.225479999999999792e-02 7.244716375179516277e-01
1.250000000000000069e-02 2.217600000000000127e-03 4.062240191549427060e+00
5.000000000000000278e-02 9.115249999999999742e-02 2.454089878341134234e+00
4.374999999999999722e-02 1.067310000000000064e-01 8.405476154551400070e-01
0.000000000000000000e+00 9.716870000000000498e-04 3.468832174050742623e+00
7.812500000000000000e-02 9.145019999999999538e-02 1.528797102908596717e+00
2.500000000000000139e-02 2.265469999999999897e-03 6.302442633989435716e-02
0.000000000000000000e+00 1.037630000000000106e-03 3.231144449085792569e+00
0.000000000000000000e+00 6.962440000000000295e-02 2.962954644911297120e+00
0.000000000000000000e+00 4.287399999999999913e-04 4.463708228027323699e+00
1.874999999999999931e-02 2.188419999999999949e-03 1.645933042011893388e+00
0.000000000000000000e+00 9.603199999999999670e-04 3.700897549160209632e+00
2.187499999999999861e-02 2.800719999999999946e-02 9.470355741716313114e-01
2.187499999999999861e-02 2.631810000000000052e-03 2.668067239151816317e+00
1.562500000000000000e-02 7.125119999999999978e-04 3.082163651503119439e+00
3.125000000000000173e-03 3.385280000000000060e-03 3.967908658323511251e+00
0.000000000000000000e+00 1.014209999999999981e-03 1.656401912312471802e+00
2.187499999999999861e-02 3.271549999999999805e-03 3.509269619163929654e+00
0.000000000000000000e+00 4.965309999999999689e-03 1.410481076226863806e+00
0.000000000000000000e+00 7.265999999999999889e-04 4.676931246746915072e+00
0.000000000000000000e+00 5.601860000000000173e-03 2.504330331653492170e+00
3.125000000000000173e-03 2.021449999999999983e-02 7.129272908000661158e-01
9.374999999999999653e-03 2.015170000000000156e-03 3.874879586258458630e+00
0.000000000000000000e+00 1.942570000000000061e-02 4.581673338044918609e+00
0.000000000000000000e+00 1.843199999999999917e-03 2.096601845938097952e+00
0.000000000000000000e+00 1.416959999999999932e-04 4.153963811765248870e+00
3.125000000000000173e-03 1.753919999999999958e-03 1.334589205353151176e+00
2.500000000000000139e-02 3.128580000000000163e-03 6.316286767977508099e-01
0.000000000000000000e+00 2.915259999999999813e-03 8.382672272444813277e-01
2.500000000000000139e-02 4.072000000000000099e-03 1.839282348795772570e+00
3.125000000000000173e-03 1.777079999999999979e-02 1.848182485689747745e+00
0.000000000000000000e+00 4.529489999999999905e-02 2.211698854295618411e-01
3.125000000000000173e-03 3.920900000000000080e-02 5.610930149636633724e-01
3.749999999999999861e-02 5.515650000000000414e-03 2.329573522095871763e+00
0.000000000000000000e+00 9.210239999999999963e-04 3.392739111203057600e+00
0.000000000000000000e+00 1.965050000000000032e-04 2.392491098014648543e-01
0.000000000000000000e+00 1.083779999999999900e-03 2.889861655937538742e+00
0.000000000000000000e+00 2.458430000000000164e-03 3.232752450231326513e+00
2.812500000000000069e-02 1.478979999999999965e-03 1.158947080862587908e+00
2.812500000000000069e-02 1.948349999999999952e-03 1.715367986818316925e-02
0.000000000000000000e+00 4.869760000000000213e-04 3.284113547857688609e+00
0.000000000000000000e+00 1.179970000000000021e-03 2.385436716921578881e+00
0.000000000000000000e+00 4.295729999999999883e-04 1.363839368130125296e+00
0.000000000000000000e+00 1.026819999999999903e-03 3.299523805438137725e+00
9.374999999999999653e-03 9.439329999999999943e-02 2.869748168274671052e+00
0.000000000000000000e+00 2.146939999999999960e-03 4.735469078501769458e-01
1.874999999999999931e-02 9.320180000000000131e-02 1.456399999860644279e+00
4.062500000000000139e-02 2.318209999999999802e-03 9.408676629183260198e-01
0.000000000000000000e+00 1.882730000000000167e-02 4.545689067009388573e+00
6.250000000000000347e-03 3.276799999999999852e-03 1.907749182233920315e+00
0.000000000000000000e+00 6.119679999999999521e-04 2.891504345422204469e+00
1.874999999999999931e-02 9.849739999999999884e-02 2.560108572424269369e+00
0.000000000000000000e+00 1.022979999999999940e-03 3.235381734131254738e+00
0.000000000000000000e+00 1.113980000000000092e-03 2.626693370564895602e+00
4.062500000000000139e-02 8.699649999999999744e-03 1.767552926207921482e+00
2.812500000000000069e-02 9.286840000000000372e-02 2.863179641928596197e+00
