4.374999999999999722e-02 9.302779999999999383e-02 1.724858032356887394e+00
0.000000000000000000e+00 3.147710000000000178e-03 1.527931380940510842e+00
0.000000000000000000e+00 6.060160000000000199e-04 3.015099101922871228e+00
0.000000000000000000e+00 9.380480000000000285e-04 4.373760244194531133e+00
0.000000000000000000e+00 3.234620000000000117e-03 1.744427805010190236e-01
0.000000000000000000e+00 7.321790000000000112e-04 2.376238299810091270e+00
3.125000000000000173e-03 1.508030000000000048e-03 1.880046841190066598e+00
0.000000000000000000e+00 3.711359999999999919e-04 1.009008426438797734e+00
0.000000000000000000e+00 2.799419999999999947e-03 4.851733158455554751e+00
0.000000000000000000e+00 9.248639999999999596e-04 2.341562479399165841e+00
0.000000000000000000e+00 1.797760000000000081e-04 4.765036506126281601e+00
0.000000000000000000e+00 5.128720000000000457e-04 9.988734361710582821e-01
0.000000000000000000e+00 3.562239999999999829e-04 2.797751502857370731e-01
0.000000000000000000e+00 5.034879999999999607e-04 2.582585840382802367e+00
0.000000000000000000e+00 9.494399999999999628e-04 9.092493417678165768e-01
3.125000000000000000e-02 3.650309999999999666e-02 2.960964814784956545e+00
0.000000000000000000e+00 8.853109999999999539e-04 1.029781135253736712e+00
6.250000000000000347e-03 5.380160000000000151e-03 4.514890572484135056e+00
6.250000000000000347e-03 2.197820000000000069e-03 1.304314128497130465e-01
3.125000000000000173e-03 1.483559999999999914e-02 3.007181812012897026e+00
0.000000000000000000e+00 1.555009999999999899e-03 2.028364356301806115e+00
0.000000000000000000e+00 2.101759999999999880e-04 3.415371059043015300e-01
0.000000000000000000e+00 4.360500000000000010e-04 2.885676877369982130e+00
2.500000000000000139e-02 1.051750000000000046e-01 2.501613439108640424e+00
0.000000000000000000e+00 5.408510000000000054e-03 5.343529550517189808e-01
0.000000000000000000e+00 2.849470000000000214e-03 1.332958211099787293e+00
3.749999999999999861e-02 1.068209999999999993e-01 7.539469996027675647e-01
0.000000000000000000e+00 2.293499999999999966e-03 3.337797793522367495e+00
7.499999999999999722e-02 1.070040000000000019e-01 4.016061725208082578e+00
0.000000000000000000e+00 1.054660000000000016e-03 3.602545016972163339e+00
3.125000000000000173e-03 6.090940000000000416e-03 4.230703980049893786e+00
0.000000000000000000e+00 5.403810000000000427e-04 1.478773696512482028e+00
0.000000000000000000e+00 3.928960000000000004e-04 4.096663210693746393e+00
0.000000000000000000e+00 0.000000000000000000e+00 8.330731694564025291e-01
3.125000000000000173e-03 3.296509999999999892e-03 2.069251777542682191e+00
1.562500000000000000e-02 1.606849999999999945e-03 4.471251647607016322e-01
0.000000000000000000e+00 1.679099999999999994e-03 2.186196410481470842e+00
0.000000000000000000e+00 9.716479999999999779e-04 9.617514215032435532e-01
1.250000000000000069e-02 2.387579999999999824e-03 1.432584287630900288e-01
0.000000000000000000e+00 0.000000000000000000e+00 1.771175411546010992e-01
0.000000000000000000e+00 5.050370000000000206e-03 3.290410623603090556e-01
1.250000000000000069e-02 9.683600000000000541e-02 2.314965086419454643e+00
0.000000000000000000e+00 2.241419999999999963e-05 4.098617664428321206e+00
6.250000000000000347e-03 9.539169999999999594e-02 3.048360717298270739e-01
0.000000000000000000e+00 1.889919999999999957e-04 1.045194595918130798e+00
0.000000000000000000e+00 3.856259999999999809e-03 1.091215961799993472e+00
0.000000000000000000e+00 7.343589999999999667e-04 1.688893187515244643e-01
0.000000000000000000e+00 2.979900000000000170e-03 3.712606877612265599e+00
0.000000000000000000e+00 5.271040000000000274e-03 1.378789357214760702e+00
0.000000000000000000e+00 1.938969999999999930e-02 2.788197567878286653e-01
4.687500000000000000e-02 3.791699999999999932e-02 1.631400036085329797e+00
3.125000000000000000e-02 8.881790000000000518e-03 2.478543382485670854e+00
1.874999999999999931e-02 1.058479999999999976e-01 3.777797090263927959e+00
0.000000000000000000e+00 7.310889999999999793e-04 2.274666933474471797e+00
3.125000000000000173e-03 1.948029999999999901e-03 2.059309891002337078e+00
0.000000000000000000e+00 2.283439999999999944e-05 2.367852054390525041e+00
0.000000000000000000e+00 9.109120000000000498e-04 3.719096247190271765e+00
1.874999999999999931e-02 1.876800000000000083e-03 4.941086018584162964e+00
0.000000000000000000e+00 2.924860000000000047e-03 1.512341798925940228e+00
0.000000000000000000e+00 9.203199999999999706e-04 2.358787792420553142e+00
0.000000000000000000e+00 1.024720000000000015e-03 8.492397433812881591e-01
0.000000000000000000e+00 1.079169999999999956e-03 4.723440169899698837e+00
0.000000000000000000e+00 2.990340000000000185e-03 4.695718908736939312e+00
0.000000000000000000e+00 3.034499999999999871e-03 1.446991486434771712e+00
3.125000000000000173e-03 1.655099999999999974e-02 3.988381279218149889e+00
2.500000000000000139e-02 2.569919999999999843e-03 2.265896293348752533e+00
0.000000000000000000e+00 9.722879999999999717e-04 4.837162550037365172e+00
3.125000000000000173e-03 9.632010000000000571e-02 2.278821711653111759e+00
9.374999999999999653e-03 5.722279999999999728e-02 2.988964716865242011e+00
0.000000000000000000e+00 2.665600000000000174e-03 3.625196262407955228e+00
1.562500000000000000e-02 1.540989999999999895e-03 2.237921166368783688e+00
0.000000000000000000e+00 3.994240000000000030e-04 4.132880631123442505e+00
0.000000000000000000e+00 1.015419999999999951e-03 2.505222524060503719e+00
0.000000000000000000e+00 1.970290000000000070e-05 1.736336956493211403e+00
1.562500000000000000e-02 2.726269999999999822e-03 1.748161840957487279e+00
3.125000000000000173e-03 9.636250000000000371e-02 4.246558398828174319e+00
0.000000000000000000e+00 9.294289999999999540e-04 7.664636120385165396e-01
9.374999999999999653e-03 9.613579999999999348e-02 3.373272071277117590e+00
0.000000000000000000e+00 1.318460000000000031e-03 1.761668319525644399e+00
2.187499999999999861e-02 2.574460000000000203e-03 3.302773730586208600e+00
0.000000000000000000e+00 1.972650000000000098e-02 7.215565139974977615e-01
9.374999999999999653e-03 1.758980000000000049e-03 4.331739930303389663e+00
0.000000000000000000e+00 1.794299999999999975e-03 1.258078242430018090e+00
0.000000000000000000e+00 9.911679999999999536e-04 1.812286602739188179e-01
0.000000000000000000e+00 7.369240000000000209e-04 8.542267400754377515e-01
0.000000000000000000e+00 9.342079999999999568e-04 3.381995487374867437e+00
0.000000000000000000e+00 1.919780000000000098e-02 4.793476623113510193e+00
0.000000000000000000e+00 8.050559999999999574e-04 2.658583594022548180e+00
3.125000000000000173e-03 1.324000000000000003e-02 7.472223544022604802e-02
0.000000000000000000e+00 1.153979999999999980e-03 1.952678206895684943e+00
1.562500000000000000e-02 1.852860000000000010e-03 6.429365593918751065e-01
2.187499999999999861e-02 1.220350000000000037e-03 3.552890327771565104e+00
2.187499999999999861e-02 3.403779999999999913e-03 1.740558333068589647e+00
0.000000000000000000e+00 2.250939999999999885e-03 1.511597314024696992e+00
9.374999999999999653e-03 1.762689999999999917e-03 4.856237182111756923e+00
9.374999999999999653e-03 9.233420000000000516e-02 3.370456009788915352e+00
0.000000000000000000e+00 3.199040000000000217e-03 2.267415648125521432e+00
3.125000000000000173e-03 3.340479999999999838e-03 4.850838601855312682e+00
2.187499999999999861e-02 1.616830000000000090e-03 1.844720639949588570e+00
3.125000000000000173e-03 4.713020000000000057e-03 2.423358101059702729e+00
6.250000000000000347e-03 6.710889999999999911e-02 9.937032677415119641e-01
2.187499999999999861e-02 2.953410000000000063e-03 2.653787423903127163e+00
0.000000000000000000e+00 4.652910000000000010e-04 2.802650302331635590e+00
0.000000000000000000e+00 4.600970000000000233e-04 1.349641537385926071e-03
0.000000000000000000e+00 1.041409999999999992e-03 4.528607481883005548e+00
0.000000000000000000e+00 2.928959999999999984e-03 2.544940701304709396e+00
3.437500000000000278e-02 9.198789999999999745e-02 3.730684962426320528e+00
1.250000000000000069e-02 1.302830000000000047e-03 3.556058400158175203e+00
0.000000000000000000e+00 1.749380000000000032e-03 4.030532168343389898e+00
0.000000000000000000e+00 3.737599999999999993e-04 6.521928254299602656e-01
0.000000000000000000e+00 3.018240000000000159e-03 4.186934230573465143e+00
0.000000000000000000e+00 0.000000000000000000e+00 2.582904120504952994e-01
0.000000000000000000e+00 1.346240000000000067e-03 2.934971226032633496e+00
1.250000000000000069e-02 1.773819999999999954e-03 4.629429817617174869e+00
1.562500000000000000e-02 4.860930000000000285e-03 2.843316318993276859e+00
3.125000000000000173e-03 4.630340000000000150e-03 1.161789029028949649e+00
1.874999999999999931e-02 5.092669999999999662e-03 1.700623438020025802e+00
6.250000000000000347e-03 1.103360000000000061e-03 2.477150479598584365e+00
6.250000000000000347e-03 2.554240000000000156e-03 4.465808476681657702e+00
2.187499999999999861e-02 2.788860000000000210e-03 4.062252012139070168e+00
6.250000000000000347e-03 3.220200000000000146e-02 8.516942921597270288e-02
0.000000000000000000e+00 5.685700000000000129e-03 2.785905165593037580e+00
0.000000000000000000e+00 1.118779999999999991e-03 2.850503198086391965e+00
9.374999999999999653e-03 1.054680000000000062e-01 2.142257331318349056e+00
0.000000000000000000e+00 1.661890000000000069e-03 4.842383690411896424e+00
0.000000000000000000e+00 3.348160000000000198e-03 2.270672538626172798e+00
0.000000000000000000e+00 1.105599999999999986e-03 3.276888600260349449e+00
2.812500000000000069e-02 9.068710000000000659e-02 4.924039516416290674e+00
0.000000000000000000e+00 4.247640000000000009e-04 4.701877859369113288e+00
0.000000000000000000e+00 1.982719999999999882e-04 2.600321290035644495e+00
3.125000000000000173e-03 2.094139999999999977e-03 1.727095427629953273e+00
1.874999999999999931e-02 5.188479999999999655e-03 3.846498562441429403e+00
6.250000000000000347e-03 1.730479999999999952e-03 6.489998740238245301e-01
0.000000000000000000e+00 2.164090000000000146e-05 3.876282256883480937e+00
0.000000000000000000e+00 5.160510000000000097e-03 3.261599845313938761e+00
2.812500000000000069e-02 2.560960000000000146e-03 2.791170024113785342e+00
0.000000000000000000e+00 2.405200000000000133e-03 9.684048902398462166e-01
0.000000000000000000e+00 1.037380000000000073e-03 7.496051331823772035e-01
0.000000000000000000e+00 3.085699999999999815e-03 2.507933473136358060e+00
0.000000000000000000e+00 1.478430000000000022e-02 4.549338836322967872e+00
0.000000000000000000e+00 1.065149999999999951e-03 3.370257488603797924e+00
3.125000000000000173e-03 9.477439999999999476e-02 2.847489222537311626e+00
1.562500000000000000e-02 6.338560000000000028e-03 3.144839205979935048e+00
3.437500000000000278e-02 9.129189999999999527e-02 1.814352722052425815e+00
0.000000000000000000e+00 1.050820000000000053e-03 4.748606197910024918e+00
0.000000000000000000e+00 1.769600000000000079e-03 7.961848955160166774e-02
0.000000000000000000e+00 9.055099999999999955e-04 8.673185061808252883e-03
3.125000000000000173e-03 7.929830000000000559e-03 2.223017349456801739e+00
0.000000000000000000e+00 1.174139999999999949e-03 2.710443123935890597e-01
9.374999999999999653e-03 2.110529999999999785e-03 3.896666401140842950e+00
0.000000000000000000e+00 3.237890000000000212e-03 4.189022899413377132e+00
1.562500000000000000e-02 1.431360000000000011e-03 4.112389026242173173e+00
3.125000000000000173e-03 2.080770000000000015e-03 2.168960509659058733e+00
0.000000000000000000e+00 1.149180000000000080e-03 4.551391080547732670e+00
3.125000000000000173e-03 4.171460000000000098e-03 2.541835023728011400e+00
2.500000000000000139e-02 8.903229999999999825e-03 5.657802321078486685e-02
2.812500000000000069e-02 1.659899999999999961e-03 2.626287524974118881e+00
0.000000000000000000e+00 1.004859999999999998e-03 3.593476098409858377e+00
0.000000000000000000e+00 4.243790000000000106e-04 3.339705215641959324e+00
0.000000000000000000e+00 4.591999999999999945e-04 1.728386666795986848e+00
2.500000000000000139e-02 1.661499999999999999e-03 1.576611068086252843e+00
0.000000000000000000e+00 4.048640000000000051e-04 2.229646479371862444e+00
3.125000000000000173e-03 4.162690000000000140e-03 4.917861816078884729e+00
0.000000000000000000e+00 4.252160000000000163e-04 1.959995100191230799e-01
1.562500000000000000e-02 2.040699999999999893e-03 3.660495119188182933e+00
3.125000000000000173e-03 1.716540000000000080e-02 4.490804665036903565e+00
0.000000000000000000e+00 7.073470000000000105e-03 3.534855300393140443e+00
0.000000000000000000e+00 4.155520000000000221e-04 6.691632765173299857e-01
0.000000000000000000e+00 3.120770000000000141e-03 3.231161468929033109e+00
0.000000000000000000e+00 4.407050000000000030e-03 2.614555810336899100e+00
3.125000000000000173e-03 9.544969999999999843e-02 4.679829978266467627e+00
1.562500000000000000e-02 5.790530000000000330e-03 2.409393448886791411e+00
3.125000000000000173e-03 1.312699999999999978e-03 3.434955839761330676e+00
3.125000000000000000e-02 8.011070000000000343e-03 4.636662371501173219e+00
0.000000000000000000e+00 3.265409999999999840e-03 1.369459371316081420e+00
1.874999999999999931e-02 2.434940000000000021e-03 2.340734151701365118e+00
6.250000000000000347e-03 1.056020000000000014e-01 5.397263879649488727e-01
0.000000000000000000e+00 1.508350000000000099e-03 7.570773026763771840e-01
0.000000000000000000e+00 1.047490000000000096e-03 4.170095607606872257e+00
0.000000000000000000e+00 1.150339999999999913e-03 2.182056720075867595e+00
3.125000000000000173e-03 1.227909999999999939e-02 3.272720352991841608e+00
3.125000000000000173e-03 4.217280000000000334e-03 2.091004440170576739e+00
2.500000000000000139e-02 2.084990000000000107e-03 2.684614104872337759e+00
9.374999999999999653e-03 7.812480000000000119e-04 3.569321845346124622e+00
0.000000000000000000e+00 9.475199999999999812e-04 2.313010079714924672e+00
0.000000000000000000e+00 2.306810000000000026e-05 3.718307339071551976e+00
0.000000000000000000e+00 4.009920000000000151e-03 6.837967134622524590e-01
1.562500000000000000e-02 9.898179999999999479e-02 2.757247218379921705e+00
1.250000000000000069e-02 2.752699999999999852e-03 3.011738987077771768e+00
1.874999999999999931e-02 2.096259999999999964e-03 4.463233060857869638e+00
0.000000000000000000e+00 2.207620000000000049e-05 2.206724958232078926e+00
0.000000000000000000e+00 5.219200000000000445e-04 7.102903218519179829e-01
1.874999999999999931e-02 2.411200000000000062e-03 8.494265329750422255e-01
0.000000000000000000e+00 5.003670000000000426e-04 4.152588819794572395e+00
0.000000000000000000e+00 7.285879999999999570e-04 3.894006531661142301e+00
3.125000000000000173e-03 6.691839999999999681e-04 2.254973716494348857e+00
0.000000000000000000e+00 4.231610000000000232e-04 4.075280880748721302e+00
0.000000000000000000e+00 7.351289999999999474e-04 4.500750061401699753e+00
2.500000000000000139e-02 7.538500000000000062e-03 3.186141792735599942e+00
1.562500000000000000e-02 2.686140000000000055e-03 1.637595044611853679e+00
5.937499999999999722e-02 1.976709999999999925e-02 2.968914653614729726e+00
0.000000000000000000e+00 4.636239999999999914e-04 1.403390490270658431e+00
0.000000000000000000e+00 4.396159999999999868e-04 2.118578962695858436e+00
3.125000000000000173e-03 5.072319999999999954e-03 3.003307876376817287e+00
3.125000000000000173e-03 8.058690000000000297e-03 3.939374908379775331e+00
3.125000000000000173e-03 1.912310000000000051e-02 6.504329919660817305e-01
0.000000000000000000e+00 2.457600000000000062e-02 2.769782369826488289e+00
0.000000000000000000e+00 1.031550000000000002e-03 4.593491914385886332e+00
0.000000000000000000e+00 2.108300000000000126e-05 1.113748127486167139e+00
3.125000000000000173e-03 9.782019999999999604e-02 1.766110754126333671e+00
3.125000000000000173e-03 3.650560000000000176e-03 3.757887787328964002e+00
0.000000000000000000e+00 1.018239999999999900e-03 1.682214396813103141e+00
1.250000000000000069e-02 1.604479999999999925e-03 1.407557229117391451e+00
0.000000000000000000e+00 0.000000000000000000e+00 4.849943580591636660e+00
0.000000000000000000e+00 4.141440000000000247e-04 1.535494868821203784e+00
2.812500000000000069e-02 1.742019999999999940e-03 2.355477742169500122e+00
3.125000000000000173e-03 2.095619999999999861e-03 1.738039104074630137e+00
3.125000000000000173e-03 4.126020000000000208e-03 3.327560215441154323e+00
2.187499999999999861e-02 2.043839999999999893e-03 2.059029334369901321e+00
9.375000000000000000e-02 8.066039999999999321e-02 1.543938187449664934e+00
3.125000000000000173e-03 1.676060000000000050e-02 3.002280356906648962e+00
0.000000000000000000e+00 4.908799999999999622e-04 4.951328711454087816e+00
6.250000000000000347e-03 1.868609999999999932e-03 3.122929988937808599e+00
3.125000000000000173e-03 4.099389999999999631e-03 2.967042930833644121e+00
0.000000000000000000e+00 6.467839999999999657e-04 2.535774430270433477e+00
0.000000000000000000e+00 1.330469999999999917e-02 2.982877477191450577e+00
0.000000000000000000e+00 4.144400000000000232e-04 2.286950233105067287e+00
0.000000000000000000e+00 2.264010000000000030e-05 3.632039857114722992e+00
4.062500000000000139e-02 9.333470000000000655e-02 3.766613944379089141e+00
9.374999999999999653e-03 9.767299999999999593e-02 3.835207899085956385e+00
0.000000000000000000e+00 2.292109999999999981e-05 1.968698449067671774e+00
4.062500000000000139e-02 9.163029999999999786e-02 1.679031010229232734e+00
0.000000000000000000e+00 3.249339999999999867e-03 4.997432649307583574e+00
0.000000000000000000e+00 2.912640000000000086e-04 4.948677494610031147e+00
1.874999999999999931e-02 2.164699999999999958e-02 2.741040463445321151e+00
0.000000000000000000e+00 5.572099999999999970e-03 1.427189111719294079e+00
0.000000000000000000e+00 5.873919999999999489e-04 3.520200349826352770e+00
1.250000000000000069e-02 1.893120000000000089e-03 1.207493446330751397e+00
0.000000000000000000e+00 1.689469999999999991e-03 5.045501338476121589e-01
0.000000000000000000e+00 3.254589999999999914e-03 1.725773713779027441e+00
9.374999999999999653e-03 2.174460000000000021e-03 1.023306751598606068e+00
0.000000000000000000e+00 5.801390000000000236e-04 1.872513976955885617e+00
3.125000000000000173e-03 1.621379999999999957e-03 1.091777794455417450e+00
1.250000000000000069e-02 2.361149999999999794e-03 3.975908235497657373e+00
0.000000000000000000e+00 1.050750000000000035e-03 4.682704750637816105e+00
0.000000000000000000e+00 9.143040000000000065e-04 2.646094094086551607e+00
0.000000000000000000e+00 2.787509999999999988e-02 3.646952845278903954e+00
0.000000000000000000e+00 1.821949999999999915e-03 1.150466428480680481e+00
1.250000000000000069e-02 9.346880000000000466e-02 3.616182010329819896e+00
2.500000000000000139e-02 9.281860000000000110e-02 2.673466090628821679e+00
9.374999999999999653e-03 2.467710000000000129e-03 1.714488842846665362e+00
2.812500000000000069e-02 9.085150000000000170e-02 2.265547050151278441e+00
0.000000000000000000e+00 2.669749999999999901e-02 4.375642750064645536e-01
0.000000000000000000e+00 1.772940000000000003e-05 8.477329859661647538e-01
0.000000000000000000e+00 1.563649999999999979e-03 1.023705298887450654e+00
0.000000000000000000e+00 1.149569999999999932e-03 1.845400739009130486e+00
3.125000000000000000e-02 2.139010000000000217e-03 2.721272645307250659e+00
0.000000000000000000e+00 1.016189999999999932e-03 4.491036436780143859e+00
1.250000000000000069e-02 5.299589999999999856e-03 2.543907956797775594e+00
0.000000000000000000e+00 1.097789999999999964e-03 4.347817183217406622e+00
6.250000000000000347e-03 1.629819999999999923e-03 2.722466140867179085e+00
3.125000000000000173e-03 2.786430000000000157e-02 3.632766717998742845e+00
2.500000000000000139e-02 1.601470000000000020e-03 4.930805524952295293e+00
1.250000000000000069e-02 6.688640000000000037e-03 1.100379122459538284e-01
0.000000000000000000e+00 1.039299999999999946e-03 1.165604657179859949e+00
0.000000000000000000e+00 4.239299999999999883e-04 1.082993741346909289e+00
3.437500000000000278e-02 9.218270000000000630e-02 5.011406308395571774e-01
0.000000000000000000e+00 4.571780000000000115e-03 2.154380414193700410e+00
0.000000000000000000e+00 9.746430000000000371e-03 1.554750484194220572e+00
1.250000000000000069e-02 9.476070000000000326e-02 4.425992804242004475e+00
2.187499999999999861e-02 8.896259999999999585e-03 2.268506284751989899e+00
2.812500000000000069e-02 3.706740000000000035e-02 4.491934540047958890e+00
0.000000000000000000e+00 2.109810000000000049e-05 1.068268547735897300e+00
0.000000000000000000e+00 9.201279999999999832e-04 4.847979180054617032e+00
1.250000000000000069e-02 1.702720000000000015e-03 4.388359741166882877e+00
4.374999999999999722e-02 3.230910000000000032e-02 4.887946991357996929e+00
3.125000000000000173e-03 3.356370000000000187e-02 3.413704521864024954e-01
0.000000000000000000e+00 8.076799999999999648e-04 3.982971275570834635e-01
3.125000000000000000e-02 9.270810000000000162e-02 2.790389688571206062e+00
0.000000000000000000e+00 9.591180000000000148e-04 2.250649901779524953e+00
0.000000000000000000e+00 3.554450000000000231e-04 4.356939694367102156e+00
0.000000000000000000e+00 9.203199999999999706e-04 2.196146251891908374e+00
0.000000000000000000e+00 1.571649999999999957e-03 1.932890721225495323e+00
9.374999999999999653e-03 1.025879999999999986e-01 4.211123282113049093e+00
6.250000000000000347e-03 1.448449999999999998e-03 1.727035322838618825e+00
1.874999999999999931e-02 1.572929999999999945e-03 1.362858476309697364e+00
0.000000000000000000e+00 1.367029999999999981e-02 1.758686160810576826e+00
1.874999999999999931e-02 1.049230000000000024e-01 4.854906291067429436e+00
3.125000000000000173e-03 4.315010000000000200e-03 3.512710918442828678e+00
1.562500000000000000e-02 4.082370000000000096e-03 3.968097280964986151e+00
3.125000000000000173e-03 1.385519999999999981e-02 3.167114555584034097e+00
0.000000000000000000e+00 5.994239999999999855e-04 3.832403867628935590e+00
6.250000000000000347e-03 9.574699999999999878e-02 4.766364137418347191e+00
2.500000000000000139e-02 2.055870000000000006e-03 9.532844105741539176e-01
2.187499999999999861e-02 1.894590000000000033e-03 4.529935523760957317e+00
3.125000000000000173e-03 4.594939999999999615e-03 6.342713607281807997e-01
0.000000000000000000e+00 7.277549999999999601e-04 4.333149478239711527e+00
3.125000000000000173e-03 4.375490000000000108e-03 4.549626872646685527e+00
3.125000000000000173e-03 2.440900000000000188e-03 5.572959134626631617e-02
3.125000000000000173e-03 4.730370000000000234e-03 3.006242372992086409e+00
0.000000000000000000e+00 2.724480000000000044e-04 2.388493935140942881e+00
0.000000000000000000e+00 2.457600000000000062e-02 4.994839187956170434e+00
0.000000000000000000e+00 2.033290000000000097e-02 3.142890057401679371e+00
6.250000000000000347e-03 9.916799999999999921e-04 3.685458790570217857e+00
0.000000000000000000e+00 1.073860000000000049e-03 2.855485186399025821e+00
2.812500000000000069e-02 9.238620000000000165e-02 2.255331552413382123e+00
3.125000000000000173e-03 7.974580000000000210e-03 3.052316814864183492e+00
7.812500000000000000e-02 4.510829999999999701e-02 1.455028793032663970e+00
0.000000000000000000e+00 1.793660000000000089e-03 9.186628892904319388e-01
0.000000000000000000e+00 9.036159999999999895e-04 3.176620718012042488e+00
0.000000000000000000e+00 1.792449999999999903e-03 3.678348704803183544e+00
2.500000000000000139e-02 2.329219999999999902e-03 7.747234675552661098e-02
9.374999999999999653e-03 1.981820000000000023e-03 4.641758138382337862e+00
3.125000000000000173e-03 3.279810000000000191e-03 2.999378112670936680e+00
4.062500000000000139e-02 1.192580000000000029e-02 3.752015181042448688e+00
0.000000000000000000e+00 5.295939999999999849e-03 2.726453953242358619e+00
9.374999999999999653e-03 2.036739999999999991e-03 4.376050277077770723e+00
0.000000000000000000e+00 1.219969999999999909e-03 1.860442634035819331e-01
0.000000000000000000e+00 5.475200000000000162e-04 3.624544764512632744e-01
0.000000000000000000e+00 8.976229999999999539e-04 2.558497655702940854e+00
2.187499999999999861e-02 2.529979999999999816e-03 3.845540223301420202e+00
1.874999999999999931e-02 9.228269999999999529e-02 3.903532746060509151e+00
0.000000000000000000e+00 1.681599999999999892e-03 2.395321507502362834e+00
0.000000000000000000e+00 1.517540000000000035e-02 4.796435736398685812e+00
0.000000000000000000e+00 4.913899999999999692e-04 3.502008933857603257e-02
0.000000000000000000e+00 1.229619999999999926e-05 1.610349805622265373e+00
0.000000000000000000e+00 1.692160000000000007e-04 4.647417638049709865e+00
0.000000000000000000e+00 1.831940000000000001e-03 2.063986294366841001e+00
0.000000000000000000e+00 3.317759999999999893e-04 1.839271425770905743e+00
2.187499999999999861e-02 2.107710000000000052e-03 4.327213607600263856e+00
3.437500000000000278e-02 3.666019999999999696e-02 1.411569667094191294e+00
2.187499999999999861e-02 1.523009999999999989e-03 3.529722464552343286e+00
0.000000000000000000e+00 3.906560000000000219e-04 4.075370797881278095e-01
0.000000000000000000e+00 1.072189999999999949e-02 1.463329351126488209e+00
0.000000000000000000e+00 1.617469999999999975e-03 4.450324921805972167e+00
2.187499999999999861e-02 2.043070000000000129e-03 3.293294058231804877e-01
0.000000000000000000e+00 7.743360000000000347e-04 2.040748146988118794e+00
0.000000000000000000e+00 5.562179999999999902e-03 2.714468765597571887e-01
1.562500000000000000e-02 2.471300000000000059e-03 3.336850649625160425e+00
0.000000000000000000e+00 8.334720000000000323e-04 9.598738982504223527e-01
0.000000000000000000e+00 3.112960000000000033e-02 2.797127042157466548e+00
0.000000000000000000e+00 9.942589999999999414e-04 2.936797718212228681e+00
0.000000000000000000e+00 1.939259999999999942e-02 1.763177984798951048e+00
0.000000000000000000e+00 9.120639999999999737e-04 3.376306623190986400e+00
3.125000000000000173e-03 1.466749999999999955e-03 2.446610469362218598e+00
3.125000000000000173e-03 4.199679999999999906e-03 4.778197651409304747e+00
0.000000000000000000e+00 7.350650000000000239e-04 4.538152197985223069e+00
6.250000000000000347e-03 2.655609999999999915e-02 4.311799911160360210e+00
0.000000000000000000e+00 4.128369999999999913e-04 7.709641570896108576e-01
1.562500000000000000e-02 9.289949999999999597e-02 1.588813518740266773e+00
0.000000000000000000e+00 1.447869999999999973e-03 4.924749324174138465e+00
0.000000000000000000e+00 6.061089999999999664e-04 1.273001459217388831e+00
0.000000000000000000e+00 7.319229999999999920e-04 4.217093787725282539e+00
0.000000000000000000e+00 5.465150000000000216e-03 3.092575406501470336e+00
3.125000000000000173e-03 1.003360000000000016e-03 2.033150777427899847e+00
1.562500000000000000e-02 4.899650000000000186e-03 9.012331103617537975e-01
2.187499999999999861e-02 4.579520000000000118e-03 7.537040286459534277e-01
0.000000000000000000e+00 2.168320000000000002e-04 4.099384008190559037e+00
0.000000000000000000e+00 3.891839999999999926e-04 1.856811421366164616e+00
0.000000000000000000e+00 2.461469999999999977e-02 3.501402902965968345e+00
0.000000000000000000e+00 3.637170000000000008e-04 2.264693421262109485e+00
0.000000000000000000e+00 2.660479999999999789e-03 1.460987880167028408e+00
6.250000000000000347e-03 3.477819999999999957e-03 2.142177902592794503e+00
2.187499999999999861e-02 2.247489999999999991e-03 5.515203523922668216e-01
6.250000000000000000e-02 3.784230000000000232e-02 2.363383339509996350e+00
0.000000000000000000e+00 1.783680000000000107e-04 2.713320135772134822e-01
0.000000000000000000e+00 2.331909999999999837e-05 2.365809542936939458e+00
0.000000000000000000e+00 7.108900000000000462e-04 1.273623327876999278e+00
0.000000000000000000e+00 4.035390000000000136e-04 1.655212176841613925e-02
0.000000000000000000e+00 5.605889999999999658e-03 4.691856421973637836e+00
0.000000000000000000e+00 1.339389999999999982e-03 1.707129544306895674e-01
2.500000000000000139e-02 3.328059999999999873e-03 1.434797257463589659e+00
0.000000000000000000e+00 7.301270000000000112e-04 1.870649761291216073e+00
0.000000000000000000e+00 3.898880000000000184e-04 3.421638863267645325e-01
6.250000000000000347e-03 1.782399999999999957e-03 3.798823054581884628e-01
2.500000000000000139e-02 3.556610000000000327e-02 2.298001370928614673e+00
0.000000000000000000e+00 6.658240000000000165e-03 2.387591012028911219e-01
0.000000000000000000e+00 4.434620000000000228e-03 4.947176817580255737e+00
0.000000000000000000e+00 4.873220000000000156e-03 2.787830562258415412e+00
0.000000000000000000e+00 2.081920000000000016e-04 4.426919515438842545e+00
0.000000000000000000e+00 7.900160000000000472e-04 3.142813751515551868e+00
4.374999999999999722e-02 1.065750000000000031e-01 3.958463106983854729e+00
0.000000000000000000e+00 3.976319999999999768e-04 3.398992673445483392e-01
0.000000000000000000e+00 1.036669999999999953e-03 8.832775075913729124e-01
0.000000000000000000e+00 5.471999999999999651e-04 2.783020766539020308e+00
3.125000000000000173e-03 4.323780000000000158e-03 2.337069937231937455e+00
0.000000000000000000e+00 1.246909999999999945e-03 4.279829148726496335e+00
0.000000000000000000e+00 7.375020000000000143e-04 2.469306993012185814e+00
9.374999999999999653e-03 1.998590000000000175e-03 3.008909731708035995e+00
0.000000000000000000e+00 3.574340000000000069e-04 1.104027557426189299e+00
2.500000000000000139e-02 1.828350000000000071e-03 4.891131131124736520e+00
0.000000000000000000e+00 2.941060000000000115e-03 7.852215020137609525e-02
8.437500000000000555e-02 2.203640000000000113e-02 1.139461189069470137e+00
0.000000000000000000e+00 3.162939999999999936e-03 4.568872230413692392e+00
0.000000000000000000e+00 2.693309999999999975e-03 2.165990594016825588e-01
0.000000000000000000e+00 3.049340000000000210e-03 4.260915708777435196e-01
0.000000000000000000e+00 1.982400000000000048e-03 2.934938398241108803e+00
6.250000000000000347e-03 4.242179999999999909e-03 3.542032633658473095e+00
0.000000000000000000e+00 4.550389999999999990e-02 1.087172181603381471e+00
0.000000000000000000e+00 9.159629999999999985e-04 1.706319471131083176e+00
0.000000000000000000e+00 9.578879999999999470e-04 1.048548839407997813e+00
3.125000000000000000e-02 2.529340000000000060e-02 4.725180951386428241e+00
3.125000000000000173e-03 2.132799999999999800e-03 2.500812652057363028e+00
4.062500000000000139e-02 1.912049999999999861e-02 1.084813456897153916e+00
0.000000000000000000e+00 1.252029999999999896e-03 3.384690416839253313e-02
1.874999999999999931e-02 4.627970000000000347e-03 1.045344604056834381e+00
0.000000000000000000e+00 1.138539999999999951e-03 3.655958103107415536e+00
0.000000000000000000e+00 4.062080000000000248e-04 4.732981348857504322e+00
0.000000000000000000e+00 3.851519999999999879e-04 7.379687371158710762e-01
0.000000000000000000e+00 1.236349999999999992e-03 6.026006111715798141e-01
3.125000000000000173e-03 4.163520000000000415e-03 4.977966634722169381e+00
0.000000000000000000e+00 5.747839999999999503e-04 2.139375276692113026e+00
0.000000000000000000e+00 9.491789999999999733e-04 4.587053221353656340e+00
2.500000000000000139e-02 1.728880000000000000e-02 3.257528646622567692e+00
0.000000000000000000e+00 1.027480000000000103e-03 1.470888765279938060e+00
0.000000000000000000e+00 2.309000000000000085e-05 3.428872944188681160e+00
1.874999999999999931e-02 1.719040000000000021e-03 4.518326187043680164e+00
3.125000000000000173e-03 1.281850000000000003e-02 4.385127899874286861e+00
0.000000000000000000e+00 3.469160000000000212e-03 1.926610285238532505e+00
3.125000000000000173e-03 4.989060000000000022e-03 2.151599179941951601e+00
0.000000000000000000e+00 4.389759999999999929e-04 4.651500848365856200e+00
1.874999999999999931e-02 2.208260000000000084e-03 3.956329150543434370e+00
0.000000000000000000e+00 3.851519999999999879e-04 4.317497351737704214e+00
0.000000000000000000e+00 4.953009999999999661e-04 4.723583895112284381e+00
0.000000000000000000e+00 6.718380000000000142e-04 2.460829155229247611e+00
2.500000000000000139e-02 3.828479999999999991e-03 2.853543915483970572e+00
6.250000000000000347e-03 1.565379999999999897e-03 2.764486541040059198e+00
2.500000000000000139e-02 4.190980000000000399e-03 3.743598977265785166e+00
2.812500000000000069e-02 2.473790000000000017e-03 4.504697808191138186e-01
0.000000000000000000e+00 3.281710000000000182e-02 1.928208008789864536e+00
0.000000000000000000e+00 7.326919999999999570e-04 3.426244760786896659e+00
0.000000000000000000e+00 3.099460000000000062e-03 1.916251328829072342e+00
0.000000000000000000e+00 1.002559999999999996e-03 3.755867957756649389e+00
3.125000000000000173e-03 1.840510000000000063e-03 4.848376208420270395e+00
1.250000000000000069e-02 1.824770000000000081e-03 3.853002040132813555e-01
1.250000000000000069e-02 4.347009999999999763e-02 3.064973398604720511e+00
1.874999999999999931e-02 5.192900000000000293e-03 3.321067797044380931e+00
0.000000000000000000e+00 3.407600000000000104e-04 1.083310259618480709e-01
0.000000000000000000e+00 1.530970000000000074e-02 7.559635658320318363e-01
0.000000000000000000e+00 2.061440000000000104e-04 2.079680263177785093e+00
0.000000000000000000e+00 4.615939999999999800e-03 1.028500334156853935e+00
9.374999999999999653e-03 1.721539999999999919e-03 2.020461794597206762e+00
1.874999999999999931e-02 5.483390000000000312e-03 1.744673418661927933e+00
0.000000000000000000e+00 5.035900000000000272e-03 2.219737025936783681e+00
0.000000000000000000e+00 2.734589999999999851e-03 4.309238639410855498e+00
0.000000000000000000e+00 1.508540000000000054e-03 3.294430427357647462e-01
6.250000000000000347e-03 4.425280000000000186e-03 4.670307377546514260e+00
1.562500000000000000e-02 1.770239999999999965e-03 1.618918021358901171e+00
0.000000000000000000e+00 5.533889999999999643e-03 2.331068581386268157e+00
0.000000000000000000e+00 2.253840000000000091e-05 4.750394193646101826e+00
0.000000000000000000e+00 8.404219999999999573e-04 4.684267951525788121e+00
0.000000000000000000e+00 4.352800000000000202e-04 4.520845238698370849e+00
0.000000000000000000e+00 6.705659999999999399e-02 2.288128887948395196e+00
9.374999999999999653e-03 2.156159999999999848e-03 4.574362916109814270e-01
1.562500000000000000e-02 4.002750000000000231e-03 2.118404693810310047e+00
2.187499999999999861e-02 2.614079999999999963e-03 3.226809012162961121e+00
0.000000000000000000e+00 1.097660000000000085e-03 2.720756413721039824e+00
1.874999999999999931e-02 2.048509999999999914e-02 4.769613308538401597e+00
2.500000000000000139e-02 1.789950000000000005e-03 2.595899705406805147e+00
1.874999999999999931e-02 4.449469999999999641e-03 3.851602846549504466e+00
2.500000000000000139e-02 2.060670000000000123e-03 3.990805458540681805e+00
3.125000000000000173e-03 1.021250000000000022e-03 1.008461675953322256e+00
0.000000000000000000e+00 5.306240000000000479e-04 4.540496502350288566e-01
3.437500000000000278e-02 3.649970000000000298e-02 1.231896930564777559e+00
0.000000000000000000e+00 5.366850000000000266e-03 3.004497470515901547e+00
0.000000000000000000e+00 4.253409999999999786e-04 2.954698830307478374e-01
3.125000000000000000e-02 1.785789999999999990e-03 1.587081949248297263e+00
0.000000000000000000e+00 7.426960000000000462e-04 2.490590373298691595e+00
0.000000000000000000e+00 8.519680000000000395e-04 4.784028244259260987e+00
6.250000000000000347e-03 5.189380000000000381e-03 4.380837607798523159e+00
0.000000000000000000e+00 1.207490000000000082e-03 2.826818327415525189e+00
0.000000000000000000e+00 5.712640000000000383e-04 1.365772977059057647e+00
0.000000000000000000e+00 1.147519999999999964e-03 3.941633729435078060e+00
3.125000000000000173e-03 1.301180000000000045e-02 4.071753776047563278e+00
2.187499999999999861e-02 5.761020000000000030e-02 7.534879268743560621e-01
1.562500000000000000e-02 2.036669999999999973e-03 4.875957731715645949e+00
0.000000000000000000e+00 5.895650000000000109e-04 5.652100853047409279e-01
0.000000000000000000e+00 4.456749999999999774e-03 1.809326368298824317e+00
2.187499999999999861e-02 2.245759999999999857e-03 1.289725309364629258e+00
0.000000000000000000e+00 4.205960000000000232e-04 1.355268820623856119e+00
0.000000000000000000e+00 2.000060000000000119e-03 7.778342528477144580e-01
0.000000000000000000e+00 4.856829999999999915e-04 1.914548871077028203e+00
1.562500000000000000e-02 2.439869999999999799e-03 1.201995433084394049e+00
9.374999999999999653e-03 9.395810000000000273e-02 1.871766851627932216e+00
0.000000000000000000e+00 1.786940000000000099e-03 4.866631378085700677e-01
1.562500000000000000e-02 9.254020000000000301e-02 1.308401627403060763e+00
0.000000000000000000e+00 3.080700000000000018e-03 2.010463720799711140e+00
3.125000000000000000e-02 9.078579999999999983e-02 3.171591778884534474e+00
1.874999999999999931e-02 9.341240000000000654e-02 3.068390831950824182e+00
0.000000000000000000e+00 7.351929999999999793e-04 4.163746692436199659e+00
0.000000000000000000e+00 1.871359999999999918e-04 4.597436081021947452e+00
2.187499999999999861e-02 4.449790000000000342e-03 4.893143244125653268e+00
2.500000000000000139e-02 1.841659999999999955e-03 3.851360979857119560e+00
2.812500000000000069e-02 9.394760000000000610e-02 3.749890713145004995e+00
0.000000000000000000e+00 1.156160000000000044e-03 2.068793525522254040e+00
0.000000000000000000e+00 3.134590000000000033e-03 1.969527781271542377e+00
3.437500000000000278e-02 1.037910000000000048e-02 8.732629574409367379e-01
0.000000000000000000e+00 5.319170000000000235e-04 4.624618014924200438e+00
1.562500000000000000e-02 3.854139999999999823e-03 2.901425748246505565e-01
2.500000000000000139e-02 3.362239999999999847e-03 3.550420700165350496e+00
0.000000000000000000e+00 6.180859999999999826e-03 4.650034295151134422e+00
0.000000000000000000e+00 9.531130000000000158e-02 4.873275026566018298e+00
3.125000000000000173e-03 3.404799999999999927e-03 3.233367171765304082e+00
1.562500000000000000e-02 9.339999999999999691e-02 7.999618469746083704e-01
0.000000000000000000e+00 8.103799999999999545e-03 3.408945449492661872e-02
6.250000000000000347e-03 2.282899999999999860e-02 4.844368986996969717e+00
0.000000000000000000e+00 1.204350000000000082e-03 2.250005323496750975e+00
2.500000000000000139e-02 9.580470000000000652e-02 3.504805178352344175e+00
9.374999999999999653e-03 9.799059999999999715e-02 1.843158849638286689e+00
0.000000000000000000e+00 5.481859999999999858e-03 2.483708177254649208e+00
0.000000000000000000e+00 9.053439999999999838e-04 2.887201173914243135e+00
3.125000000000000173e-03 1.949270000000000169e-02 3.245968816365676357e+00
0.000000000000000000e+00 1.161519999999999914e-02 3.921117557968221146e+00
0.000000000000000000e+00 9.737390000000000498e-04 3.091397431923044614e+00
1.562500000000000000e-02 2.516579999999999859e-02 4.332868118367326993e+00
0.000000000000000000e+00 2.272749999999999882e-05 1.212172544788660655e+00
2.500000000000000139e-02 3.828479999999999991e-03 8.986469803541868862e-01
3.125000000000000173e-03 2.251139999999999999e-03 3.673172075251964763e+00
0.000000000000000000e+00 3.276859999999999929e-03 3.947331462019851855e+00
3.125000000000000173e-03 5.318139999999999847e-03 3.297825046289866169e+00
9.374999999999999653e-03 4.913919999999999573e-03 4.582257140925434236e+00
0.000000000000000000e+00 2.050109999999999953e-03 4.895300963427963836e+00
3.125000000000000173e-03 9.630460000000000409e-02 3.866474762590277336e+00
0.000000000000000000e+00 7.232659999999999697e-04 2.988377135203170276e+00
5.937499999999999722e-02 1.071539999999999992e-01 1.400039718419924917e+00
4.062500000000000139e-02 9.319080000000000419e-02 9.096222268685349999e-01
6.250000000000000347e-03 1.004499999999999976e-01 4.056535518258566952e+00
2.500000000000000139e-02 9.285350000000000548e-02 4.198428539616514854e+00
3.125000000000000173e-03 4.255740000000000044e-03 3.651083856988093235e+00
0.000000000000000000e+00 5.980300000000000459e-04 3.031254464962003681e+00
0.000000000000000000e+00 5.204480000000000044e-03 2.897101442271549310e+00
0.000000000000000000e+00 5.363839999999999927e-04 8.971242944968871313e-01
1.250000000000000069e-02 5.970879999999999591e-03 3.235108776884783044e+00
0.000000000000000000e+00 5.747519999999999886e-03 3.785257090858150875e+00
0.000000000000000000e+00 2.451839999999999836e-03 3.123794791347811461e+00
0.000000000000000000e+00 1.357030000000000042e-02 1.695210754917541696e+00
1.874999999999999931e-02 6.221499999999999600e-03 2.442187844528147078e+00
0.000000000000000000e+00 4.267520000000000232e-04 2.458441448601176305e+00
0.000000000000000000e+00 2.979519999999999825e-03 1.539280270119838256e+00
0.000000000000000000e+00 1.247299999999999971e-02 1.492893836076598202e+00
0.000000000000000000e+00 9.068569999999999539e-04 2.313321138775668473e+00
9.374999999999999653e-03 1.554239999999999918e-03 2.080907176140522452e+00
2.500000000000000139e-02 2.507259999999999871e-03 1.653490315841354530e+00
0.000000000000000000e+00 2.965950000000000183e-03 1.046374460624067693e+00
2.812500000000000069e-02 3.378620000000000147e-03 3.990578391049325546e+00
0.000000000000000000e+00 2.275419999999999976e-05 2.274494912139564118e+00
2.500000000000000139e-02 2.248130000000000094e-03 1.335984452076443008e+00
0.000000000000000000e+00 1.151169999999999971e-03 1.761877817748634945e+00
0.000000000000000000e+00 7.362189999999999793e-04 3.825100535181383155e+00
1.874999999999999931e-02 6.551359999999999996e-03 3.892764294999531582e+00
0.000000000000000000e+00 1.829179999999999912e-03 4.100477888751664857e+00
2.812500000000000069e-02 1.077580000000000066e-01 4.193398625333728980e+00
1.000000000000000056e-01 3.833480000000000221e-02 1.203815787184284058e+00
2.812500000000000069e-02 3.630869999999999931e-02 4.380156105216903573e-01
2.812500000000000069e-02 2.633980000000000175e-03 3.890240559212045923e+00
6.250000000000000347e-03 4.415299999999999607e-03 4.226141776451447285e+00
1.562500000000000000e-02 2.108479999999999816e-03 8.295696498477583836e-01
0.000000000000000000e+00 9.206400000000000217e-04 4.319698394730919766e+00
0.000000000000000000e+00 2.215869999999999992e-03 1.628356369327170761e+00
0.000000000000000000e+00 4.924800000000000011e-04 4.792601768982128974e+00
0.000000000000000000e+00 2.290659999999999851e-05 4.855344507927797260e+00
0.000000000000000000e+00 4.402559999999999807e-03 3.654683844115436120e-02
0.000000000000000000e+00 7.031039999999999686e-04 4.240452035920766249e+00
0.000000000000000000e+00 9.276799999999999543e-04 3.796703378939878970e+00
0.000000000000000000e+00 5.849600000000000372e-04 2.535299622208819770e-01
1.562500000000000000e-02 9.232609999999999428e-02 6.271684223052109708e-01
2.500000000000000139e-02 2.339069999999999951e-03 2.356370092710087238e+00
2.187499999999999861e-02 2.278869999999999854e-02 9.489604922895977790e-01
1.562500000000000000e-02 9.394679999999999698e-02 2.852742990732064943e+00
0.000000000000000000e+00 3.449290000000000038e-04 3.700807112685100986e+00
0.000000000000000000e+00 2.068519999999999975e-05 4.215141829056098466e+00
0.000000000000000000e+00 5.970679999999999694e-04 2.149793120630603127e+00
0.000000000000000000e+00 0.000000000000000000e+00 1.356479018259485469e+00
0.000000000000000000e+00 2.125310000000000046e-03 7.437018603127759642e-01
3.125000000000000173e-03 4.276669999999999777e-03 1.992082038504401797e+00
0.000000000000000000e+00 8.763319999999999574e-04 4.336418425909155161e+00
0.000000000000000000e+00 7.213420000000000335e-04 4.298996132293429362e+00
0.000000000000000000e+00 3.238459999999999863e-03 1.927908185036740107e+00
0.000000000000000000e+00 0.000000000000000000e+00 3.715978344998929650e+00
0.000000000000000000e+00 3.499840000000000156e-03 4.579314656337652778e+00
0.000000000000000000e+00 5.588609999999999932e-03 3.515668657053043322e+00
9.375000000000000000e-02 9.176839999999999997e-02 3.526405840840467931e+00
0.000000000000000000e+00 2.160829999999999869e-03 4.506212368908236066e+00
1.250000000000000069e-02 4.525110000000000243e-02 1.491717958937233579e+00
0.000000000000000000e+00 2.050429999999999787e-03 1.171607181386267627e+00
0.000000000000000000e+00 2.502589999999999849e-03 8.370604163763278871e-01
1.874999999999999931e-02 2.583170000000000084e-03 2.003939804445837858e+00
0.000000000000000000e+00 3.449939999999999973e-04 8.791926710877900897e-01
0.000000000000000000e+00 1.138499999999999972e-03 3.237818631965696525e+00
0.000000000000000000e+00 8.732800000000000415e-04 3.065027659893617695e+00
0.000000000000000000e+00 1.018819999999999925e-03 4.355518913294956995e+00
1.250000000000000069e-02 1.471939999999999924e-03 2.586547621558541454e+00
0.000000000000000000e+00 1.073409999999999902e-03 2.247424404784745366e+00
0.000000000000000000e+00 4.104320000000000169e-04 4.115342921276586630e+00
0.000000000000000000e+00 5.112260000000000415e-03 1.859160051145599679e+00
0.000000000000000000e+00 1.069569999999999939e-03 4.177118191321516960e+00
0.000000000000000000e+00 2.890370000000000179e-03 3.322133248104395253e+00
0.000000000000000000e+00 6.669640000000000334e-04 5.305916465967114304e-01
1.562500000000000000e-02 2.175040000000000046e-03 4.712424978495000971e+00
0.000000000000000000e+00 3.635199999999999890e-04 1.815230060734511763e+00
3.125000000000000173e-03 4.986749999999999863e-03 2.984226112199996450e+00
1.562500000000000000e-02 1.794500000000000088e-03 3.962299738282029082e+00
3.125000000000000173e-03 4.070019999999999714e-03 2.657350542496703216e+00
0.000000000000000000e+00 8.986239999999999940e-04 3.255255223716571500e+00
0.000000000000000000e+00 1.794560000000000111e-04 4.470276128301634344e+00
3.125000000000000173e-03 1.102270000000000029e-03 2.976725821328704669e+00
0.000000000000000000e+00 3.540780000000000316e-02 9.060689507207086990e-01
0.000000000000000000e+00 3.173499999999999932e-02 9.909765213756249747e-01
2.500000000000000139e-02 2.397890000000000178e-03 1.331578233939436195e+00
0.000000000000000000e+00 2.790529999999999834e-03 1.390783130914673427e+00
2.812500000000000069e-02 9.307279999999999720e-02 7.031511277825153172e-01
1.874999999999999931e-02 6.050179999999999621e-03 2.522116098275095641e-01
0.000000000000000000e+00 1.085819999999999928e-03 1.294357210737282937e+00
0.000000000000000000e+00 1.396099999999999945e-03 3.780083223587565877e-01
1.874999999999999931e-02 2.145090000000000104e-03 4.234412674632030082e+00
3.125000000000000173e-03 1.404740000000000025e-03 4.687950447505531137e+00
1.874999999999999931e-02 1.990659999999999999e-03 4.502552998711228049e+00
0.000000000000000000e+00 4.235460000000000136e-04 3.497409420302532990e-01
0.000000000000000000e+00 1.179990000000000032e-02 3.819381455071242826e+00
0.000000000000000000e+00 3.370619999999999953e-03 2.197781867409021039e-01
0.000000000000000000e+00 7.427840000000000224e-04 2.650702923699292057e+00
2.187499999999999861e-02 8.929859999999999534e-03 4.537158714023462380e+00
0.000000000000000000e+00 7.710720000000000334e-04 2.782483442457464484e+00
3.125000000000000173e-03 1.358960000000000029e-02 4.397725690457018999e+00
3.125000000000000173e-03 4.138819999999999652e-03 2.487924645940970514e+00
0.000000000000000000e+00 5.482940000000000383e-03 1.980028628225060094e+00
0.000000000000000000e+00 1.189660000000000023e-02 1.571936358699414615e+00
0.000000000000000000e+00 3.789150000000000135e-04 3.250363337421742660e+00
1.874999999999999931e-02 2.866459999999999841e-02 1.736367640131822210e+00
0.000000000000000000e+00 1.582459999999999943e-03 3.482288509056397086e-01
0.000000000000000000e+00 2.040640000000000162e-02 3.792985080078710158e+00
0.000000000000000000e+00 7.398739999999999570e-04 1.086640451800678253e+00
1.562500000000000000e-02 5.215489999999999710e-03 2.100055581338941657e+00
9.374999999999999653e-03 1.868990000000000061e-03 1.519906179003327473e-02
0.000000000000000000e+00 1.690749999999999979e-03 4.948441841724328327e+00
0.000000000000000000e+00 3.991040000000000061e-04 4.639776086182462178e-01
0.000000000000000000e+00 4.048640000000000051e-04 8.851940404352692804e-01
0.000000000000000000e+00 1.017729999999999893e-03 4.413785336631676159e+00
0.000000000000000000e+00 7.213420000000000335e-04 1.942831373083959257e+00
1.874999999999999931e-02 1.799299999999999988e-03 2.185819680783224861e+00
