0.000000000000000000e+00 3.537279999999999851e-04 3.585150108183171591e-01
0.000000000000000000e+00 1.223549999999999898e-03 3.577283937622894427e+00
4.062500000000000139e-02 9.278930000000000511e-02 4.903293502503769830e+00
0.000000000000000000e+00 2.412060000000000159e-03 1.027853068164877204e+00
0.000000000000000000e+00 5.980160000000000423e-04 3.687221602430974077e+00
6.250000000000000347e-03 9.540099999999999969e-02 2.839050993047238070e+00
0.000000000000000000e+00 1.145090000000000083e-03 1.445407334554020373e+00
0.000000000000000000e+00 2.999039999999999801e-04 6.691220103094080995e-01
0.000000000000000000e+00 2.059969999999999943e-03 2.305365679738444751e+00
6.250000000000000347e-03 1.749799999999999967e-02 1.349712267717733116e+00
0.000000000000000000e+00 4.003960000000000201e-04 1.929087093593844671e+00
2.187499999999999861e-02 3.162820000000000215e-03 3.815225027714078010e+00
3.125000000000000000e-02 9.215900000000000480e-02 3.911412270675716396e+00
0.000000000000000000e+00 1.637119999999999938e-04 6.037954863409739081e-01
3.125000000000000173e-03 7.546419999999999864e-03 2.245079257913630943e+00
0.000000000000000000e+00 9.208960000000000409e-04 2.108485423237453027e+00
0.000000000000000000e+00 1.087360000000000106e-03 1.857616520415692474e+00
1.250000000000000069e-02 9.169869999999999410e-02 1.503425653468565271e+00
1.250000000000000069e-02 2.060929999999999880e-03 6.359850991483068094e-01
0.000000000000000000e+00 9.567999999999999465e-04 4.825897471312837084e+00
3.125000000000000173e-03 1.179389999999999996e-03 4.392980850000337334e+00
1.250000000000000069e-02 2.214209999999999876e-03 2.506725967086221196e+00
0.000000000000000000e+00 2.816700000000000106e-03 3.451178513929029634e+00
1.250000000000000069e-02 2.088319999999999847e-03 1.670412767011768995e+00
0.000000000000000000e+00 6.454640000000000377e-02 4.257016744323959934e+00
0.000000000000000000e+00 5.783039999999999708e-04 1.252739962635285753e+00
6.250000000000000347e-03 3.607099999999999803e-03 4.567741352648351238e+00
2.812500000000000069e-02 2.174849999999999874e-03 6.388172648700118916e-02
3.125000000000000173e-03 9.797419999999999740e-02 4.962352315536428193e+00
3.125000000000000173e-03 4.487360000000000133e-03 4.113539274249670363e+00
1.250000000000000069e-02 1.177089999999999994e-03 9.295777968194085528e-01
0.000000000000000000e+00 2.291840000000000066e-05 3.836559895385074803e+00
0.000000000000000000e+00 4.097589999999999913e-04 7.054269451749506370e-01
0.000000000000000000e+00 6.625920000000000420e-03 1.658688654438277288e+00
0.000000000000000000e+00 9.576959999999999596e-04 6.945677311708958745e-01
1.562500000000000000e-02 1.501249999999999980e-03 3.897005657441303672e+00
6.250000000000000347e-03 9.174699999999999522e-02 6.919887811149261214e-01
0.000000000000000000e+00 9.552640000000000480e-04 2.568384686730084354e+00
0.000000000000000000e+00 9.019330000000000749e-03 2.305153240637912937e+00
3.125000000000000000e-02 5.513640000000000208e-02 7.131306213589760912e-02
0.000000000000000000e+00 1.770620000000000093e-03 4.338274875544850806e-01
0.000000000000000000e+00 1.844989999999999911e-03 2.709517101555971141e+00
3.125000000000000173e-03 7.660440000000000131e-03 1.544762726799925989e+00
0.000000000000000000e+00 1.444390000000000084e-02 5.510377623028833716e-01
0.000000000000000000e+00 2.676350000000000083e-03 1.700122224228880485e+00
3.125000000000000173e-03 2.101759999999999826e-03 2.959461921951773711e+00
0.000000000000000000e+00 4.379929999999999761e-03 2.231942373617796793e+00
0.000000000000000000e+00 2.906880000000000141e-03 4.224497292752163347e+00
0.000000000000000000e+00 1.906829999999999983e-02 4.088923962103750753e+00
9.374999999999999653e-03 1.817859999999999919e-03 2.915885328556591549e+00
3.125000000000000173e-03 4.296949999999999902e-03 1.096549320506332581e+00
0.000000000000000000e+00 9.998719999999999570e-04 4.184852491612896408e+00
6.250000000000000000e-02 9.169700000000000073e-02 1.404139704680784639e-01
0.000000000000000000e+00 9.799039999999999747e-04 4.652415514981132816e+00
0.000000000000000000e+00 9.813059999999999318e-04 1.945958750794809955e+00
1.874999999999999931e-02 2.699329999999999785e-03 4.440405867107637405e+00
3.125000000000000173e-03 8.420379999999999879e-03 2.956650792934138572e+00
3.125000000000000173e-03 1.104529999999999922e-02 1.574263826700114777e+00
0.000000000000000000e+00 3.716740000000000061e-03 3.697639871792429700e-01
3.125000000000000173e-03 4.138179999999999983e-03 1.895883156974456085e+00
0.000000000000000000e+00 1.850639999999999954e-05 2.846934782530902375e+00
0.000000000000000000e+00 2.677179999999999924e-03 4.099786072757667377e+00
7.187499999999999445e-02 9.168859999999999510e-02 7.663954880496931521e-01
3.125000000000000173e-03 1.906499999999999992e-03 7.444108091410411854e-01
2.812500000000000069e-02 2.545219999999999948e-03 2.804452271142377384e+00
0.000000000000000000e+00 9.502720000000000524e-04 2.816734126457840937e+00
0.000000000000000000e+00 8.821120000000000003e-04 3.876533555602554859e+00
4.374999999999999722e-02 9.253880000000000439e-02 3.236678915037517257e+00
0.000000000000000000e+00 1.007419999999999973e-03 1.350641806919314902e+00
3.125000000000000000e-02 1.017500000000000002e-02 3.115565935614421189e+00
0.000000000000000000e+00 3.759009999999999912e-04 1.108390019697819140e+00
0.000000000000000000e+00 5.556429999999999789e-04 4.349535363712021763e+00
0.000000000000000000e+00 3.710209999999999810e-03 2.516244754924834126e+00
0.000000000000000000e+00 5.939839999999999834e-04 9.301141527511253004e-01
0.000000000000000000e+00 4.248279999999999786e-04 2.672447982436329639e+00
0.000000000000000000e+00 9.950459999999999514e-03 3.264742659065451580e+00
0.000000000000000000e+00 1.766720000000000053e-03 2.115797760233984359e+00
0.000000000000000000e+00 1.973410000000000135e-05 4.074795897351451757e+00
9.374999999999999653e-03 3.424700000000000140e-03 4.469780106496388683e+00
1.562500000000000000e-02 2.814269999999999793e-03 6.270729484809561827e-01
9.374999999999999653e-03 9.943860000000000546e-03 2.240951141026483295e+00
0.000000000000000000e+00 3.879549999999999839e-03 3.717746981725535527e+00
1.562500000000000000e-02 2.451070000000000072e-03 2.495274790231762463e+00
3.437500000000000278e-02 9.569519999999999416e-02 7.782186747357888734e-01
0.000000000000000000e+00 1.437380000000000081e-02 1.296901455520608204e+00
2.187499999999999861e-02 2.961280000000000162e-03 7.192167809599953054e-01
1.031249999999999944e-01 4.362420000000000186e-02 9.520603467596633340e-01
0.000000000000000000e+00 4.220770000000000424e-03 3.323720534572698782e+00
6.250000000000000347e-03 1.772539999999999966e-03 2.283240319568297316e+00
0.000000000000000000e+00 1.635900000000000028e-03 3.498341416794469971e+00
2.187499999999999861e-02 1.824639999999999986e-03 2.342765002856092238e+00
1.250000000000000069e-02 2.635199999999999869e-03 4.835902505304689569e+00
3.125000000000000173e-03 1.477479999999999939e-02 1.277348879825224603e+00
0.000000000000000000e+00 1.618880000000000059e-03 1.007427883794009826e+00
0.000000000000000000e+00 1.082180000000000078e-03 4.917412152825916927e+00
0.000000000000000000e+00 1.703040000000000012e-04 3.362925688531722912e+00
0.000000000000000000e+00 2.897280000000000016e-04 3.492470805597297501e-01
1.250000000000000069e-02 4.584900000000000260e-03 2.701558532203843122e+00
0.000000000000000000e+00 3.256959999999999933e-04 1.252587180471715467e+00
2.500000000000000139e-02 1.808060000000000006e-03 3.545099839308402112e-01
9.374999999999999653e-03 2.750400000000000067e-03 9.088590258575290903e-01
6.250000000000000347e-03 1.740159999999999927e-03 3.510027591088096255e+00
4.687500000000000000e-02 9.147360000000000213e-02 4.170926142500589684e+00
2.187499999999999861e-02 1.975170000000000051e-03 4.535737591287135828e+00
0.000000000000000000e+00 4.000639999999999969e-04 3.216679540800820192e+00
0.000000000000000000e+00 9.229439999999999780e-04 3.705158743524231468e+00
6.250000000000000347e-03 1.724959999999999992e-03 3.838443944459005941e+00
0.000000000000000000e+00 4.184160000000000136e-04 2.419475572967732191e+00
2.187499999999999861e-02 2.337280000000000173e-03 2.073190009818624446e+00
0.000000000000000000e+00 1.717119999999999931e-03 5.439362282960480410e-01
0.000000000000000000e+00 1.838410000000000044e-02 1.965257765181441130e+00
6.250000000000000347e-03 6.598019999999999580e-03 3.317788140792121698e-01
0.000000000000000000e+00 3.271680000000000226e-04 4.378682849444655467e+00
0.000000000000000000e+00 9.875199999999999777e-04 3.079294065131549019e+00
6.250000000000000347e-03 6.711420000000000059e-03 9.359375086954924150e-01
2.187499999999999861e-02 1.935040000000000067e-03 4.512711670927313179e+00
0.000000000000000000e+00 4.911359999999999814e-04 4.993905576746361596e+00
2.500000000000000139e-02 9.052420000000000258e-03 1.280263952473031930e+00
0.000000000000000000e+00 5.527579999999999820e-04 3.366219291785755630e+00
3.125000000000000173e-03 2.279709999999999896e-03 1.713764141671016539e+00
3.125000000000000173e-03 1.949250000000000028e-03 4.923614835636759501e+00
1.562500000000000000e-02 2.519620000000000193e-03 4.742294298008891573e+00
0.000000000000000000e+00 9.223750000000000178e-04 1.934306244045372214e+00
3.125000000000000173e-03 1.158419999999999936e-02 2.593771704003351886e+00
3.125000000000000173e-03 4.327939999999999739e-03 2.234455997448626441e+00
2.187499999999999861e-02 4.560960000000000188e-03 9.445146631559547812e-01
6.250000000000000347e-03 9.618459999999999510e-02 2.416530291259270768e+00
0.000000000000000000e+00 3.682560000000000195e-04 1.505089590661867760e-02
6.250000000000000347e-03 9.635390000000000621e-03 4.173501127451574533e+00
2.500000000000000139e-02 2.830140000000000086e-03 1.239558564575592436e+00
0.000000000000000000e+00 4.279869999999999855e-03 5.848964965423586460e-02
0.000000000000000000e+00 9.547520000000000095e-04 4.232054270298531762e+00
0.000000000000000000e+00 9.868800000000000922e-04 1.142252192015702494e+00
0.000000000000000000e+00 2.648899999999999866e-02 1.274287781577004841e+00
0.000000000000000000e+00 6.583070000000000111e-04 4.443096784438375302e+00
0.000000000000000000e+00 1.115260000000000079e-03 2.367806286404972038e+00
0.000000000000000000e+00 1.810240000000000113e-02 2.635742885194280571e+00
0.000000000000000000e+00 4.677920000000000233e-04 4.229671338484828347e+00
1.250000000000000069e-02 3.203459999999999988e-03 6.995872186913831836e-02
2.187499999999999861e-02 2.474300000000000024e-03 1.108333052136017960e-01
0.000000000000000000e+00 6.724790000000000238e-04 2.561019267381634545e+00
2.187499999999999861e-02 2.359490000000000112e-03 3.192719423129792844e+00
3.125000000000000173e-03 4.890939999999999871e-03 2.822993173303771197e+00
3.125000000000000173e-03 2.459970000000000125e-03 1.744301419777927631e+00
0.000000000000000000e+00 2.285040000000000064e-05 1.334988683244158647e+00
0.000000000000000000e+00 3.600770000000000099e-03 4.040052531328479191e+00
0.000000000000000000e+00 1.170349999999999906e-03 6.399049210925816800e-01
0.000000000000000000e+00 6.983300000000000618e-02 9.166539446995775053e-01
0.000000000000000000e+00 9.690930000000000377e-02 3.624892939879036380e+00
0.000000000000000000e+00 6.255390000000000429e-04 4.866993892452383896e+00
0.000000000000000000e+00 5.750729999999999471e-04 3.800660499890984756e+00
1.874999999999999931e-02 2.948539999999999928e-03 4.765438011177180577e+00
0.000000000000000000e+00 4.058879999999999736e-04 2.055267454345215405e+00
2.187499999999999861e-02 2.940480000000000090e-03 2.861388608699433345e+00
0.000000000000000000e+00 7.069780000000000335e-04 3.400594896184707672e+00
0.000000000000000000e+00 5.149240000000000457e-04 9.844385946288952693e-01
1.562500000000000000e-02 3.030909999999999941e-03 1.220283567105558964e+00
1.874999999999999931e-02 2.115329999999999901e-03 1.137691753958868901e+00
2.187499999999999861e-02 1.073790000000000022e-01 3.449487846992162599e+00
6.250000000000000347e-03 9.602529999999999399e-02 6.427958130100880352e-01
0.000000000000000000e+00 1.396329999999999967e-02 7.218845472927432061e-01
0.000000000000000000e+00 7.364760000000000143e-04 4.323649058176343152e-01
0.000000000000000000e+00 1.438400000000000052e-03 3.288121825879902538e+00
3.125000000000000173e-03 4.105410000000000309e-03 1.310047397279315184e+00
2.812500000000000069e-02 1.071539999999999992e-01 3.196170262942388263e-03
0.000000000000000000e+00 3.821440000000000058e-04 7.731665684535538041e-03
0.000000000000000000e+00 2.290300000000000078e-05 3.533216229475197423e+00
3.125000000000000173e-03 1.737879999999999980e-02 3.239661784020835267e+00
0.000000000000000000e+00 2.334720000000000035e-04 6.754773256835339135e-01
0.000000000000000000e+00 1.221379999999999992e-03 2.266691475464158056e+00
1.562500000000000000e-02 1.973499999999999994e-03 4.995353413132493259e+00
6.250000000000000347e-03 1.691000000000000142e-02 2.478281820756073062e-01
0.000000000000000000e+00 4.645860000000000137e-04 2.418104883119137627e-01
0.000000000000000000e+00 8.344960000000000008e-04 3.242158287880743561e+00
9.374999999999999653e-03 3.232319999999999898e-03 4.134534014086359122e+00
2.187499999999999861e-02 9.260989999999999500e-02 2.006457857279480006e+00
0.000000000000000000e+00 0.000000000000000000e+00 1.040080755950720803e+00
1.874999999999999931e-02 1.848770000000000014e-03 1.745492769166129277e+00
0.000000000000000000e+00 5.987199999999999597e-04 1.627133783380025900e+00
3.125000000000000173e-03 2.925060000000000160e-03 3.930968626895832152e+00
0.000000000000000000e+00 1.103739999999999973e-03 3.297719347786731703e-01
0.000000000000000000e+00 3.320390000000000104e-04 2.529427965935173273e+00
0.000000000000000000e+00 9.670399999999999569e-04 9.624082167782255226e-01
0.000000000000000000e+00 5.710080000000000190e-04 4.699636490092526486e+00
9.374999999999999653e-03 9.801719999999999877e-02 2.155222201568751217e+00
0.000000000000000000e+00 1.853379999999999958e-03 3.747794188512379776e+00
0.000000000000000000e+00 0.000000000000000000e+00 3.686108482640163331e+00
0.000000000000000000e+00 1.329600000000000053e-02 7.269552312921057080e-01
0.000000000000000000e+00 1.000320000000000072e-03 3.377415804787868847e+00
0.000000000000000000e+00 2.067840000000000043e-04 7.827824938508459729e-01
0.000000000000000000e+00 9.758079999999999922e-04 2.957264145046101689e+00
0.000000000000000000e+00 2.651460000000000015e-03 2.512717433547451140e-01
2.500000000000000139e-02 2.800959999999999908e-03 4.582140155092385037e+00
3.125000000000000173e-03 4.103299999999999829e-03 1.171231397266192964e+00
0.000000000000000000e+00 2.080509999999999825e-03 3.269608568850021602e+00
3.125000000000000173e-03 9.691099999999999715e-02 1.754367231997731036e+00
1.874999999999999931e-02 1.786049999999999964e-03 4.506503043167321643e+00
2.187499999999999861e-02 1.277380000000000052e-03 1.081976107515272734e+00
0.000000000000000000e+00 6.241919999999999760e-04 2.844018207255008424e+00
3.125000000000000173e-03 2.208959999999999830e-03 4.176540349681125086e+00
0.000000000000000000e+00 1.027799999999999938e-03 1.153082679956198398e+00
0.000000000000000000e+00 8.145150000000000307e-03 3.410315912839756436e-01
3.125000000000000173e-03 1.217409999999999933e-03 6.149193113967105218e-01
9.374999999999999653e-03 7.849600000000000197e-04 3.823640984630167772e+00
0.000000000000000000e+00 6.150140000000000121e-03 2.662765385432343646e+00
2.500000000000000139e-02 2.709889999999999955e-03 3.743893366317131211e+00
0.000000000000000000e+00 1.424450000000000065e-03 4.713946314086999934e+00
3.125000000000000173e-03 4.066460000000000213e-02 2.037183271747618374e+00
0.000000000000000000e+00 1.710080000000000107e-03 3.020673728362953447e+00
0.000000000000000000e+00 1.208450000000000019e-03 4.642614290523741083e+00
1.250000000000000069e-02 2.331970000000000050e-03 7.869528691325344827e-01
0.000000000000000000e+00 2.293560000000000111e-05 1.824365743726167999e+00
3.125000000000000173e-03 4.087620000000000142e-03 1.104155724307404718e+00
0.000000000000000000e+00 1.669119999999999903e-04 2.781282916432894492e+00
3.125000000000000173e-03 1.418690000000000012e-03 2.248831478711732501e+00
2.187499999999999861e-02 9.235830000000000428e-02 4.053406226863304207e-01
0.000000000000000000e+00 9.088440000000000147e-04 2.498854913366852948e+00
1.562500000000000000e-02 9.196329999999999782e-02 1.099402665473989682e+00
0.000000000000000000e+00 1.004520000000000066e-03 1.909690943948260777e+00
3.125000000000000173e-03 1.073609999999999981e-01 2.779008722525677211e+00
0.000000000000000000e+00 2.163519999999999940e-03 1.000853958556261469e+00
3.125000000000000173e-03 3.073359999999999981e-02 3.104939113510840620e+00
9.374999999999999653e-03 7.930240000000000292e-04 3.599817286510281766e-01
3.125000000000000173e-03 3.716559999999999829e-03 4.690500088965682046e+00
0.000000000000000000e+00 1.218939999999999954e-03 6.364362360017661313e-01
0.000000000000000000e+00 4.292529999999999913e-04 4.991038542156077895e+00
3.125000000000000173e-03 4.568130000000000107e-03 1.839051593106750815e+00
1.874999999999999931e-02 2.289659999999999786e-03 2.882821103288693898e+00
0.000000000000000000e+00 4.288260000000000335e-03 2.463543240796243872e+00
0.000000000000000000e+00 5.061569999999999611e-03 4.055959599705923679e+00
0.000000000000000000e+00 8.917120000000000168e-04 5.092217087042993917e-02
0.000000000000000000e+00 3.991360000000000220e-03 4.861782349545230808e+00
3.125000000000000173e-03 4.321219999999999749e-03 2.980646920647825215e+00
0.000000000000000000e+00 2.164929999999999806e-03 2.183173937465044290e+00
6.250000000000000347e-03 9.964419999999999875e-03 3.456100269504219780e-01
2.187499999999999861e-02 3.087170000000000192e-03 2.361560352550706732e+00
0.000000000000000000e+00 1.372219999999999950e-03 1.433372922532660354e+00
0.000000000000000000e+00 2.126530000000000174e-03 3.638552699376926380e+00
1.250000000000000069e-02 2.524479999999999953e-03 2.121518456765157268e+00
0.000000000000000000e+00 3.414770000000000305e-02 4.402175516885268536e+00
0.000000000000000000e+00 1.637570000000000085e-03 1.787089171018982903e+00
3.125000000000000000e-02 9.219410000000000105e-02 6.763528114654576706e-01
0.000000000000000000e+00 2.237259999999999989e-05 2.370014436430789129e+00
0.000000000000000000e+00 2.815730000000000229e-04 2.377093608079683396e-01
0.000000000000000000e+00 1.544320000000000068e-03 3.026020237366172649e-01
3.125000000000000173e-03 4.162820000000000235e-03 1.747110179736528934e+00
3.125000000000000173e-03 1.282689999999999959e-03 1.712695573532298621e+00
0.000000000000000000e+00 2.263740000000000197e-03 4.113828772725080185e+00
0.000000000000000000e+00 2.250330000000000039e-02 4.961958812392523122e+00
0.000000000000000000e+00 1.872380000000000095e-03 4.716576087899920111e+00
2.187499999999999861e-02 1.704830000000000061e-03 1.959650396024538166e+00
0.000000000000000000e+00 4.857470000000000234e-04 4.793857646799516203e+00
0.000000000000000000e+00 9.627099999999999764e-04 1.434648427891151545e+00
0.000000000000000000e+00 7.409639999999999890e-04 6.290925225353383166e-01
3.125000000000000173e-03 4.880650000000000266e-02 3.047514814236502279e+00
6.250000000000000347e-03 1.144959999999999988e-03 3.088224789426999628e+00
3.125000000000000173e-03 2.080770000000000015e-03 1.825842380406729193e+00
0.000000000000000000e+00 7.421829999999999920e-04 3.046470665675020673e+00
0.000000000000000000e+00 7.465430000000000113e-04 4.795968570089348404e+00
0.000000000000000000e+00 1.129599999999999918e-03 3.750782675852044612e+00
0.000000000000000000e+00 1.070339999999999920e-03 2.612400572428676959e+00
1.874999999999999931e-02 1.740030000000000049e-03 1.940262850249557136e+00
0.000000000000000000e+00 1.052860000000000081e-03 2.186646049562427585e+00
0.000000000000000000e+00 4.145809999999999773e-03 1.166091609390434991e+00
0.000000000000000000e+00 9.391119999999999763e-04 3.299256666891081213e+00
0.000000000000000000e+00 1.036859999999999908e-03 9.964560168892466763e-01
0.000000000000000000e+00 4.141249999999999966e-03 2.765105790583601397e+00
6.250000000000000347e-03 9.996520000000000405e-02 3.734681844261038552e+00
0.000000000000000000e+00 5.562880000000000515e-04 4.262771878194248742e+00
0.000000000000000000e+00 6.677980000000000461e-04 4.788135381452230277e+00
3.125000000000000000e-02 9.393759999999999610e-02 3.858408490736666696e+00
3.125000000000000173e-03 1.690499999999999945e-03 3.257812869769961317e+00
1.874999999999999931e-02 2.339519999999999881e-03 2.696586058178501721e-01
0.000000000000000000e+00 9.916939999999999956e-04 6.973310409300009782e-01
5.312499999999999861e-02 3.226070000000000326e-02 6.757146032601080154e-01
3.125000000000000173e-03 2.130749999999999832e-03 4.963421584678268772e+00
0.000000000000000000e+00 2.142530000000000129e-03 9.282319298328989277e-01
6.250000000000000347e-03 1.232660000000000006e-02 5.163579946768070972e-01
1.562500000000000000e-02 2.066370000000000012e-02 3.135670322302963609e-01
0.000000000000000000e+00 3.312770000000000038e-03 2.700736279321103162e-01
0.000000000000000000e+00 1.046400000000000064e-03 3.509243784134101318e+00
0.000000000000000000e+00 1.131689999999999953e-02 3.159536122300004912e+00
3.437500000000000278e-02 9.960899999999999962e-03 3.702340182498581322e-01
0.000000000000000000e+00 1.350529999999999960e-03 9.151820567124330230e-01
2.187499999999999861e-02 2.657860000000000170e-03 4.418354088600310980e+00
0.000000000000000000e+00 6.513520000000000421e-02 4.824349744509815352e+00
0.000000000000000000e+00 1.972859999999999892e-03 3.968974195037878516e+00
0.000000000000000000e+00 1.209589999999999971e-03 4.433998256462845511e-02
0.000000000000000000e+00 2.302080000000000023e-04 1.874714117311682138e-01
0.000000000000000000e+00 1.582019999999999954e-03 4.024520214736659440e+00
6.250000000000000347e-03 1.241399999999999969e-02 4.142662360452289860e+00
3.125000000000000173e-03 1.010800000000000032e-01 4.276337055386567165e+00
2.187499999999999861e-02 1.832829999999999919e-03 1.448945905524672284e+00
9.374999999999999653e-03 9.639550000000000202e-03 1.080022922372660954e+00
0.000000000000000000e+00 2.320509999999999912e-05 2.347616398468967525e+00
3.125000000000000173e-03 2.105539999999999929e-03 3.672835232055676968e+00
3.125000000000000173e-03 4.791229999999999621e-03 3.280495430413363334e+00
0.000000000000000000e+00 4.109769999999999786e-04 3.471296371749016396e-01
0.000000000000000000e+00 9.642520000000000258e-02 4.090095730337552027e+00
0.000000000000000000e+00 1.858929999999999957e-02 4.030368123376777412e+00
0.000000000000000000e+00 1.006780000000000088e-03 3.761241673345911529e+00
1.562500000000000000e-02 3.240639999999999927e-03 4.023169319871737315e+00
1.874999999999999931e-02 2.704129999999999902e-03 4.533898393931881543e+00
0.000000000000000000e+00 1.413690000000000085e-02 1.797743232861962470e+00
0.000000000000000000e+00 5.396800000000000208e-03 2.221369651386098987e+00
3.125000000000000173e-03 2.418369999999999981e-03 4.205951792721906557e+00
1.250000000000000069e-02 2.762689999999999937e-03 3.669663993112600942e+00
7.499999999999999722e-02 9.186439999999999884e-02 1.585139079035662313e+00
6.250000000000000347e-03 1.018119999999999997e-01 4.471405962512872811e+00
0.000000000000000000e+00 1.145149999999999944e-03 3.327438539500822579e+00
0.000000000000000000e+00 1.072059999999999897e-03 2.562314570264765390e+00
3.125000000000000173e-03 1.700480000000000090e-03 3.105385695988466921e+00
0.000000000000000000e+00 1.826179999999999947e-03 2.567578007785051408e+00
0.000000000000000000e+00 3.761279999999999875e-04 3.641886602677943507e+00
3.749999999999999861e-02 9.114959999999999729e-02 3.525221359708059943e+00
0.000000000000000000e+00 7.336540000000000335e-04 7.881419692694924262e-01
1.562500000000000000e-02 1.159869999999999911e-03 7.776706169516378608e-01
0.000000000000000000e+00 7.139040000000000143e-04 1.430198260117642839e+00
1.031249999999999944e-01 9.110989999999999367e-02 3.777718883920382353e+00
6.250000000000000347e-03 1.699200000000000103e-03 4.120978473723024393e+00
0.000000000000000000e+00 1.389340000000000019e-02 1.821007696754521898e+00
3.125000000000000173e-03 4.915199999999999778e-03 3.526881214865386305e+00
0.000000000000000000e+00 2.315610000000000010e-05 2.132092032609401500e+00
0.000000000000000000e+00 3.814399999999999800e-04 1.000948327916129532e+00
0.000000000000000000e+00 1.740030000000000049e-03 1.040266849871241961e+00
9.374999999999999653e-03 9.122049999999999603e-02 3.350995166491508748e+00
0.000000000000000000e+00 1.106430000000000044e-03 1.669189278312990243e+00
0.000000000000000000e+00 7.881990000000000177e-03 4.184272332914928949e-01
3.125000000000000173e-03 1.701830000000000009e-02 1.222928933575431198e+00
5.000000000000000278e-02 9.326439999999999730e-02 1.054299000264987018e+00
1.156250000000000056e-01 8.053979999999999473e-02 4.461140480616078818e+00
0.000000000000000000e+00 1.505510000000000008e-02 1.388226460641070581e+00
0.000000000000000000e+00 4.347670000000000202e-04 2.661652944773817975e+00
6.250000000000000347e-03 9.851300000000000334e-02 3.791597444685669061e+00
6.250000000000000347e-03 9.826250000000000262e-02 4.504153527589068062e+00
0.000000000000000000e+00 1.511549999999999960e-03 4.490251612486504840e+00
0.000000000000000000e+00 3.867380000000000232e-04 3.131696629635609241e+00
0.000000000000000000e+00 1.239300000000000037e-03 1.888922592386981680e+00
0.000000000000000000e+00 2.539580000000000049e-03 3.297745814887627080e+00
6.250000000000000347e-03 1.972929999999999909e-03 7.797150515235495849e-01
0.000000000000000000e+00 2.386560000000000135e-04 2.050703127187780250e+00
0.000000000000000000e+00 2.366909999999999847e-03 4.011847136030723071e+00
0.000000000000000000e+00 2.912640000000000086e-04 3.603509551740030625e-01
0.000000000000000000e+00 1.820940000000000059e-01 2.494815001166548196e+00
3.125000000000000173e-03 7.595969999999999632e-03 4.634310519189732247e+00
7.187499999999999445e-02 9.217839999999999367e-02 9.801034322577389934e-01
9.374999999999999653e-03 6.973440000000000237e-04 2.847667133553436258e+00
0.000000000000000000e+00 7.301270000000000112e-04 1.823088793748022685e+00
9.374999999999999653e-03 2.089660000000000128e-03 4.470675088918215856e+00
0.000000000000000000e+00 1.110660000000000076e-03 6.313920801982031428e-01
1.874999999999999931e-02 1.824510000000000107e-03 8.927437499685442202e-01
9.374999999999999653e-03 1.271360000000000025e-03 3.020277867979148656e+00
9.374999999999999653e-03 5.592190000000000355e-03 2.626641760489810906e+00
3.125000000000000173e-03 2.744190000000000084e-03 1.410754566690930023e+00
0.000000000000000000e+00 4.297659999999999913e-04 1.054844792474522563e+00
6.250000000000000347e-03 1.638399999999999926e-02 1.018672391099135766e+00
0.000000000000000000e+00 7.445550000000000432e-04 2.135177332365404190e+00
0.000000000000000000e+00 3.095679999999999743e-04 1.210341939396554212e+00
0.000000000000000000e+00 3.888000000000000180e-04 4.322699906946216863e+00
0.000000000000000000e+00 3.170940000000000130e-03 8.526087358106643199e-01
6.250000000000000347e-03 1.466300000000000025e-03 3.255877480073917418e+00
0.000000000000000000e+00 1.799999999999999951e-03 1.842758169696032233e+00
0.000000000000000000e+00 9.812849999999999351e-02 3.260725212949622254e-01
6.250000000000000347e-03 1.208190000000000045e-03 3.790113838426063086e+00
6.250000000000000347e-03 1.608580000000000079e-03 4.641833555262137700e+00
0.000000000000000000e+00 1.111299999999999961e-03 7.419419997803400335e-01
0.000000000000000000e+00 3.923199999999999951e-03 3.109179373579171735e+00
9.374999999999999653e-03 1.982530000000000143e-03 2.135000027182489823e+00
0.000000000000000000e+00 3.791360000000000238e-04 2.139715333393684915e+00
0.000000000000000000e+00 1.644799999999999973e-04 3.954115358038723382e-01
1.562500000000000000e-02 4.683709999999999783e-03 2.120336840318069349e+00
0.000000000000000000e+00 9.891839999999999401e-04 2.225231389568478324e+00
0.000000000000000000e+00 4.123880000000000232e-04 1.254520429874503851e+00
2.812500000000000069e-02 2.590269999999999986e-03 4.850441834467583702e-01
0.000000000000000000e+00 4.175489999999999584e-03 1.272600732215058983e+00
0.000000000000000000e+00 5.177089999999999644e-03 3.188336979323360687e+00
3.125000000000000000e-02 9.280009999999999648e-02 2.117237009468973419e+00
0.000000000000000000e+00 9.655679999999999819e-04 4.790940076097744971e+00
0.000000000000000000e+00 1.882719999999999880e-02 4.071357870109757471e+00
1.562500000000000000e-02 1.813570000000000026e-03 2.274842245882751524e+00
0.000000000000000000e+00 2.304980000000000079e-05 2.622435511362180005e+00
2.187499999999999861e-02 2.990529999999999924e-02 2.437111833251366377e+00
0.000000000000000000e+00 3.641150000000000116e-03 3.906759249386323241e+00
3.125000000000000173e-03 1.637939999999999882e-02 3.609995751489319948e-01
0.000000000000000000e+00 1.627200000000000087e-03 4.827611925938718684e+00
3.125000000000000173e-03 9.704150000000000276e-02 1.902535498771051881e-01
0.000000000000000000e+00 5.002239999999999595e-04 4.701698427720253370e+00
0.000000000000000000e+00 1.081979999999999964e-03 2.965919298749389199e+00
3.125000000000000173e-03 9.738760000000000472e-02 3.571880406982035350e+00
1.562500000000000000e-02 1.882240000000000085e-03 4.747277345686749861e+00
0.000000000000000000e+00 1.444860000000000068e-03 4.421800522048832782e+00
0.000000000000000000e+00 3.668289999999999832e-03 2.579789029277735235e+00
0.000000000000000000e+00 3.115329999999999922e-03 4.864136773603564556e+00
3.125000000000000173e-03 3.951620000000000306e-03 1.844018027332933185e+00
9.374999999999999653e-03 4.214719999999999925e-03 1.044610053244737102e+00
1.250000000000000069e-02 2.568770000000000168e-03 3.966894330697853910e+00
6.250000000000000347e-03 1.916860000000000048e-03 4.615198567639219540e+00
4.687500000000000000e-02 1.780990000000000090e-03 3.526348961437439478e+00
3.125000000000000000e-02 3.568380000000000163e-02 4.674859005583788196e+00
0.000000000000000000e+00 1.705090000000000034e-03 3.721510786773325030e+00
3.125000000000000000e-02 1.107879999999999976e-02 4.648047123556479754e+00
1.250000000000000069e-02 1.044800000000000026e-03 4.774087351381623101e+00
1.250000000000000069e-02 1.125929999999999986e-02 4.954821950120276597e+00
3.125000000000000173e-03 1.044899999999999995e-01 2.500873151369751746e+00
9.374999999999999653e-03 1.485570000000000076e-03 1.320347092734036609e-01
3.437500000000000278e-02 9.241389999999999327e-02 3.022381743834314349e+00
0.000000000000000000e+00 3.480070000000000038e-04 4.611658629031506251e+00
1.874999999999999931e-02 1.759099999999999987e-03 1.546185079730264089e+00
3.125000000000000173e-03 3.068860000000000077e-03 7.047415017509522928e-01
3.125000000000000173e-03 9.482809999999999850e-02 4.913964830486367674e+00
3.125000000000000173e-03 4.184059999999999863e-03 3.347711618678978596e+00
0.000000000000000000e+00 1.042820000000000075e-03 2.418363538061316209e+00
1.562500000000000000e-02 1.913120000000000098e-02 8.362523630179807821e-01
0.000000000000000000e+00 5.494019999999999633e-03 1.475951243467150231e+00
0.000000000000000000e+00 9.945600000000000187e-04 3.948135101110452183e+00
3.125000000000000000e-02 9.655429999999999569e-03 2.297452384417530968e-01
0.000000000000000000e+00 2.932609999999999991e-03 2.562225926590499636e+00
6.250000000000000000e-02 1.065239999999999937e-01 3.871396016082297553e+00
2.812500000000000069e-02 2.104899999999999827e-03 7.297139510523298345e-02
1.562500000000000000e-02 1.882240000000000085e-03 3.253883867532589402e+00
0.000000000000000000e+00 3.545479999999999942e-04 3.025130468881451762e+00
0.000000000000000000e+00 6.108549999999999917e-04 2.374001343795101526e+00
0.000000000000000000e+00 2.188789999999999833e-02 4.071350288428343234e+00
2.812500000000000069e-02 3.125820000000000074e-03 8.122271722165119723e-01
3.125000000000000173e-03 4.129540000000000120e-03 2.416036318979424724e+00
2.812500000000000069e-02 6.378430000000000037e-03 2.385324216194326219e+00
1.250000000000000069e-02 6.217600000000000210e-03 3.916607040797388084e+00
0.000000000000000000e+00 3.497699999999999854e-03 4.736213221787289207e+00
0.000000000000000000e+00 0.000000000000000000e+00 4.854760470700015595e+00
0.000000000000000000e+00 2.453120000000000257e-04 1.843429861253888635e+00
3.125000000000000173e-03 2.080770000000000015e-03 3.559699647912450526e+00
0.000000000000000000e+00 7.326280000000000335e-04 2.146259639625800464e+00
3.125000000000000173e-03 5.635140000000000288e-03 3.292611537904554631e+00
1.250000000000000069e-02 2.296360000000000068e-02 3.921258345757681507e+00
3.437500000000000278e-02 9.195960000000000245e-02 2.460151975799469870e+00
3.125000000000000173e-03 7.542850000000000249e-03 4.277488041389267082e+00
3.125000000000000173e-03 7.967039999999999886e-03 8.166247256849606950e-01
3.125000000000000173e-03 5.103739999999999839e-03 7.479504049985075120e-01
3.125000000000000173e-03 1.052109999999999990e-01 6.190968170913746516e-01
3.125000000000000173e-03 4.273220000000000317e-03 4.630251191975848890e+00
9.374999999999999653e-03 1.165449999999999993e-02 3.017858011472589030e+00
0.000000000000000000e+00 1.807229999999999948e-03 3.539462736489842332e+00
2.187499999999999861e-02 2.047359999999999805e-03 2.966511905210000855e-01
2.500000000000000139e-02 9.279709999999999348e-02 4.459804026085945949e+00
0.000000000000000000e+00 2.999039999999999801e-04 2.641864668550506945e+00
0.000000000000000000e+00 1.275059999999999952e-03 1.702553141624740807e+00
0.000000000000000000e+00 1.817760000000000025e-04 7.830179698486389173e-01
0.000000000000000000e+00 1.019970000000000035e-03 1.782234393682114337e+00
0.000000000000000000e+00 1.914619999999999907e-03 4.957502346012253369e+00
0.000000000000000000e+00 2.126340000000000001e-03 3.190781960498998426e+00
3.125000000000000173e-03 2.524740000000000144e-03 1.173819098986922382e-01
0.000000000000000000e+00 9.584129999999999733e-04 6.866099590808838471e-01
3.125000000000000173e-03 1.013340000000000074e-02 4.930245175159964077e-01
5.000000000000000278e-02 9.152169999999999750e-02 1.099641482654338809e+00
0.000000000000000000e+00 1.296510000000000067e-03 2.424379211805321344e+00
0.000000000000000000e+00 8.853109999999999539e-04 1.063058170386027568e-01
2.500000000000000139e-02 9.099889999999999368e-02 1.467423407379597755e-02
0.000000000000000000e+00 2.281119999999999939e-05 4.834209497062496474e+00
0.000000000000000000e+00 8.656869999999999669e-04 3.300083729085521611e+00
0.000000000000000000e+00 4.550169999999999909e-02 1.404863123040557937e+00
0.000000000000000000e+00 3.665920000000000029e-04 4.373924933322794750e+00
0.000000000000000000e+00 4.289979999999999662e-03 6.239681166369470677e-01
2.187499999999999861e-02 9.087499999999999745e-02 2.370664224160261568e+00
0.000000000000000000e+00 2.676539999999999822e-03 2.503306021734782227e+00
0.000000000000000000e+00 5.699200000000000186e-04 1.140898717464928325e+00
1.562500000000000000e-02 1.053810000000000024e-01 4.776321523905267874e+00
3.125000000000000173e-03 1.658410000000000092e-02 4.276605652653386880e-01
1.250000000000000069e-02 1.827140000000000101e-03 2.017717928023865515e+00
2.500000000000000139e-02 2.641539999999999947e-03 1.295748869480293664e+00
1.874999999999999931e-02 9.799760000000000415e-02 3.729150532586456457e+00
2.812500000000000069e-02 3.019190000000000068e-02 7.230594029854603422e-01
0.000000000000000000e+00 4.182230000000000105e-04 3.348799433836729289e+00
2.500000000000000139e-02 2.748800000000000028e-03 4.382132139903628598e+00
0.000000000000000000e+00 4.700740000000000127e-03 3.973768058907969358e+00
0.000000000000000000e+00 2.290749999999999818e-03 3.443722540982619762e+00
4.062500000000000139e-02 9.262929999999999775e-02 2.417390434382022946e+00
0.000000000000000000e+00 1.529219999999999972e-03 3.374055068994592510e+00
9.374999999999999653e-03 8.733380000000000656e-03 4.580500611864157801e-02
3.125000000000000173e-03 4.537470000000000045e-03 1.942545920451553165e+00
0.000000000000000000e+00 1.057919999999999954e-03 1.043828012744152822e+00
0.000000000000000000e+00 1.795199999999999888e-04 6.560849631135395876e-01
3.125000000000000173e-03 7.956500000000000031e-03 1.399212382671798371e+00
2.187499999999999861e-02 2.629760000000000084e-03 2.299770562667784457e+00
0.000000000000000000e+00 1.750210000000000090e-03 8.015211455779841510e-01
0.000000000000000000e+00 1.653760000000000104e-04 2.748254488615347491e+00
0.000000000000000000e+00 2.607320000000000102e-04 3.174596357811287906e-01
3.125000000000000173e-03 4.258180000000000298e-03 1.187916041872142392e+00
0.000000000000000000e+00 3.936640000000000039e-04 6.465418310274684277e-01
1.874999999999999931e-02 2.807039999999999796e-03 7.669001503456585045e-01
0.000000000000000000e+00 3.383039999999999919e-04 1.417144337430625844e-01
1.562500000000000000e-02 2.121290000000000120e-01 4.709674953838467459e+00
3.125000000000000173e-03 4.080770000000000057e-03 4.696366686350897268e+00
0.000000000000000000e+00 1.548160000000000031e-04 4.931453997556475066e+00
0.000000000000000000e+00 4.881919999999999663e-03 8.200138857728911379e-01
0.000000000000000000e+00 2.464259999999999801e-03 4.630403876488790260e+00
0.000000000000000000e+00 4.331780000000000352e-03 3.215776124348646903e+00
0.000000000000000000e+00 5.542850000000000207e-03 4.198831970752754827e+00
0.000000000000000000e+00 2.656760000000000198e-03 3.714369332662259104e+00
1.562500000000000000e-02 2.521279999999999875e-03 1.668544905343876117e+00
0.000000000000000000e+00 2.007489999999999795e-03 4.881726155211652873e+00
0.000000000000000000e+00 1.188759999999999990e-02 2.263656268448223763e+00
0.000000000000000000e+00 3.605060000000000209e-03 4.930653507887034159e+00
0.000000000000000000e+00 1.785789999999999990e-03 2.204409862020825450e+00
0.000000000000000000e+00 3.034390000000000199e-04 3.473307608927982404e+00
1.562500000000000000e-02 2.608060000000000152e-03 1.828319499673555226e+00
0.000000000000000000e+00 2.701059999999999919e-03 4.360611715124818488e+00
0.000000000000000000e+00 9.691850000000000118e-04 2.253972153711141235e+00
6.250000000000000347e-03 1.962559999999999912e-03 4.511485618366683603e+00
0.000000000000000000e+00 3.476229999999999750e-04 4.561281963067468581e+00
0.000000000000000000e+00 1.164990000000000079e-03 2.836937231112567126e+00
1.874999999999999931e-02 1.060289999999999982e-01 2.611364658198112032e-02
6.250000000000000000e-02 9.196849999999999470e-02 4.223329552503102269e-01
0.000000000000000000e+00 8.577279999999999844e-04 2.362752945961269724e+00
0.000000000000000000e+00 1.683260000000000008e-03 1.488803084284087141e+00
0.000000000000000000e+00 4.138629999999999913e-04 5.897018599031522701e-02
0.000000000000000000e+00 3.654460000000000000e-03 2.188752563679111418e+00
2.500000000000000139e-02 6.636610000000000252e-03 9.910871735680504280e-01
0.000000000000000000e+00 1.090880000000000018e-03 2.484514201279104384e+00
0.000000000000000000e+00 3.621629999999999815e-03 2.490720834037340126e+00
1.250000000000000069e-02 2.695620000000000134e-03 2.883245297128889995e+00
5.312499999999999861e-02 9.103700000000000681e-02 1.376111310919706510e+00
2.812500000000000069e-02 2.847940000000000194e-03 5.213672150677911565e-01
0.000000000000000000e+00 2.584060000000000003e-03 7.515019257758409621e-01
1.250000000000000069e-02 2.458239999999999991e-03 1.470790679090104192e+00
0.000000000000000000e+00 4.126910000000000127e-03 3.471914643524465216e-01
2.812500000000000069e-02 3.222909999999999837e-03 2.121878727339672199e+00
0.000000000000000000e+00 2.272609999999999913e-05 2.256491287242822885e+00
0.000000000000000000e+00 1.003329999999999977e-03 1.626260278677426729e+00
3.125000000000000173e-03 4.008509999999999851e-03 2.445777742530000687e+00
1.874999999999999931e-02 2.589310000000000049e-03 2.134028256286689462e+00
0.000000000000000000e+00 2.366909999999999847e-03 4.918809072134944227e-01
0.000000000000000000e+00 9.941760000000000441e-04 4.811143365171446362e+00
6.250000000000000347e-03 3.547010000000000180e-03 3.098264685894072556e+00
0.000000000000000000e+00 3.889920000000000053e-04 4.535863959229103237e+00
0.000000000000000000e+00 4.232250000000000009e-04 4.660095217368468212e+00
3.125000000000000000e-02 1.310719999999999941e-02 6.213905634999683514e-01
0.000000000000000000e+00 1.213569999999999970e-03 3.981427221093600810e+00
0.000000000000000000e+00 1.217500000000000006e-02 2.182768729754094750e+00
0.000000000000000000e+00 2.209280000000000098e-04 6.183492536258355932e-01
0.000000000000000000e+00 1.994870000000000096e-05 1.130324298375215974e+00
3.125000000000000173e-03 9.693179999999999852e-02 3.839815499577085234e+00
3.125000000000000173e-03 4.050619999999999568e-03 1.253299545741747956e+00
2.500000000000000139e-02 4.778290000000000315e-02 2.485703722550849371e+00
1.874999999999999931e-02 1.029249999999999957e-02 3.680627521897011922e-01
0.000000000000000000e+00 2.243839999999999984e-03 1.789576099675171506e+00
0.000000000000000000e+00 5.012009999999999469e-04 4.406304148222344175e+00
3.125000000000000173e-03 3.846480000000000038e-02 3.525320569317845099e+00
0.000000000000000000e+00 1.066880000000000085e-03 2.983816547852523371e+00
1.250000000000000069e-02 2.122880000000000166e-03 3.434206392009107045e+00
0.000000000000000000e+00 3.737200000000000201e-04 4.672314808362135530e+00
0.000000000000000000e+00 4.322750000000000203e-03 6.978274991099425728e-01
0.000000000000000000e+00 2.324160000000000028e-03 5.951164860748242580e-01
0.000000000000000000e+00 9.670399999999999569e-04 6.119155888850380531e-01
0.000000000000000000e+00 3.613700000000000072e-03 1.246728205597792405e+00
0.000000000000000000e+00 3.199620000000000242e-02 4.209771436712805848e-02
1.874999999999999931e-02 1.828100000000000037e-03 4.879741825212542849e+00
9.374999999999999653e-03 5.141699999999999916e-03 1.364808454624523160e+00
3.125000000000000173e-03 9.544759999999999356e-02 2.819147797191429383e+00
0.000000000000000000e+00 1.204030000000000031e-03 5.802891614149896515e-01
3.125000000000000173e-03 4.962180000000000063e-03 2.066213122761835219e+00
1.562500000000000000e-02 3.573059999999999865e-03 3.382485436838977400e+00
0.000000000000000000e+00 9.628800000000000510e-04 1.517954532676990542e+00
1.874999999999999931e-02 2.020029999999999916e-03 1.099584514224254406e+00
0.000000000000000000e+00 4.082180000000000357e-03 3.468241872283168714e+00
0.000000000000000000e+00 1.296510000000000067e-03 4.875402161129875012e+00
9.374999999999999653e-03 1.202959999999999967e-02 4.928746680453597762e+00
2.187499999999999861e-02 2.092929999999999791e-03 3.939032469008030279e+00
0.000000000000000000e+00 1.061059999999999955e-03 3.012220949491549504e+00
1.562500000000000000e-02 4.578620000000000259e-03 1.397936350745934586e+00
3.125000000000000173e-03 1.310719999999999941e-02 4.667848848860774780e+00
0.000000000000000000e+00 2.510079999999999928e-04 4.044829581300694699e+00
5.625000000000000139e-02 9.273339999999999361e-02 2.167948308193435203e+00
2.500000000000000139e-02 9.331499999999999517e-02 1.601883150183861515e+00
9.062499999999999722e-02 2.389470000000000136e-02 3.529063407975128186e+00
0.000000000000000000e+00 3.591010000000000165e-04 3.149146282282454301e+00
2.500000000000000139e-02 2.858110000000000078e-03 3.765611843460801023e+00
1.874999999999999931e-02 2.224200000000000135e-02 2.697000951595527773e+00
1.250000000000000069e-02 3.044339999999999893e-02 2.649356252298541214e+00
0.000000000000000000e+00 1.060100000000000018e-03 2.849276225547237473e+00
0.000000000000000000e+00 5.917119999999999672e-03 4.543020331121760513e+00
0.000000000000000000e+00 7.260870000000000431e-04 4.926108277918736178e+00
0.000000000000000000e+00 2.806110000000000006e-04 1.158548321410233672e+00
0.000000000000000000e+00 1.467070000000000006e-03 4.430003187665461972e+00
0.000000000000000000e+00 1.085780000000000078e-02 2.890395234019945470e+00
6.250000000000000347e-03 2.908609999999999841e-03 2.187940290736719362e+00
9.374999999999999653e-03 1.365120000000000049e-03 1.106169939870133012e-01
2.812500000000000069e-02 9.272479999999999611e-02 4.273067557757802781e+00
2.187499999999999861e-02 2.700989999999999901e-03 4.412380826860205829e+00
3.125000000000000173e-03 4.185789999999999997e-03 2.885649444381049200e+00
0.000000000000000000e+00 7.202520000000000016e-04 3.286885080223312272e+00
0.000000000000000000e+00 1.471740000000000027e-03 4.933194874122973417e+00
0.000000000000000000e+00 7.804199999999999852e-03 3.849777197439884890e+00
4.687500000000000000e-02 9.270390000000000574e-02 1.254468858651025531e+00
1.874999999999999931e-02 1.068520000000000025e-01 4.893142796307917486e+00
0.000000000000000000e+00 1.358529999999999937e-03 3.779551731733079567e+00
6.250000000000000347e-03 1.211009999999999994e-03 3.246029710067916518e+00
3.125000000000000173e-03 1.860799999999999911e-03 1.048053367661835988e+00
2.500000000000000139e-02 1.163690000000000037e-02 7.523529273109691440e-01
1.874999999999999931e-02 1.369470000000000019e-03 1.661133437416692615e+00
2.500000000000000139e-02 5.100480000000000118e-03 3.870921034311262332e+00
0.000000000000000000e+00 7.661649999999999884e-03 3.146163824035283607e+00
1.874999999999999931e-02 1.813949999999999937e-03 1.387075306631824212e-01
0.000000000000000000e+00 0.000000000000000000e+00 4.821906823480702542e+00
1.562500000000000000e-02 2.338180000000000033e-03 1.163125482749016726e-01
0.000000000000000000e+00 1.087300000000000029e-03 1.898438118053670243e+00
2.500000000000000139e-02 2.957379999999999905e-03 4.564011510264370797e-01
9.374999999999999653e-03 1.555329999999999950e-03 2.557394303806295177e+00
0.000000000000000000e+00 4.265590000000000202e-04 4.478216277540132850e+00
0.000000000000000000e+00 3.842499999999999995e-03 4.327237674150402613e-01
0.000000000000000000e+00 1.093699999999999967e-03 4.417869276088824293e+00
3.125000000000000173e-03 1.210689999999999943e-03 2.130602944783677621e+00
0.000000000000000000e+00 3.397209999999999813e-02 1.973439444228837658e+00
3.125000000000000173e-03 1.528580000000000086e-03 4.343860198107121207e+00
1.874999999999999931e-02 2.507709999999999800e-03 2.059005270255637177e-01
0.000000000000000000e+00 3.800049999999999912e-04 2.039493424001801891e+00
2.187499999999999861e-02 1.817279999999999894e-03 1.118235572518397447e+00
1.874999999999999931e-02 1.895999999999999899e-03 5.911557885467344509e-01
1.250000000000000069e-02 9.184749999999999859e-02 4.726548225104376666e-02
0.000000000000000000e+00 9.177599999999999951e-04 3.703799361014008085e+00
0.000000000000000000e+00 1.858049999999999979e-03 2.099112781260008997e+00
0.000000000000000000e+00 5.213999999999999885e-04 1.853926480969883439e+00
1.562500000000000000e-02 9.368869999999999976e-02 8.468783534450402550e-01
3.125000000000000173e-03 3.989190000000000097e-02 2.879742533678538052e+00
0.000000000000000000e+00 3.583319999999999973e-04 2.567540785989566920e+00
0.000000000000000000e+00 3.825060000000000135e-04 2.302226719367388430e+00
9.374999999999999653e-03 2.326850000000000099e-03 1.445742545675637203e+00
3.125000000000000173e-03 9.283220000000000360e-02 2.276647140132648239e-02
3.125000000000000173e-03 4.173819999999999961e-03 3.195758423120029779e+00
0.000000000000000000e+00 2.289540000000000065e-03 4.400475475881173715e+00
2.187499999999999861e-02 2.670340000000000213e-03 3.628509331256025483e+00
3.125000000000000173e-03 5.025019999999999834e-03 6.298324598530041785e-01
0.000000000000000000e+00 6.216960000000000324e-04 2.222914036896337819e+00
3.125000000000000000e-02 2.979170000000000082e-02 4.294284157130403123e+00
9.374999999999999653e-03 2.849470000000000214e-03 3.430964238202163230e+00
0.000000000000000000e+00 1.734269999999999996e-03 3.761341124991258944e+00
1.562500000000000000e-02 1.771650000000000048e-03 4.740694674502414330e+00
6.250000000000000347e-03 2.304959999999999995e-03 2.947643509838601794e+00
0.000000000000000000e+00 9.924479999999999413e-04 1.408513184811442276e+00
0.000000000000000000e+00 1.183769999999999961e-02 7.635489243208504195e-01
3.125000000000000173e-03 1.113470000000000085e-03 9.480598652256994052e-01
