1.874999999999999931e-02 2.609540000000000037e-03 1.014089192594331834e+00
3.125000000000000173e-03 5.456060000000000423e-03 1.257537092617381225e+00
0.000000000000000000e+00 1.023819999999999938e-03 5.066738378027185741e-01
2.187499999999999861e-02 2.230530000000000099e-03 1.383611510927290622e-01
2.187499999999999861e-02 1.584450000000000051e-03 2.979170154214098698e+00
0.000000000000000000e+00 4.184799999999999913e-04 4.011779046879848654e-01
6.250000000000000347e-03 2.257920000000000066e-03 2.365989564653781407e+00
1.874999999999999931e-02 2.231939999999999966e-03 3.310676272722729019e-01
0.000000000000000000e+00 1.099900000000000010e-03 1.642681290235026736e+00
0.000000000000000000e+00 3.044219999999999825e-03 4.269514257641714217e+00
9.374999999999999653e-03 1.994109999999999893e-03 3.161354931743947549e+00
1.250000000000000069e-02 1.513540000000000068e-03 3.515501296135989495e+00
6.250000000000000347e-03 2.216829999999999929e-03 1.253815558856771206e+00
2.500000000000000139e-02 1.060770000000000046e-01 5.875407837931501120e-01
0.000000000000000000e+00 1.204030000000000031e-03 1.303582239218995520e+00
0.000000000000000000e+00 1.880380000000000072e-03 2.239058761452983326e-01
0.000000000000000000e+00 5.038080000000000119e-04 3.148841624948642171e+00
0.000000000000000000e+00 3.644929999999999785e-03 1.834745297076430415e+00
0.000000000000000000e+00 1.135809999999999901e-03 2.949806857587871090e+00
0.000000000000000000e+00 3.557020000000000039e-04 4.870760501052735947e+00
6.250000000000000347e-03 2.222340000000000166e-03 3.469050327445786230e+00
0.000000000000000000e+00 4.346240000000000346e-03 3.453381458193913733e+00
1.562500000000000000e-02 2.255420000000000168e-03 7.324563114173665568e-01
0.000000000000000000e+00 2.184959999999999897e-04 2.483500456032617265e+00
0.000000000000000000e+00 5.021819999999999756e-03 4.243655669348489923e+00
0.000000000000000000e+00 2.160070000000000140e-05 4.477381540587617614e+00
2.500000000000000139e-02 2.900160000000000151e-03 1.215666116129276997e-01
1.250000000000000069e-02 2.175359999999999881e-03 3.999627439782981853e+00
0.000000000000000000e+00 1.501830000000000005e-02 1.043796164784834835e+00
0.000000000000000000e+00 5.161739999999999731e-03 1.485783458020550452e+00
9.374999999999999653e-03 2.272189999999999887e-03 1.927695575402839090e+00
0.000000000000000000e+00 4.484860000000000235e-03 4.829939318293160255e+00
1.562500000000000000e-02 9.155119999999999925e-02 8.343354457512036637e-01
0.000000000000000000e+00 1.182590000000000073e-03 1.795801696078123566e+00
0.000000000000000000e+00 2.280560000000000066e-05 3.135973396515104206e+00
3.125000000000000173e-03 3.922300000000000092e-03 4.887136421967482214e+00
0.000000000000000000e+00 9.004609999999999698e-03 2.933377899388673882e+00
0.000000000000000000e+00 4.704769999999999612e-03 4.660590579072223960e+00
0.000000000000000000e+00 2.689920000000000158e-03 1.798008399779560840e+00
1.562500000000000000e-02 2.387199999999999912e-03 2.739677668957749557e+00
0.000000000000000000e+00 5.551939999999999566e-04 3.856106634826733881e+00
0.000000000000000000e+00 9.512939999999999894e-04 4.116222892831904012e+00
0.000000000000000000e+00 7.473129999999999920e-04 4.478363380699233787e+00
4.374999999999999722e-02 9.129339999999999677e-02 2.890780849108798289e-01
2.500000000000000139e-02 1.827899999999999924e-03 6.019300416686351740e-01
0.000000000000000000e+00 1.928699999999999989e-03 6.302317971973192545e-01
2.187499999999999861e-02 3.629439999999999836e-03 2.644458233917646339e+00
6.250000000000000347e-03 6.692420000000000140e-03 1.692052129538041960e+00
0.000000000000000000e+00 4.352700000000000145e-03 8.748910708559204386e-01
2.812500000000000069e-02 1.815229999999999925e-03 4.883193874130022927e+00
0.000000000000000000e+00 1.120649999999999945e-03 2.697113086287227013e+00
0.000000000000000000e+00 1.240449999999999929e-03 1.619416054102768010e+00
9.374999999999999653e-03 9.207780000000000131e-02 3.966323463433012009e+00
0.000000000000000000e+00 7.843769999999999475e-04 4.969043460919875255e-01
0.000000000000000000e+00 3.648699999999999947e-03 4.151638833522383720e+00
0.000000000000000000e+00 1.186429999999999950e-02 4.546247247511958633e-02
9.374999999999999653e-03 5.726979999999999571e-03 2.330939540794005005e+00
2.187499999999999861e-02 2.791490000000000204e-03 1.107721145100403204e+00
0.000000000000000000e+00 2.783100000000000157e-03 4.754585751076402467e+00
1.562500000000000000e-02 1.782460000000000034e-03 1.343937749149076710e-01
2.500000000000000139e-02 2.628290000000000140e-03 9.198373061062564693e-01
3.125000000000000173e-03 1.812290000000000038e-03 3.864735428817325680e+00
0.000000000000000000e+00 7.315380000000000016e-04 3.862677784159116889e+00
1.250000000000000069e-02 2.812160000000000180e-03 9.198114405217833189e-01
6.562500000000000278e-02 9.175229999999999497e-02 3.330002772349133444e+00
0.000000000000000000e+00 4.304699999999999846e-03 2.141243835505026283e+00
0.000000000000000000e+00 4.981760000000000225e-04 1.208682059071251480e+00
1.562500000000000000e-02 9.795660000000000478e-02 1.071429027653218569e+00
0.000000000000000000e+00 4.639100000000000168e-03 2.508528780575343564e+00
1.874999999999999931e-02 2.218299999999999873e-03 3.246208075898504575e-01
6.250000000000000347e-03 2.914490000000000136e-02 3.636150946154013575e+00
0.000000000000000000e+00 9.276799999999999543e-04 3.352241724347069685e+00
0.000000000000000000e+00 1.728640000000000038e-03 1.322287465440427079e+00
3.125000000000000173e-03 1.735299999999999950e-03 3.577739651248990072e+00
1.250000000000000069e-02 1.767869999999999945e-03 4.570402513947968703e-02
3.125000000000000173e-03 7.841650000000000356e-03 3.360982526256395264e+00
2.812500000000000069e-02 3.910829999999999862e-02 1.768813129149204411e+00
2.812500000000000069e-02 1.805570000000000048e-03 1.638916710873931759e+00
0.000000000000000000e+00 9.318399999999999687e-04 1.585679372853201929e+00
3.125000000000000173e-03 2.871739999999999796e-03 1.104189462070260808e+00
0.000000000000000000e+00 1.916019999999999876e-02 2.896633054429076815e+00
0.000000000000000000e+00 1.050429999999999984e-03 3.366141882920990369e+00
3.125000000000000173e-03 1.033979999999999969e-02 3.326930326765997314e+00
1.874999999999999931e-02 4.911620000000000222e-03 3.660956412600536058e+00
1.562500000000000000e-02 9.528440000000000520e-02 3.239120778280915491e+00
9.374999999999999653e-03 1.856959999999999947e-03 3.997919078373555202e+00
3.125000000000000173e-03 1.334139999999999935e-03 7.227422386663989728e-01
0.000000000000000000e+00 1.700990000000000141e-02 3.115742952636649576e+00
3.125000000000000173e-03 2.080770000000000015e-03 3.951352524431381852e+00
0.000000000000000000e+00 6.068480000000000011e-04 2.029732601526885727e+00
1.562500000000000000e-02 1.448000000000000068e-03 2.590822775973072645e+00
0.000000000000000000e+00 1.042940000000000013e-03 4.348077581484575127e+00
9.374999999999999653e-03 3.964510000000000256e-02 6.884888820081414007e-01
0.000000000000000000e+00 1.608260000000000028e-03 4.606980113280044087e+00
0.000000000000000000e+00 3.772859999999999842e-03 1.611200891412167824e+00
6.250000000000000347e-03 2.912899999999999951e-03 3.650536448917068633e+00
3.125000000000000173e-03 4.030510000000000342e-02 1.619499989121760297e+00
3.125000000000000173e-03 9.505109999999999948e-02 3.275523643131852403e+00
2.187499999999999861e-02 2.452610000000000033e-03 1.958017294290464339e+00
6.250000000000000347e-03 9.663940000000000030e-02 3.187421758536264527e+00
3.125000000000000173e-03 1.852860000000000010e-03 3.000875541950657865e+00
1.562500000000000000e-02 1.707780000000000105e-03 2.244329448599602372e-01
0.000000000000000000e+00 2.330209999999999836e-05 3.250123721700479695e+00
3.125000000000000173e-03 2.872260000000000178e-03 2.890039024042041937e+00
6.250000000000000347e-03 7.898879999999999834e-04 1.139677512907815160e+00
0.000000000000000000e+00 2.631360000000000122e-03 2.624819450705592860e+00
0.000000000000000000e+00 1.186800000000000008e-02 3.176649328746882439e+00
3.125000000000000173e-03 2.855299999999999852e-03 4.458552994056410590e+00
2.812500000000000069e-02 2.577659999999999847e-03 3.505504501285069630e+00
0.000000000000000000e+00 2.872640000000000089e-03 4.748587466807586921e+00
0.000000000000000000e+00 7.465430000000000113e-04 2.318279090478736482e+00
0.000000000000000000e+00 2.327740000000000017e-03 4.241914691946494287e+00
1.562500000000000000e-02 1.515899999999999930e-03 1.955036063887128917e+00
2.500000000000000139e-02 1.367299999999999896e-03 1.783923627372883569e+00
1.250000000000000069e-02 2.082749999999999966e-03 4.267534300157071137e+00
0.000000000000000000e+00 3.914049999999999647e-03 2.474588758871079541e+00
1.250000000000000069e-02 1.883520000000000073e-03 1.157277022901597174e+00
0.000000000000000000e+00 2.401279999999999994e-03 7.532550341735677613e-01
0.000000000000000000e+00 1.915019999999999917e-02 4.421682119176828518e-01
0.000000000000000000e+00 2.957949999999999989e-03 3.485158662993693923e+00
0.000000000000000000e+00 3.447420000000000085e-03 2.258766679135527866e+00
0.000000000000000000e+00 9.192960000000000020e-04 2.507882845711909781e+00
0.000000000000000000e+00 0.000000000000000000e+00 2.202559556842609290e-01
0.000000000000000000e+00 9.751679999999999984e-04 3.292678119992614505e+00
0.000000000000000000e+00 1.189860000000000050e-02 1.854760398169935653e+00
0.000000000000000000e+00 5.195260000000000156e-03 4.453033265917105687e+00
0.000000000000000000e+00 1.319230000000000012e-03 1.505660214759932281e+00
1.250000000000000069e-02 1.908219999999999968e-03 2.546080725474646034e+00
3.125000000000000173e-03 5.035900000000000272e-03 4.503320195544321614e+00
6.250000000000000347e-03 1.059900000000000009e-01 6.675894190474496170e-01
3.437500000000000278e-02 1.081479999999999941e-01 2.101662323918174202e-02
0.000000000000000000e+00 1.277949999999999919e-03 6.278651908741883503e-02
3.125000000000000173e-03 1.592899999999999958e-03 1.935612887404440929e+00
0.000000000000000000e+00 9.014399999999999887e-04 4.780904919254107099e+00
0.000000000000000000e+00 3.722880000000000243e-04 3.024331217082100842e+00
3.125000000000000173e-03 1.062560000000000032e-01 1.425863327901903954e+00
0.000000000000000000e+00 1.403649999999999993e-03 3.152054381883431233e+00
0.000000000000000000e+00 1.080900000000000090e-03 2.193745872124325924e+00
3.125000000000000000e-02 2.698299999999999831e-03 1.250641806753844953e+00
0.000000000000000000e+00 1.653760000000000104e-04 3.333868004129502793e+00
0.000000000000000000e+00 3.817339999999999796e-03 1.430152848905213325e+00
0.000000000000000000e+00 1.082049999999999982e-03 1.973616064375599555e+00
3.125000000000000173e-03 9.631710000000000271e-02 1.972745751652016377e+00
0.000000000000000000e+00 1.105340000000000012e-03 4.041631668199149985e+00
6.250000000000000347e-03 9.676289999999999891e-02 2.115689219009993849e+00
9.374999999999999653e-03 6.899530000000000073e-03 2.701912951807614593e+00
2.187499999999999861e-02 7.916100000000000567e-03 3.645293758768370473e+00
6.250000000000000347e-03 1.006439999999999974e-01 3.777860925197440434e-02
3.437500000000000278e-02 4.119119999999999726e-02 3.351192312790844952e+00
6.875000000000000555e-02 4.043959999999999916e-02 2.659248640158563326e+00
0.000000000000000000e+00 1.162939999999999894e-03 3.859326589171966582e+00
6.250000000000000347e-03 2.213950000000000119e-03 2.993756746190174844e+00
1.874999999999999931e-02 9.310749999999999582e-02 8.048514783372351378e-01
0.000000000000000000e+00 3.700479999999999915e-03 4.926780605474172070e+00
0.000000000000000000e+00 9.286399999999999993e-04 4.909395752238512323e+00
3.125000000000000173e-03 9.079459999999999701e-04 3.889854218221890036e+00
0.000000000000000000e+00 4.196979999999999786e-04 2.833473977061715665e+00
2.500000000000000139e-02 8.006720000000000156e-03 1.759372364109613063e+00
3.125000000000000173e-03 1.739389999999999947e-03 2.073733135181674569e+00
2.812500000000000069e-02 1.920190000000000004e-03 3.254139431691662754e+00
2.187499999999999861e-02 5.020610000000000003e-03 3.809910506311892320e+00
1.874999999999999931e-02 2.121909999999999907e-01 2.530982748461303000e+00
0.000000000000000000e+00 1.519549999999999937e-03 3.538321057370085398e+00
3.125000000000000173e-03 2.710829999999999837e-02 1.711104208875006139e+00
6.250000000000000347e-03 2.199870000000000037e-03 7.616118848593311785e-02
2.500000000000000139e-02 9.235260000000000691e-02 4.228821464130787078e+00
1.562500000000000000e-02 4.321469999999999999e-03 1.979377317683215676e+00
3.749999999999999861e-02 9.993710000000000093e-02 2.376159192644617058e+00
3.749999999999999861e-02 3.900370000000000226e-02 2.245692248207796560e+00
6.250000000000000347e-03 2.208509999999999900e-03 4.260025320084634970e+00
0.000000000000000000e+00 1.095679999999999918e-03 3.947151421840419339e+00
4.687500000000000000e-02 1.088780000000000026e-01 4.335965570616023834e-01
0.000000000000000000e+00 3.047300000000000009e-02 3.677765348324951056e+00
0.000000000000000000e+00 1.008170000000000073e-03 1.997103589561644466e+00
3.125000000000000173e-03 7.458760000000000043e-03 4.142968104272987340e+00
0.000000000000000000e+00 5.204380000000000204e-04 2.051005185958942878e+00
3.125000000000000173e-03 9.819809999999999650e-02 1.141649050753000827e+00
0.000000000000000000e+00 2.700220000000000137e-03 2.874056496569916241e+00
1.874999999999999931e-02 9.142949999999999688e-02 1.656579589237541672e+00
0.000000000000000000e+00 4.366779999999999794e-03 4.233334317672031943e+00
0.000000000000000000e+00 2.172160000000000020e-04 4.015997854770112063e+00
6.250000000000000347e-03 2.566399999999999931e-03 3.332992139102834983e+00
1.250000000000000069e-02 2.227649999999999856e-03 2.049347782870014179e+00
0.000000000000000000e+00 4.037960000000000160e-02 3.731762618594399505e+00
3.125000000000000173e-03 9.698210000000000164e-02 1.598063129902671520e+00
9.687500000000000278e-02 1.750459999999999863e-02 4.364476115133614442e+00
0.000000000000000000e+00 8.646459999999999910e-03 5.059186374139063025e-01
0.000000000000000000e+00 1.818879999999999933e-03 3.986391646679608769e+00
0.000000000000000000e+00 3.717759999999999858e-04 1.189257593360908860e+00
0.000000000000000000e+00 1.182459999999999978e-03 2.916105871520851434e+00
0.000000000000000000e+00 1.738050000000000098e-03 3.976442772156495664e+00
1.874999999999999931e-02 2.786499999999999914e-03 1.707858297829277117e+00
2.187499999999999861e-02 9.279139999999999611e-02 1.752874444101044205e+00
1.562500000000000000e-02 1.767300000000000077e-03 2.393866809538371943e+00
2.187499999999999861e-02 2.145919999999999946e-03 2.767800853740098432e+00
0.000000000000000000e+00 1.031999999999999931e-03 2.703293711523744314e+00
1.562500000000000000e-02 2.431739999999999943e-03 1.799804876241635210e+00
6.250000000000000347e-03 3.282300000000000148e-03 1.002535196378764759e+00
1.562500000000000000e-02 1.950719999999999971e-03 4.305489920594416375e+00
0.000000000000000000e+00 8.147729999999999730e-04 3.435369196559729055e+00
0.000000000000000000e+00 2.636800000000000233e-04 3.430114558409874670e-01
6.250000000000000347e-03 2.290560000000000079e-03 2.904109976051015174e+00
0.000000000000000000e+00 1.806619999999999992e-05 1.885758422058382289e+00
0.000000000000000000e+00 5.202460000000000331e-04 1.071378386880027511e+00
0.000000000000000000e+00 2.599100000000000021e-03 1.144494615640428981e-01
3.125000000000000173e-03 2.129489999999999855e-02 1.680995450624059195e+00
0.000000000000000000e+00 3.424920000000000134e-04 2.553517916497711759e+00
0.000000000000000000e+00 1.065889999999999893e-03 2.866655268517373401e+00
0.000000000000000000e+00 6.023260000000000332e-04 1.021443328446031140e-01
0.000000000000000000e+00 1.180460000000000016e-02 1.830521201857708391e+00
0.000000000000000000e+00 1.765889999999999994e-03 2.917110724350058693e+00
2.187499999999999861e-02 2.810689999999999803e-03 1.641980967398826152e+00
0.000000000000000000e+00 1.022029999999999944e-03 3.890559075048506621e+00
2.187499999999999861e-02 4.012319999999999776e-02 2.149014319164562536e+00
3.125000000000000173e-03 9.785960000000000492e-02 6.458821402500203313e-01
0.000000000000000000e+00 1.882879999999999970e-04 5.287710615729440677e-01
0.000000000000000000e+00 1.360059999999999958e-03 7.079999969881589639e-01
0.000000000000000000e+00 4.468350000000000273e-03 2.201681952430162070e+00
0.000000000000000000e+00 4.471809999999999674e-03 1.930837430753753914e+00
1.250000000000000069e-02 2.421630000000000137e-03 4.960882017696897073e+00
0.000000000000000000e+00 0.000000000000000000e+00 2.548874178670241353e+00
0.000000000000000000e+00 4.236740000000000232e-04 3.929273902281447572e+00
3.125000000000000173e-03 2.031489999999999945e-03 6.401823775621234835e-01
0.000000000000000000e+00 1.152830000000000087e-03 4.858624135299560720e-01
0.000000000000000000e+00 9.725849999999999860e-04 4.855888591067153648e+00
0.000000000000000000e+00 4.038320000000000104e-02 1.565271300314703407e+00
0.000000000000000000e+00 2.946820000000000168e-03 4.646923108728165275e+00
0.000000000000000000e+00 2.984640000000000210e-03 3.995217125709299433e-01
1.562500000000000000e-02 2.115239999999999898e-01 1.006877447847527751e+00
0.000000000000000000e+00 4.402050000000000234e-03 1.601932172910119911e+00
2.812500000000000069e-02 3.365819999999999836e-03 1.552386180325580067e+00
3.125000000000000173e-03 1.217280000000000055e-03 1.853052604395742931e+00
0.000000000000000000e+00 4.759679999999999640e-03 1.105200914175472171e+00
1.874999999999999931e-02 2.044540000000000073e-03 4.728153418721434242e+00
0.000000000000000000e+00 3.986559999999999995e-04 4.832975700359980920e+00
2.500000000000000139e-02 2.573890000000000119e-03 3.627554851578997486e+00
2.500000000000000139e-02 1.047790000000000006e-02 2.837324556807299558e+00
9.374999999999999653e-03 2.142339999999999956e-03 3.404006808095410896e+00
0.000000000000000000e+00 1.060479999999999930e-03 4.848680226197265242e+00
3.125000000000000173e-03 4.218940000000000017e-03 4.443409271048280651e+00
3.749999999999999861e-02 9.473950000000000427e-02 2.816871393639459153e+00
0.000000000000000000e+00 1.793019999999999987e-03 3.929759227589049608e+00
2.187499999999999861e-02 2.559870000000000114e-03 4.206123916554921349e-01
0.000000000000000000e+00 2.862850000000000117e-03 4.563726391667183302e-01
6.562500000000000278e-02 9.136429999999999552e-02 1.983473652023114431e+00
0.000000000000000000e+00 4.467460000000000354e-03 3.255044709431960115e+00
3.125000000000000173e-03 2.401089999999999822e-03 3.242715752408636298e+00
0.000000000000000000e+00 2.077700000000000033e-03 2.417269613727222932e+00
0.000000000000000000e+00 5.622399999999999837e-04 5.420328102306537499e-01
0.000000000000000000e+00 4.445059999999999810e-03 7.373089200537807919e-01
0.000000000000000000e+00 2.919740000000000096e-03 4.990173930279484082e+00
1.250000000000000069e-02 2.985339999999999869e-02 3.708942568884683766e+00
3.125000000000000173e-03 2.031489999999999945e-03 4.562795585057846992e+00
1.874999999999999931e-02 2.382399999999999796e-03 2.827100847105868731e+00
6.250000000000000347e-03 3.668460000000000124e-03 2.775067724568110350e+00
0.000000000000000000e+00 8.068479999999999836e-04 4.114262511581952886e+00
0.000000000000000000e+00 2.298780000000000037e-05 3.345670514178303190e+00
2.187499999999999861e-02 2.621819999999999967e-03 3.809755375062770621e+00
3.125000000000000173e-03 7.693969999999999629e-03 1.873906076621570271e+00
0.000000000000000000e+00 1.749969999999999998e-03 1.671759638574048967e+00
0.000000000000000000e+00 4.975360000000000286e-04 5.629500560490224847e-01
9.374999999999999653e-03 2.431619999999999789e-03 1.770582728056020461e+00
2.187499999999999861e-02 2.911040000000000155e-03 3.267071169388150231e+00
0.000000000000000000e+00 4.631680000000000215e-04 4.074215247939839912e+00
2.500000000000000139e-02 2.938430000000000122e-03 4.485424679022321115e+00
0.000000000000000000e+00 1.699709999999999893e-03 3.175451929264526019e+00
0.000000000000000000e+00 4.355580000000000389e-03 6.028433384314652033e-01
0.000000000000000000e+00 1.182590000000000073e-03 2.879873826615291232e+00
0.000000000000000000e+00 1.738619999999999966e-03 3.075528609680395320e+00
1.000000000000000056e-01 5.154620000000000035e-02 4.997635804535266679e+00
0.000000000000000000e+00 4.377660000000000232e-03 2.998726083471750403e+00
0.000000000000000000e+00 1.098749999999999900e-03 3.628926156408638359e+00
0.000000000000000000e+00 5.784450000000000008e-03 3.404316602216961307e+00
2.187499999999999861e-02 9.088060000000000582e-02 1.022605545370808278e-01
0.000000000000000000e+00 9.077760000000000039e-04 2.398110478787524702e+00
0.000000000000000000e+00 1.074819999999999985e-03 1.821367181574617966e-01
3.125000000000000173e-03 3.607870000000000001e-03 3.448571398073911443e+00
0.000000000000000000e+00 2.123519999999999889e-04 1.513936215216352688e+00
3.125000000000000173e-03 9.327230000000000590e-03 9.091548232243085170e-01
0.000000000000000000e+00 2.086979999999999998e-03 1.312847531710504168e+00
0.000000000000000000e+00 3.593599999999999746e-04 3.639315205199272096e+00
3.125000000000000173e-03 1.047649999999999970e-01 3.916174138305812846e+00
0.000000000000000000e+00 4.175820000000000009e-04 3.557714037455295131e-01
3.125000000000000173e-03 3.317060000000000147e-03 1.772029921564209909e+00
0.000000000000000000e+00 5.284799999999999914e-02 1.749807456059329080e+00
0.000000000000000000e+00 5.045309999999999899e-03 4.974022937210608397e+00
0.000000000000000000e+00 3.662589999999999856e-03 1.626405714946328462e+00
9.374999999999999653e-03 2.809600000000000205e-03 4.712779888489896152e+00
1.250000000000000069e-02 1.994109999999999893e-03 2.562653438361373937e+00
0.000000000000000000e+00 4.848640000000000415e-03 4.500422453111786680e+00
3.125000000000000173e-03 9.141569999999999904e-03 2.855944695801226452e+00
7.187499999999999445e-02 4.160470000000000140e-02 4.074878780313417437e+00
0.000000000000000000e+00 4.178380000000000202e-04 1.364058662792360099e+00
3.125000000000000173e-03 2.438849999999999785e-03 4.502591049578331450e+00
0.000000000000000000e+00 9.105279999999999667e-04 4.450749626379550961e+00
9.374999999999999653e-03 2.117700000000000138e-01 1.567563625801737803e-01
0.000000000000000000e+00 7.377580000000000335e-04 3.723678569842440833e+00
0.000000000000000000e+00 2.280400000000000054e-05 9.060762557907187098e-01
0.000000000000000000e+00 1.854079999999999921e-03 1.971441152500152949e+00
0.000000000000000000e+00 1.417599999999999980e-03 9.762499693896925512e-01
0.000000000000000000e+00 2.296610000000000022e-05 2.395031121703456556e+00
0.000000000000000000e+00 1.423299999999999956e-03 1.612273575275807724e+00
9.374999999999999653e-03 9.052870000000000361e-02 1.950780649384830756e+00
0.000000000000000000e+00 4.152089999999999882e-04 1.493398215133729501e+00
9.374999999999999653e-03 2.524349999999999858e-03 2.522380024210927552e+00
0.000000000000000000e+00 2.661499999999999803e-03 2.507707816279073576e+00
3.125000000000000173e-03 7.412799999999999771e-03 4.722020256557834195e+00
1.250000000000000069e-02 1.027510000000000055e-02 1.044846399017944183e+00
3.749999999999999861e-02 2.362550000000000067e-02 1.203648236328986876e+00
3.125000000000000173e-03 2.549500000000000117e-03 1.094021753578534595e+00
3.125000000000000173e-03 1.851519999999999945e-03 2.002275937939440587e-01
0.000000000000000000e+00 1.636099999999999924e-03 2.782022196574784445e+00
0.000000000000000000e+00 5.110850000000000115e-03 1.544506242303566701e+00
0.000000000000000000e+00 4.147600000000000202e-04 4.701069068743890966e+00
1.250000000000000069e-02 9.896959999999999785e-04 4.152797170147199957e+00
0.000000000000000000e+00 1.081600000000000053e-03 4.727304111495655992e-01
0.000000000000000000e+00 4.441149999999999612e-03 1.970041273982664487e+00
1.562500000000000000e-02 1.830269999999999944e-03 4.526816816828126200e+00
0.000000000000000000e+00 0.000000000000000000e+00 3.937832277419777149e+00
0.000000000000000000e+00 1.224639999999999930e-03 3.016404618701927109e+00
0.000000000000000000e+00 7.287160000000000208e-04 5.543189148480831552e-01
0.000000000000000000e+00 3.616019999999999846e-04 3.451004389890860446e-01
0.000000000000000000e+00 7.974909999999999985e-03 2.234538261738474141e+00
0.000000000000000000e+00 2.211709999999999978e-03 3.141727031526125202e+00
3.125000000000000173e-03 4.950659999999999956e-03 1.973130018537014418e+00
3.125000000000000173e-03 1.537790000000000034e-03 1.842017550672330195e+00
0.000000000000000000e+00 1.015360000000000091e-03 9.782011956414449205e-01
3.125000000000000173e-03 1.135030000000000067e-02 2.626830980060614884e+00
0.000000000000000000e+00 1.882180000000000008e-03 1.124467228527467721e+00
0.000000000000000000e+00 3.821440000000000058e-04 3.077564201151464118e+00
0.000000000000000000e+00 4.058879999999999736e-04 2.178431428666387948e+00
3.749999999999999861e-02 9.233570000000000666e-02 3.059618335855871507e+00
0.000000000000000000e+00 9.783039999999999358e-04 3.881669691769458641e+00
0.000000000000000000e+00 5.671040000000000239e-04 4.333025232616202871e+00
0.000000000000000000e+00 5.118840000000000369e-03 1.442255067643516409e+00
0.000000000000000000e+00 3.775810000000000104e-03 4.180549809469607858e+00
3.125000000000000173e-03 7.723340000000000413e-03 3.107781438418688147e+00
0.000000000000000000e+00 1.080769999999999995e-03 7.033942950290927865e-01
3.125000000000000173e-03 7.441190000000000304e-03 6.633566401558738113e-01
6.250000000000000347e-03 1.674179999999999939e-03 2.292962551935478821e+00
0.000000000000000000e+00 2.209919999999999875e-04 3.098522850508145243e-01
0.000000000000000000e+00 5.015860000000000457e-04 5.417122557488385226e-03
3.125000000000000173e-03 2.536510000000000067e-03 3.933899637146672124e+00
1.874999999999999931e-02 2.992509999999999875e-03 1.983114286189278097e+00
0.000000000000000000e+00 5.050239999999999677e-04 1.192071048083358509e+00
1.562500000000000000e-02 2.462719999999999840e-03 2.078516291310308350e+00
3.125000000000000173e-03 1.170249999999999936e-02 2.731213518827102504e-01
0.000000000000000000e+00 1.157889999999999961e-03 3.801902372744842218e+00
0.000000000000000000e+00 1.124159999999999916e-03 3.005836942415458068e+00
3.437500000000000278e-02 9.341700000000000004e-02 9.311512640744651348e-01
0.000000000000000000e+00 4.514400000000000010e-04 3.764168900880997981e+00
0.000000000000000000e+00 2.418749999999999893e-03 4.346509357776374927e+00
0.000000000000000000e+00 3.735680000000000120e-04 2.724293342109108451e+00
0.000000000000000000e+00 1.156799999999999929e-03 4.362410577832557479e+00
0.000000000000000000e+00 1.525759999999999920e-03 4.230768194814481298e+00
0.000000000000000000e+00 9.758289999999999326e-03 4.195634461163820106e+00
3.125000000000000173e-03 2.754690000000000177e-03 2.665096873092603902e-01
0.000000000000000000e+00 3.169219999999999936e-03 2.221263462684333945e+00
3.125000000000000173e-03 1.772670000000000062e-03 2.901982353029170625e+00
6.250000000000000000e-02 1.697450000000000001e-02 3.804981318160973736e+00
2.187499999999999861e-02 9.795379999999999365e-02 1.850696744031969931e+00
6.250000000000000347e-03 9.977610000000000645e-02 4.992272703707449466e+00
0.000000000000000000e+00 1.520059999999999944e-03 1.153455242696736605e+00
6.250000000000000347e-03 2.488699999999999940e-03 2.972434538327128895e-01
0.000000000000000000e+00 8.772479999999999601e-04 4.422198873877876579e+00
6.250000000000000347e-03 1.747899999999999931e-03 5.619614463098132617e-01
0.000000000000000000e+00 3.762559999999999971e-04 1.245461659301942969e+00
0.000000000000000000e+00 1.597820000000000013e-03 1.584253654816298429e+00
1.250000000000000069e-02 6.907149999999999922e-03 3.305179388254535056e+00
3.125000000000000173e-03 3.539710000000000165e-03 6.916100455236007249e-01
0.000000000000000000e+00 5.431680000000000145e-04 4.373627955070959139e+00
0.000000000000000000e+00 1.172159999999999999e-03 2.120628614456055328e+00
9.374999999999999653e-03 1.214019999999999900e-03 3.174790640297095567e+00
1.874999999999999931e-02 9.893340000000000467e-02 3.529842306230521753e+00
6.250000000000000347e-03 9.079760000000000608e-02 3.958367403221583647e+00
1.250000000000000069e-02 9.221760000000000287e-04 3.496162896931404696e+00
0.000000000000000000e+00 3.439389999999999808e-02 4.187780797644735653e-01
0.000000000000000000e+00 3.294080000000000012e-04 1.948285360117148368e+00
0.000000000000000000e+00 1.059650000000000088e-03 2.634798823684771474e+00
1.562500000000000000e-02 1.504380000000000040e-03 5.024487094482049665e-01
0.000000000000000000e+00 1.051999999999999984e-02 3.388478910708569547e+00
0.000000000000000000e+00 4.211730000000000009e-04 3.062463078101051561e+00
0.000000000000000000e+00 2.218299999999999873e-03 2.766514721487089989e+00
6.250000000000000347e-03 1.128450000000000026e-03 2.397948961071112439e+00
0.000000000000000000e+00 9.772159999999999354e-04 3.930890546352260984e+00
6.250000000000000347e-03 1.874180000000000030e-03 2.497413029017153008e+00
2.812500000000000069e-02 9.167010000000000436e-02 2.315286359777935843e+00
3.125000000000000000e-02 9.413889999999999758e-02 3.719130626316285326e+00
0.000000000000000000e+00 2.440959999999999885e-04 3.011552706636364540e+00
0.000000000000000000e+00 2.284339999999999884e-05 3.484216030625897353e+00
0.000000000000000000e+00 9.867520000000000284e-04 4.500576857410335307e+00
1.250000000000000069e-02 1.847040000000000097e-03 3.532357555875607513e+00
0.000000000000000000e+00 7.258240000000000221e-04 4.742164122483650601e+00
1.562500000000000000e-02 1.472580000000000026e-03 2.564664255227170564e+00
1.250000000000000069e-02 2.066890000000000116e-01 1.205772530399956688e+00
0.000000000000000000e+00 3.732070000000000201e-04 2.659582472928212482e+00
6.250000000000000347e-03 1.744069999999999909e-03 3.280276111805262573e+00
0.000000000000000000e+00 4.252130000000000232e-04 4.345941590419796441e+00
0.000000000000000000e+00 1.057860000000000094e-03 3.326636669278566494e+00
2.812500000000000069e-02 2.161919999999999901e-03 3.895243347344607088e+00
0.000000000000000000e+00 4.263030000000000009e-04 1.513917692509389568e+00
0.000000000000000000e+00 4.444570000000000118e-03 2.705568946810948283e+00
0.000000000000000000e+00 4.218559999999999671e-03 1.937989736959876419e+00
2.500000000000000139e-02 5.372860000000000136e-03 4.548558095941668711e+00
0.000000000000000000e+00 4.033919999999999759e-04 1.430995626986935498e+00
1.250000000000000069e-02 2.315649999999999827e-03 2.532725366623141738e+00
1.874999999999999931e-02 1.874180000000000030e-03 3.023741401186037514e+00
0.000000000000000000e+00 4.462719999999999990e-04 2.059313336788223481e+00
0.000000000000000000e+00 1.036990000000000004e-03 3.722767019090191365e+00
9.374999999999999653e-03 1.272579999999999935e-03 4.075021276978560536e+00
9.374999999999999653e-03 2.540859999999999820e-03 3.420104395040044043e+00
3.125000000000000173e-03 1.634430000000000084e-03 2.870630902236222415e+00
3.125000000000000173e-03 1.039549999999999979e-03 1.976911423392221367e+00
1.250000000000000069e-02 1.687300000000000084e-03 1.422061331485415359e+00
1.250000000000000069e-02 2.605950000000000107e-03 3.615310622080845082e+00
0.000000000000000000e+00 6.583710000000000430e-04 2.316943087510503485e-01
9.374999999999999653e-03 9.033150000000000207e-03 3.702354271380375206e+00
0.000000000000000000e+00 7.734760000000000463e-04 4.729491207929629404e+00
0.000000000000000000e+00 2.143809999999999900e-03 9.744021270015018610e-01
2.812500000000000069e-02 2.451780000000000192e-03 4.153259103123650320e+00
3.125000000000000000e-02 2.584959999999999862e-03 3.166477741255699918e+00
6.875000000000000555e-02 3.960120000000000307e-02 6.128293741717766308e-01
0.000000000000000000e+00 6.527920000000000207e-04 2.149412638434132994e+00
2.812500000000000069e-02 2.367170000000000038e-03 3.081702465539355895e+00
3.125000000000000173e-03 1.083459999999999979e-02 3.547575504742040309e+00
5.625000000000000139e-02 4.049180000000000140e-02 3.069161211458744098e+00
9.374999999999999653e-03 1.577660000000000043e-03 2.939840084720337643e+00
2.187499999999999861e-02 3.124669999999999965e-03 5.359167363965378073e-01
0.000000000000000000e+00 4.251709999999999691e-03 1.319932008009987445e+00
0.000000000000000000e+00 1.652159999999999957e-03 4.342906635724903097e+00
0.000000000000000000e+00 3.852799999999999975e-04 4.593504974190008916e+00
9.374999999999999653e-03 9.658210000000000406e-02 7.524366217943029289e-01
0.000000000000000000e+00 1.490179999999999977e-02 2.075183236814859278e+00
6.250000000000000347e-03 9.307279999999999720e-02 1.699511240665368295e+00
2.187499999999999861e-02 2.145919999999999946e-03 2.191875440272348374e+00
0.000000000000000000e+00 4.127730000000000136e-04 2.142703203867944772e+00
9.374999999999999653e-03 1.010560000000000069e-01 3.329905187301568148e+00
1.874999999999999931e-02 1.049630000000000007e-01 2.941477602235821998e+00
3.125000000000000173e-03 2.199739999999999942e-03 1.438086736989208525e+00
0.000000000000000000e+00 4.387389999999999693e-03 4.391390197706987131e+00
1.562500000000000000e-02 2.000000000000000042e-03 9.671725321160984379e-01
0.000000000000000000e+00 1.362050000000000066e-03 4.940452773878073467e-01
0.000000000000000000e+00 2.408060000000000062e-03 1.279270436458191273e+00
3.749999999999999861e-02 9.248739999999999739e-02 1.902085059319655436e+00
0.000000000000000000e+00 1.123010000000000024e-03 2.749975562689229491e+00
0.000000000000000000e+00 1.071420000000000011e-03 2.256634191770917619e-01
2.812500000000000069e-02 3.335809999999999817e-03 3.708852598404689616e+00
9.374999999999999653e-03 2.974590000000000047e-03 4.767532996024691272e+00
0.000000000000000000e+00 0.000000000000000000e+00 6.939020522850686268e-01
1.250000000000000069e-02 1.423100000000000059e-03 4.235999767985774156e+00
6.250000000000000347e-03 1.063250000000000028e-01 3.187259471050342796e+00
3.125000000000000173e-03 7.685309999999999885e-03 3.512410271258214145e+00
4.374999999999999722e-02 7.741109999999999831e-03 3.101215510795469754e+00
2.500000000000000139e-02 1.727739999999999962e-03 2.426474795948727614e+00
0.000000000000000000e+00 2.823679999999999853e-03 6.165125498268492210e-01
0.000000000000000000e+00 3.793919999999999888e-04 1.739852979516315346e-01
0.000000000000000000e+00 1.187459999999999991e-03 4.809830364971498184e+00
0.000000000000000000e+00 7.254460000000000335e-04 2.270743036696404982e+00
2.500000000000000139e-02 1.169019999999999955e-02 7.873568962807986349e-01
1.874999999999999931e-02 2.885249999999999794e-03 3.888076549984502250e+00
0.000000000000000000e+00 3.483280000000000165e-04 1.473937662758257883e+00
0.000000000000000000e+00 7.451330000000000366e-04 4.632428217565076167e+00
0.000000000000000000e+00 5.005439999999999889e-03 1.524717843100916737e+00
0.000000000000000000e+00 7.378859999999999890e-04 4.280225415671216282e+00
1.874999999999999931e-02 2.116349999999999915e-03 4.511980945342179972e+00
0.000000000000000000e+00 2.170879999999999923e-04 4.083143835897625529e+00
6.250000000000000347e-03 1.556349999999999964e-03 1.394981329119655555e+00
0.000000000000000000e+00 6.970389999999999919e-04 1.564103389546361189e+00
2.812500000000000069e-02 1.978049999999999860e-03 6.886675690707771968e-01
1.562500000000000000e-02 2.524090000000000014e-02 3.373976445084334586e+00
0.000000000000000000e+00 3.877759999999999953e-04 4.335803392276377011e+00
3.125000000000000173e-03 1.458429999999999926e-03 4.227392115707683473e+00
3.125000000000000000e-02 9.299889999999999546e-02 4.579406897519548991e+00
3.125000000000000173e-03 3.431089999999999921e-03 6.362012705801478596e-01
0.000000000000000000e+00 2.814979999999999913e-03 2.755827266332875336e+00
0.000000000000000000e+00 3.943050000000000136e-04 2.320432623558152496e+00
1.874999999999999931e-02 3.730559999999999952e-03 1.928096146869435312e+00
1.250000000000000069e-02 3.060479999999999971e-03 3.151919974816456804e+00
9.374999999999999653e-03 1.283520000000000017e-03 8.726149090424051291e-01
0.000000000000000000e+00 2.281739999999999943e-05 3.597808883649138867e+00
0.000000000000000000e+00 4.327550000000000320e-03 2.145503685433864938e+00
0.000000000000000000e+00 5.160510000000000097e-03 3.115407548802134219e+00
3.125000000000000173e-03 1.184259999999999913e-03 3.227726434768802832e+00
0.000000000000000000e+00 2.163459999999999862e-03 3.392264757900775862e-01
2.187499999999999861e-02 1.057889999999999942e-01 7.393335992273081247e-01
5.000000000000000278e-02 9.273869999999999336e-02 3.352353085125814314e+00
0.000000000000000000e+00 0.000000000000000000e+00 1.631901655492576930e+00
0.000000000000000000e+00 2.177919999999999910e-04 3.681820208200681233e-02
2.500000000000000139e-02 1.738109999999999959e-03 1.616879986941712311e+00
0.000000000000000000e+00 7.325189999999999653e-03 4.544044672290871389e+00
2.500000000000000139e-02 2.085379999999999959e-03 1.753838809880353677e+00
1.250000000000000069e-02 2.384509999999999841e-03 1.160271281518501674e+00
2.187499999999999861e-02 1.167550000000000055e-03 1.550956661043875195e+00
0.000000000000000000e+00 1.909120000000000044e-04 2.960337392144636315e+00
0.000000000000000000e+00 1.009649999999999957e-03 1.438173748378547279e+00
0.000000000000000000e+00 3.044289999999999843e-03 2.553496862036225501e+00
6.250000000000000000e-02 9.108170000000000155e-02 1.956968800869570702e+00
0.000000000000000000e+00 8.737670000000000116e-04 3.518403210906575929e+00
9.374999999999999653e-03 1.017490000000000061e-01 1.196459493583267975e+00
0.000000000000000000e+00 2.267450000000000119e-05 1.532025049096046754e+00
2.187499999999999861e-02 3.321269999999999778e-02 8.815164550604348559e-01
0.000000000000000000e+00 1.841280000000000098e-04 2.558151263072239168e+00
3.437500000000000278e-02 9.539229999999999238e-03 4.869604866484516847e+00
0.000000000000000000e+00 3.112960000000000033e-02 1.580410190987586283e+00
0.000000000000000000e+00 3.569919999999999864e-04 3.158739674126857189e+00
1.250000000000000069e-02 3.039940000000000090e-03 3.498708298200197131e+00
0.000000000000000000e+00 3.872640000000000110e-04 1.581156957960930143e+00
3.125000000000000000e-02 1.052310000000000051e-01 8.298188740760004123e-01
0.000000000000000000e+00 7.813629999999999794e-04 3.072775257720066655e+00
0.000000000000000000e+00 7.208960000000000368e-03 8.358643686186562061e-01
3.125000000000000173e-03 1.084160000000000028e-03 6.374903176579610475e-01
2.812500000000000069e-02 2.756030000000000025e-03 4.591557042910733522e+00
0.000000000000000000e+00 3.112960000000000033e-02 4.380409185143091300e+00
3.125000000000000000e-02 1.182320000000000072e-02 2.554627722475111273e-02
0.000000000000000000e+00 4.693379999999999601e-03 4.012161212296439849e+00
0.000000000000000000e+00 7.294860000000000016e-04 4.818999206362992282e+00
0.000000000000000000e+00 9.550529999999999783e-03 4.392437334997274512e+00
3.125000000000000000e-02 9.068980000000000097e-02 3.701653172425949379e+00
0.000000000000000000e+00 0.000000000000000000e+00 3.370422508436965003e+00
1.874999999999999931e-02 3.317500000000000136e-03 1.502749578585651502e+00
3.125000000000000173e-03 1.047759999999999941e-01 2.384575040570915405e+00
2.187499999999999861e-02 3.289980000000000075e-03 2.686753473816798188e+00
0.000000000000000000e+00 1.615999999999999978e-04 3.877797162236285899e+00
3.125000000000000173e-03 1.101560000000000039e-02 3.793080316368114602e+00
6.250000000000000347e-03 2.398720000000000019e-03 3.842431968179113699e+00
3.437500000000000278e-02 8.409869999999999846e-03 1.382551186859410475e+00
0.000000000000000000e+00 5.522499999999999631e-03 3.364923233748875475e+00
3.125000000000000173e-03 1.558170000000000111e-01 1.040732708142567020e+00
2.187499999999999861e-02 2.241860000000000033e-03 9.180864044184772199e-01
0.000000000000000000e+00 3.777729999999999977e-03 4.107770962854651042e-01
2.187499999999999861e-02 2.299709999999999949e-03 1.469876322541913805e+00
3.749999999999999861e-02 2.589199999999999835e-02 1.550683043109260417e+00
0.000000000000000000e+00 1.962750000000000085e-03 3.954467752997712804e+00
0.000000000000000000e+00 4.378240000000000148e-04 1.798749263574828117e-01
1.874999999999999931e-02 2.530500000000000197e-03 1.846754490601952847e+00
3.125000000000000173e-03 1.915650000000000078e-03 1.075758642874480753e+00
0.000000000000000000e+00 7.505829999999999794e-04 1.934492476594055876e+00
0.000000000000000000e+00 1.062980000000000045e-03 6.989544975610539890e-01
9.374999999999999653e-03 1.986169999999999949e-02 1.355105504952236917e+00
0.000000000000000000e+00 9.604480000000000309e-04 4.519979533941620886e+00
2.812500000000000069e-02 1.367680000000000024e-03 4.319044239301331523e+00
0.000000000000000000e+00 3.446729999999999846e-04 1.654790569946760659e+00
3.125000000000000173e-03 3.144060000000000171e-03 2.789915666163478303e+00
6.250000000000000347e-03 2.394560000000000004e-03 1.693719229409512694e-01
0.000000000000000000e+00 4.448510000000000138e-03 2.346012663924700981e+00
9.374999999999999653e-03 1.576700000000000107e-03 4.059419751405511256e+00
0.000000000000000000e+00 1.582269999999999987e-03 4.396243864933874201e-01
0.000000000000000000e+00 1.587840000000000030e-04 3.892040377517452576e+00
6.250000000000000347e-03 1.002139999999999975e-01 3.596059145037143523e+00
9.374999999999999653e-03 1.986119999999999899e-02 1.256763279875908745e+00
0.000000000000000000e+00 6.160490000000000237e-04 4.305741961510625160e+00
0.000000000000000000e+00 3.675519999999999937e-04 4.974550973360966744e+00
0.000000000000000000e+00 3.982449999999999879e-02 2.062819878102404747e+00
0.000000000000000000e+00 1.055109999999999945e-03 3.234269686253809617e+00
3.125000000000000000e-02 4.013060000000000238e-02 7.652893424045020820e-01
0.000000000000000000e+00 7.912960000000000349e-04 1.134792354427920369e+00
1.250000000000000069e-02 2.122750000000000071e-03 3.734454140767193397e+00
2.187499999999999861e-02 2.621819999999999967e-03 2.325070093025684681e+00
0.000000000000000000e+00 8.673540000000000416e-03 9.369422750763406471e-01
0.000000000000000000e+00 4.362050000000000129e-03 3.932294322747537096e-01
0.000000000000000000e+00 6.281979999999999509e-02 4.676828199997601354e-01
9.374999999999999653e-03 5.824130000000000279e-03 8.346852159691708906e-01
0.000000000000000000e+00 2.222869999999999946e-05 3.388169029924153364e+00
0.000000000000000000e+00 4.345749999999999787e-04 2.565142219782389432e+00
9.374999999999999653e-03 9.938909999999999412e-02 1.320381775166960647e+00
1.562500000000000000e-02 2.370940000000000200e-03 1.973059250435964973e+00
0.000000000000000000e+00 4.545819999999999787e-04 2.460874651310820393e+00
0.000000000000000000e+00 1.751329999999999901e-02 1.450665762798324376e+00
2.500000000000000139e-02 4.012289999999999954e-03 3.285842843210635689e+00
0.000000000000000000e+00 8.440319999999999854e-04 2.076829433168362993e+00
2.500000000000000139e-02 1.805439999999999953e-03 2.788727698920949294e+00
1.250000000000000069e-02 1.617340000000000097e-03 4.929791167114034423e+00
0.000000000000000000e+00 9.436159999999999860e-04 9.012968780866564833e-01
0.000000000000000000e+00 7.439779999999999571e-04 3.324884483788062894e+00
0.000000000000000000e+00 7.189699999999999824e-04 1.089810344927069519e+00
0.000000000000000000e+00 7.914440000000000017e-03 1.800480011145633608e+00
0.000000000000000000e+00 4.146560000000000090e-04 4.544422055874170141e+00
0.000000000000000000e+00 5.077420000000000457e-04 5.519545960657296080e-01
0.000000000000000000e+00 2.320000000000000014e-03 2.659519128066818006e+00
0.000000000000000000e+00 6.732160000000000271e-04 3.929707787832108501e+00
0.000000000000000000e+00 1.152449999999999959e-03 1.141977033698978738e+00
0.000000000000000000e+00 1.977780000000000163e-02 1.199785644454002265e+00
0.000000000000000000e+00 1.180159999999999976e-03 4.644599280930777674e+00
0.000000000000000000e+00 9.531519999999999706e-04 3.888338767619127445e+00
2.812500000000000069e-02 9.442530000000000368e-02 2.509594961830576842e+00
0.000000000000000000e+00 1.024579999999999979e-03 1.852707489936831653e+00
0.000000000000000000e+00 3.971840000000000244e-04 3.281420720474503838e+00
2.500000000000000139e-02 2.385979999999999785e-03 4.842653071766040540e+00
0.000000000000000000e+00 9.593600000000000304e-04 1.707736253553400640e+00
3.125000000000000173e-03 4.625859999999999868e-03 4.387333404164439621e+00
6.250000000000000347e-03 1.303679999999999986e-03 1.392923630756848219e-01
0.000000000000000000e+00 6.818409999999999792e-04 2.703223623824634103e+00
2.187499999999999861e-02 2.652160000000000194e-03 1.160002717139929640e-01
0.000000000000000000e+00 1.788290000000000105e-03 1.559954339036954130e+00
0.000000000000000000e+00 5.492309999999999597e-04 3.362994741884730576e+00
7.812500000000000000e-02 9.142790000000000639e-02 4.907041488880509172e-01
0.000000000000000000e+00 4.419460000000000055e-03 3.644881128038478302e+00
1.562500000000000000e-02 3.899219999999999769e-02 1.139357740775627237e+00
1.874999999999999931e-02 1.564349999999999942e-03 2.515048596798262537e+00
1.874999999999999931e-02 2.573440000000000189e-03 4.112151341279926875e+00
1.250000000000000069e-02 2.575940000000000087e-03 6.926591786317981558e-01
0.000000000000000000e+00 2.405329999999999795e-03 4.769336454617889132e+00
3.125000000000000173e-03 1.550209999999999999e-03 4.474430646141448698e+00
0.000000000000000000e+00 1.176320000000000013e-04 3.542989586727185003e+00
1.562500000000000000e-02 1.980219999999999984e-03 2.733031193126582270e+00
0.000000000000000000e+00 2.257449999999999876e-05 4.319959473829343644e+00
0.000000000000000000e+00 1.019460000000000028e-03 3.779721408857136034e+00
3.125000000000000173e-03 9.401020000000000210e-02 3.190679586629641129e-01
0.000000000000000000e+00 4.072189999999999838e-03 2.708547343711900979e+00
1.562500000000000000e-02 5.349890000000000374e-03 6.429215437218993578e-01
6.250000000000000347e-03 9.980039999999999745e-02 4.588689981928158801e+00
3.125000000000000173e-03 3.140099999999999836e-03 3.774846410023408261e+00
0.000000000000000000e+00 1.314939999999999902e-03 2.288189693027411931e+00
4.687500000000000000e-02 9.251950000000000451e-02 2.181888146122889616e+00
2.812500000000000069e-02 3.377129999999999715e-02 2.840738283250401341e+00
3.437500000000000278e-02 9.226689999999999892e-02 3.859973334179121807e+00
0.000000000000000000e+00 9.192960000000000020e-04 6.417458807157666589e-01
2.500000000000000139e-02 2.320130000000000109e-03 3.161872730039505530e+00
5.312499999999999861e-02 9.309209999999999707e-02 4.180242502150283812e+00
1.874999999999999931e-02 2.365499999999999981e-03 4.570703062546807693e+00
2.500000000000000139e-02 2.180099999999999920e-03 2.522860543790571342e+00
0.000000000000000000e+00 3.789150000000000135e-04 3.617357200682647544e+00
0.000000000000000000e+00 9.820799999999999755e-04 1.963214532650262578e+00
1.874999999999999931e-02 2.870100000000000082e-02 3.073505067060274154e+00
0.000000000000000000e+00 8.918399999999999722e-04 2.141167514418817586e+00
0.000000000000000000e+00 1.379390000000000087e-03 1.496533871540073335e-01
0.000000000000000000e+00 1.124540000000000045e-03 3.720059729606176369e+00
3.125000000000000173e-03 1.055539999999999951e-02 2.178269943042418610e+00
0.000000000000000000e+00 3.948159999999999821e-04 4.551215047597024999e+00
1.562500000000000000e-02 1.653890000000000091e-03 1.856976959819344852e+00
0.000000000000000000e+00 3.861760000000000106e-04 1.356389198510210115e+00
0.000000000000000000e+00 1.983359999999999930e-04 1.369219670007830292e+00
1.562500000000000000e-02 1.293120000000000033e-03 2.486922639044630401e+00
0.000000000000000000e+00 1.755810000000000010e-03 3.411596798242498174e+00
0.000000000000000000e+00 3.764780000000000231e-04 1.776967296152945908e+00
1.250000000000000069e-02 1.599039999999999923e-03 3.725396484041469058e+00
0.000000000000000000e+00 0.000000000000000000e+00 2.927767906956888488e+00
2.500000000000000139e-02 1.298370000000000080e-03 1.759423567510360442e+00
3.125000000000000173e-03 1.932959999999999887e-02 2.678992424563312991e+00
0.000000000000000000e+00 9.004609999999999698e-03 1.100744673080578107e-01
