3.125000000000000173e-03 1.610429999999999934e-03 2.301012641570392869e+00
0.000000000000000000e+00 2.349700000000000139e-03 4.237173811771716814e+00
2.500000000000000139e-02 2.840899999999999936e-03 1.972716713876659922e+00
0.000000000000000000e+00 9.315840000000000579e-03 3.694055116465794208e-01
0.000000000000000000e+00 2.934850000000000132e-03 4.400452630999484249e+00
0.000000000000000000e+00 7.292299999999999824e-04 6.819756564671114463e-01
3.125000000000000173e-03 1.054999999999999966e-01 1.912014896903392325e+00
0.000000000000000000e+00 2.752829999999999947e-03 5.651311433917116656e-01
1.250000000000000069e-02 4.538180000000000165e-03 4.251685508726966489e+00
0.000000000000000000e+00 1.508280000000000037e-02 3.926512110785742138e+00
2.812500000000000069e-02 9.507150000000000323e-02 3.698649252050559166e+00
0.000000000000000000e+00 2.018750000000000145e-03 1.556545311926961217e+00
1.562500000000000000e-02 5.256829999999999663e-03 1.614403999212934426e+00
3.125000000000000173e-03 2.198400000000000094e-03 8.840531704339965602e-01
1.562500000000000000e-02 1.976509999999999899e-03 3.455139456799351638e+00
3.125000000000000000e-02 9.201589999999999769e-02 1.058190678043282151e+00
5.937499999999999722e-02 9.132909999999999640e-02 2.503861231325042347e+00
0.000000000000000000e+00 5.532289999999999604e-03 5.224348774521259120e-01
0.000000000000000000e+00 2.306810000000000026e-05 4.074567152522981850e+00
0.000000000000000000e+00 4.419490000000000202e-04 2.505757202206921441e+00
0.000000000000000000e+00 2.493759999999999814e-03 4.573527567142489758e+00
0.000000000000000000e+00 9.772159999999999354e-04 3.569063040187220981e+00
3.125000000000000173e-03 4.456129999999999987e-03 3.420915594679173388e+00
0.000000000000000000e+00 1.960449999999999866e-03 7.100669413886606662e-01
1.874999999999999931e-02 2.227649999999999856e-03 1.946055599445943418e+00
0.000000000000000000e+00 5.830019999999999994e-03 1.654930729229979303e+00
0.000000000000000000e+00 7.691520000000000518e-04 4.736764143907527647e+00
0.000000000000000000e+00 3.032449999999999903e-03 4.382812041856738006e+00
0.000000000000000000e+00 3.660099999999999899e-03 1.568021801482918365e+00
3.125000000000000173e-03 4.343490000000000198e-03 4.182504404836820733e+00
2.500000000000000139e-02 2.485180000000000028e-03 2.203337762202679961e+00
0.000000000000000000e+00 3.962880000000000113e-04 3.854791309885389872e+00
9.374999999999999653e-03 1.868609999999999932e-03 4.568923757566539123e+00
9.374999999999999653e-03 6.787199999999999527e-04 3.295476940542025446e+00
1.874999999999999931e-02 2.257729999999999893e-03 3.378102962088636030e+00
0.000000000000000000e+00 1.480189999999999935e-03 3.113199082663609119e+00
6.250000000000000347e-03 1.060320000000000012e-01 2.165082674497300630e+00
0.000000000000000000e+00 1.608789999999999889e-05 1.647993725353908534e+00
3.125000000000000173e-03 1.665789999999999892e-03 1.014365962990423364e+00
0.000000000000000000e+00 9.549509999999999986e-04 2.454195962525943742e+00
9.374999999999999653e-03 2.522500000000000003e-03 1.140805477972816728e+00
0.000000000000000000e+00 2.658370000000000177e-03 3.497113769380157500e+00
6.250000000000000347e-03 1.505279999999999899e-03 3.451163978261389431e+00
1.250000000000000069e-02 9.148879999999999513e-02 1.068164492261325371e-02
0.000000000000000000e+00 2.882560000000000265e-04 4.412350639299776667e+00
0.000000000000000000e+00 3.153860000000000084e-03 3.279174101742470704e+00
0.000000000000000000e+00 7.210219999999999824e-04 2.191654992215692932e+00
0.000000000000000000e+00 4.108159999999999915e-04 4.290557640643198667e+00
9.374999999999999653e-03 2.735940000000000073e-03 2.494813372440331634e+00
0.000000000000000000e+00 5.709740000000000258e-04 3.710624477934086229e+00
9.374999999999999653e-03 1.056129999999999985e-01 1.741136444113666748e-01
0.000000000000000000e+00 1.826050000000000069e-03 4.486716618363487008e+00
0.000000000000000000e+00 2.255040000000000012e-05 1.031212682230558952e-01
0.000000000000000000e+00 4.043079999999999786e-04 2.174588770432888118e+00
0.000000000000000000e+00 1.957829999999999987e-02 4.384707273677682871e+00
0.000000000000000000e+00 5.837439999999999730e-04 1.338359561426584188e+00
6.250000000000000347e-03 1.244029999999999919e-03 7.340010871374802459e-01
1.874999999999999931e-02 2.889979999999999893e-03 4.061853384606278761e-01
0.000000000000000000e+00 1.231359999999999920e-03 2.956382324786408500e+00
1.562500000000000000e-02 1.963579999999999926e-03 1.797073663299458168e+00
1.562500000000000000e-02 2.573179999999999999e-03 8.529632405713249987e-01
9.374999999999999653e-03 4.388740000000000349e-03 4.466460458661788202e+00
1.874999999999999931e-02 4.290429999999999591e-03 3.721659834308034931e+00
0.000000000000000000e+00 4.125800000000000105e-04 1.161050008492637176e+00
1.250000000000000069e-02 1.855939999999999934e-03 4.544289549307165998e+00
0.000000000000000000e+00 1.286660000000000017e-03 2.144904994029065648e+00
9.374999999999999653e-03 2.309059999999999932e-03 4.349178017480633152e+00
0.000000000000000000e+00 3.934720000000000166e-04 2.100534160463789490e+00
0.000000000000000000e+00 5.640320000000000099e-04 4.597516996178668824e-01
6.250000000000000347e-03 1.390849999999999899e-03 2.540463491997267731e+00
0.000000000000000000e+00 5.024190000000000426e-04 3.377641951067611004e+00
2.187499999999999861e-02 1.056499999999999939e-01 2.310614440603888209e+00
9.374999999999999653e-03 3.143809999999999921e-03 4.831476666930395458e-01
1.250000000000000069e-02 1.568769999999999930e-03 2.145399688467621857e+00
0.000000000000000000e+00 1.258879999999999982e-03 4.154468176167021909e+00
3.125000000000000000e-02 1.071789999999999965e-01 2.791744546997669829e+00
0.000000000000000000e+00 3.107899999999999812e-03 1.121977179196054220e+00
1.250000000000000069e-02 1.697659999999999924e-03 1.361133500225035764e+00
0.000000000000000000e+00 3.707900000000000085e-03 4.394300316278938467e+00
0.000000000000000000e+00 7.319870000000000239e-04 3.482997823450545205e+00
0.000000000000000000e+00 3.214339999999999992e-03 4.251522187448548706e+00
0.000000000000000000e+00 1.132030000000000015e-03 2.934367471714128150e+00
0.000000000000000000e+00 4.154019999999999913e-04 4.684381584990541469e+00
2.500000000000000139e-02 2.656959999999999877e-03 3.183709078404905135e+00
5.937499999999999722e-02 9.275769999999999849e-02 4.872407843207833267e+00
2.500000000000000139e-02 2.304510000000000065e-03 2.341575004904888235e+00
0.000000000000000000e+00 1.166979999999999970e-03 1.776191638198054257e+00
0.000000000000000000e+00 1.002819999999999970e-03 3.699881770050996277e+00
3.125000000000000173e-03 5.054079999999999857e-03 3.159202519346413496e+00
0.000000000000000000e+00 9.154560000000000388e-04 4.565172503135309867e+00
0.000000000000000000e+00 3.496320000000000027e-04 4.779311529192932007e+00
0.000000000000000000e+00 3.866240000000000171e-04 2.028704625404276207e-02
1.562500000000000000e-02 2.297340000000000146e-03 9.687879037103819257e-01
2.812500000000000069e-02 2.927939999999999970e-03 1.994074413107216337e-01
3.125000000000000173e-03 9.352929999999999577e-02 8.614067812737213892e-01
1.874999999999999931e-02 1.634049999999999956e-03 9.545730417315950733e-01
0.000000000000000000e+00 5.909629999999999918e-03 8.491859394359807522e-01
0.000000000000000000e+00 0.000000000000000000e+00 1.762635991109692268e+00
0.000000000000000000e+00 5.188480000000000305e-04 1.455484579749471319e+00
0.000000000000000000e+00 4.444159999999999951e-04 4.857797943284430708e+00
3.125000000000000000e-02 3.827060000000000184e-02 1.466565458831612379e+00
0.000000000000000000e+00 4.786929999999999788e-04 4.723067713238526366e+00
3.125000000000000173e-03 3.402999999999999775e-02 4.894842272946380746e+00
0.000000000000000000e+00 1.899069999999999925e-02 1.222365241559840721e+00
4.687500000000000000e-02 9.125949999999999340e-02 4.111789688625914430e+00
0.000000000000000000e+00 7.077480000000000143e-04 2.323120549288855585e+00
0.000000000000000000e+00 2.272129999999999810e-03 1.813995456254997585e+00
0.000000000000000000e+00 1.052360000000000014e-03 1.012415190161453094e+00
0.000000000000000000e+00 1.104769999999999927e-03 4.389112099664380651e+00
6.250000000000000347e-03 2.971329999999999891e-03 2.032714429568107661e+00
2.812500000000000069e-02 1.242870000000000086e-02 4.408468236035210985e+00
6.250000000000000347e-03 1.455169999999999988e-03 9.305680710901043096e-01
3.125000000000000173e-03 9.687679999999999512e-04 9.332598374644202055e-01
0.000000000000000000e+00 1.106559999999999922e-03 1.760118223290640938e+00
1.250000000000000069e-02 2.529659999999999982e-03 1.059081300381141233e+00
0.000000000000000000e+00 3.192130000000000054e-03 4.782355512171034384e+00
0.000000000000000000e+00 1.423419999999999894e-03 4.840845612071685622e+00
3.125000000000000173e-03 4.460930000000000104e-03 3.525228047697557709e+00
9.374999999999999653e-03 1.091390000000000025e-03 1.818250189148647333e+00
9.374999999999999653e-03 2.520580000000000129e-03 3.041913198170024923e+00
0.000000000000000000e+00 1.360579999999999906e-03 4.164717392635174598e+00
0.000000000000000000e+00 2.684670000000000112e-03 6.014154027674900593e-01
2.187499999999999861e-02 2.693119999999999802e-03 1.439524499452303097e+00
3.125000000000000000e-02 2.144259999999999829e-03 3.494506947854966850e+00
0.000000000000000000e+00 1.502500000000000016e-02 5.988123967509967338e-01
0.000000000000000000e+00 4.243790000000000106e-04 4.566235763575120288e+00
1.874999999999999931e-02 1.750720000000000097e-03 3.717849239888481705e+00
0.000000000000000000e+00 7.462869999999999920e-04 4.287122443801465010e+00
0.000000000000000000e+00 9.234560000000000164e-04 4.833473468300969467e-01
9.374999999999999653e-03 1.747140000000000108e-03 3.625399474116266063e+00
2.187499999999999861e-02 2.014209999999999785e-03 3.185553979744463859e+00
1.874999999999999931e-02 2.472639999999999907e-03 3.194073736602500269e+00
0.000000000000000000e+00 1.662980000000000100e-03 4.074042394305660286e-01
1.562500000000000000e-02 9.305710000000000370e-02 9.686850330223761851e-02
3.125000000000000173e-03 4.417980000000000171e-03 1.299300817556801046e+00
0.000000000000000000e+00 2.469630000000000002e-03 3.863685436736003620e+00
0.000000000000000000e+00 1.853059999999999907e-03 2.749925632299615508e+00
1.874999999999999931e-02 2.890370000000000179e-03 4.971679406134217771e+00
0.000000000000000000e+00 9.832319999999998995e-04 4.089680068880402253e+00
0.000000000000000000e+00 3.546749999999999881e-04 3.956750811269192258e+00
0.000000000000000000e+00 1.147259999999999990e-03 4.846710200652806222e+00
1.250000000000000069e-02 9.779699999999999505e-02 1.390487300010471161e+00
2.187499999999999861e-02 3.653949999999999993e-03 3.815575014452929903e+00
0.000000000000000000e+00 7.520580000000000017e-04 2.698945885444904214e+00
0.000000000000000000e+00 1.076989999999999892e-03 4.971646782917625629e+00
6.250000000000000347e-03 1.937539999999999965e-03 4.199972799969422965e+00
0.000000000000000000e+00 6.996479999999999800e-04 4.774930886147010334e+00
0.000000000000000000e+00 3.883520000000000114e-04 2.273667630359611280e+00
0.000000000000000000e+00 5.104899999999999889e-03 1.522849001111403755e-01
1.250000000000000069e-02 1.065110000000000015e-02 7.495422329764334091e-01
3.125000000000000173e-03 4.456830000000000166e-03 2.751382655505064889e+00
0.000000000000000000e+00 1.033339999999999996e-03 7.080378163335887542e-01
0.000000000000000000e+00 1.255700000000000002e-03 3.791445058008775071e+00
0.000000000000000000e+00 1.006340000000000099e-03 3.427015910738097304e+00
0.000000000000000000e+00 1.045740000000000081e-03 3.681279232932824108e+00
2.500000000000000139e-02 2.494269999999999821e-03 2.854382405647751142e+00
0.000000000000000000e+00 1.187419999999999969e-02 1.264417474901434080e+00
0.000000000000000000e+00 2.097920000000000080e-03 4.527938062068439073e+00
1.250000000000000069e-02 1.590779999999999972e-03 2.045821309379482145e+00
6.562500000000000278e-02 9.369729999999999726e-02 1.491041902998534452e+00
6.250000000000000347e-03 1.743369999999999946e-03 4.041896646077259625e+00
0.000000000000000000e+00 1.509590000000000064e-02 1.705647766716913427e+00
1.562500000000000000e-02 3.179519999999999916e-03 4.543343448485227754e+00
2.812500000000000069e-02 9.174899999999999722e-02 4.060196410150895829e+00
0.000000000000000000e+00 3.919160000000000005e-02 2.676207298940990853e+00
0.000000000000000000e+00 1.056700000000000044e-03 2.199308453052922108e+00
0.000000000000000000e+00 2.127329999999999846e-02 4.646902676713559721e+00
0.000000000000000000e+00 5.819709999999999640e-03 2.410968646301177021e+00
0.000000000000000000e+00 1.012929999999999994e-03 7.408127803421754587e-01
0.000000000000000000e+00 9.005709999999999670e-04 3.305964442152249827e+00
0.000000000000000000e+00 1.683969999999999911e-03 3.089222302103028506e-01
6.250000000000000347e-03 9.441299999999999693e-02 3.191572890696622977e+00
1.250000000000000069e-02 2.292929999999999881e-03 2.004769087053288157e+00
0.000000000000000000e+00 1.048960000000000040e-03 4.377570677733547022e+00
0.000000000000000000e+00 3.013500000000000120e-03 2.090205616116245224e+00
0.000000000000000000e+00 1.350119999999999966e-02 4.197002499531265585e+00
0.000000000000000000e+00 3.560869999999999942e-04 4.024824446567966341e+00
0.000000000000000000e+00 5.477560000000000458e-04 7.130044319540851383e-01
0.000000000000000000e+00 1.874430000000000063e-03 2.853643444077738955e+00
0.000000000000000000e+00 2.171549999999999869e-02 4.796740489748901659e+00
0.000000000000000000e+00 3.946239999999999947e-04 3.242208306115792915e+00
0.000000000000000000e+00 4.911359999999999814e-04 4.775920810655578386e+00
1.562500000000000000e-02 3.297410000000000185e-03 2.240386204870030706e+00
9.374999999999999653e-03 2.065909999999999969e-01 3.587950469082847427e+00
2.812500000000000069e-02 3.131899999999999962e-03 4.523476165042255026e+00
1.250000000000000069e-02 1.656640000000000022e-03 4.956095554669051495e+00
3.125000000000000173e-03 1.188849999999999976e-02 9.654420796887108747e-01
0.000000000000000000e+00 1.258430000000000052e-03 5.392317581273436966e-01
0.000000000000000000e+00 1.170500000000000099e-03 2.493345411867069927e+00
9.062499999999999722e-02 9.277929999999999511e-02 1.549003676729421741e+00
0.000000000000000000e+00 3.767679999999999814e-04 1.260474057938578696e+00
0.000000000000000000e+00 9.939199999999999164e-04 4.681054491710145982e-01
0.000000000000000000e+00 4.848689999999999944e-02 4.812627175715673999e+00
0.000000000000000000e+00 2.834049999999999851e-03 3.466190179321849918e+00
0.000000000000000000e+00 4.041150000000000297e-03 1.927537175557852311e+00
2.500000000000000139e-02 2.594369999999999923e-03 1.893764811209330379e+00
0.000000000000000000e+00 5.149879999999999692e-04 1.742678785103529693e-01
0.000000000000000000e+00 4.204680000000000136e-04 2.232586866670213777e+00
2.500000000000000139e-02 2.980029999999999832e-03 4.895704887030706942e+00
0.000000000000000000e+00 3.580349999999999939e-03 3.814180348944395949e+00
0.000000000000000000e+00 1.097920000000000059e-03 7.348139902091482822e-01
0.000000000000000000e+00 4.773789999999999978e-03 1.173585601189320204e+00
0.000000000000000000e+00 8.781439999999999732e-04 2.755701268446486552e-03
3.125000000000000173e-03 1.310719999999999941e-02 1.986139680702048160e-02
0.000000000000000000e+00 5.308799999999999587e-04 1.050132729035510026e+00
0.000000000000000000e+00 8.947840000000000307e-04 4.536083894582808362e+00
0.000000000000000000e+00 3.373620000000000134e-04 3.981004729953419030e+00
2.187499999999999861e-02 4.668610000000000121e-03 2.816048011852595456e-01
6.250000000000000347e-03 1.031030000000000002e-01 1.509917616046685396e-02
0.000000000000000000e+00 1.742079999999999963e-04 3.985306449351066149e+00
0.000000000000000000e+00 1.973599999999999942e-04 2.654483052752697247e+00
0.000000000000000000e+00 3.888000000000000180e-04 1.296016997858107533e+00
0.000000000000000000e+00 4.888790000000000063e-04 4.377886581942239452e+00
0.000000000000000000e+00 0.000000000000000000e+00 1.182563798159921298e+00
2.187499999999999861e-02 2.909629999999999855e-03 2.424289659633789284e+00
0.000000000000000000e+00 2.713259999999999891e-03 2.125794360369940961e+00
0.000000000000000000e+00 3.603260000000000057e-03 3.765326113309719336e-01
3.125000000000000173e-03 1.253079999999999992e-02 1.799192585418438739e+00
3.125000000000000173e-03 3.879810000000000030e-03 3.006307595868606963e+00
0.000000000000000000e+00 4.147480000000000264e-03 2.935972271465061123e+00
0.000000000000000000e+00 1.669759999999999951e-04 7.476520827304933281e-02
0.000000000000000000e+00 5.847999999999999900e-03 4.603886489457097220e+00
0.000000000000000000e+00 1.685819999999999983e-03 8.600530828494901137e-01
9.374999999999999653e-03 1.070630000000000054e-01 2.373991706988510586e+00
0.000000000000000000e+00 2.421759999999999798e-03 4.701795013670055035e+00
2.187499999999999861e-02 2.911739999999999901e-03 2.760395194608793457e+00
0.000000000000000000e+00 1.087419999999999966e-03 1.681876814003855802e+00
0.000000000000000000e+00 3.939789999999999959e-02 4.618173707774573700e+00
6.250000000000000347e-03 3.202749999999999868e-03 1.809074304747757544e+00
1.562500000000000000e-02 2.164160000000000042e-03 3.829256170269930148e+00
6.250000000000000347e-03 1.232449999999999952e-03 1.451195909643437920e+00
0.000000000000000000e+00 1.200960000000000048e-03 9.869536412076440612e-01
0.000000000000000000e+00 1.062659999999999993e-03 1.602212614757161369e+00
0.000000000000000000e+00 4.987000000000000330e-04 1.350122054401647453e+00
0.000000000000000000e+00 1.066300000000000060e-03 1.210182481088970086e+00
1.562500000000000000e-02 1.955900000000000000e-03 1.181546466560240427e-01
1.562500000000000000e-02 2.883839999999999928e-03 3.769861623958970398e+00
0.000000000000000000e+00 2.963780000000000060e-03 5.243050991924336213e-01
2.812500000000000069e-02 4.692749999999999699e-02 4.385780432132459161e+00
2.500000000000000139e-02 1.169300000000000027e-02 3.888548855197503151e+00
1.250000000000000069e-02 3.006270000000000123e-03 4.591280414864485238e+00
0.000000000000000000e+00 7.010789999999999600e-04 4.809534777109300663e+00
0.000000000000000000e+00 4.125800000000000105e-04 7.685270822648548883e-01
2.500000000000000139e-02 9.979960000000000220e-02 1.891642844663378842e+00
2.187499999999999861e-02 2.093699999999999988e-03 1.226723735225592637e+00
3.125000000000000173e-03 4.725499999999999666e-03 4.946549883504705036e+00
0.000000000000000000e+00 5.460289999999999588e-03 1.524305770480755662e+00
0.000000000000000000e+00 8.011519999999999623e-04 3.867799927373900548e+00
9.374999999999999653e-03 1.812540000000000071e-03 3.808365037260356800e+00
0.000000000000000000e+00 5.006719999999999660e-04 1.419511505216086711e-01
2.500000000000000139e-02 1.658820000000000086e-03 4.044924458552012325e+00
9.374999999999999653e-03 1.736899999999999989e-03 7.463728349683423913e-01
1.874999999999999931e-02 2.084540000000000178e-03 4.611882787754570501e+00
0.000000000000000000e+00 2.907900000000000155e-03 4.118057197618431253e+00
5.937499999999999722e-02 3.941730000000000234e-02 4.487499454318919057e+00
0.000000000000000000e+00 4.413659999999999806e-03 1.034478674809734544e+00
0.000000000000000000e+00 6.123520000000000352e-04 2.742235017022371490e+00
0.000000000000000000e+00 2.769470000000000005e-03 4.037435579000216102e+00
0.000000000000000000e+00 3.079919999999999880e-04 5.880627357375822761e-01
0.000000000000000000e+00 7.691790000000000432e-04 2.702211219599656822e+00
0.000000000000000000e+00 2.778049999999999790e-03 4.625776959960553825e+00
1.250000000000000069e-02 1.677569999999999973e-03 4.465476441750898751e+00
0.000000000000000000e+00 1.540290000000000062e-02 3.846245522229869263e+00
0.000000000000000000e+00 4.394040000000000099e-03 4.020985205269218987e+00
0.000000000000000000e+00 2.274250000000000121e-05 2.617065931337104523e+00
0.000000000000000000e+00 5.151870000000000234e-03 4.125734166834532424e+00
5.000000000000000278e-02 9.061510000000000398e-02 2.678354930698088943e+00
0.000000000000000000e+00 2.044799999999999938e-04 5.630663878185337978e-02
0.000000000000000000e+00 2.062019999999999912e-03 3.238240723004310428e+00
1.874999999999999931e-02 9.958780000000000410e-02 3.820206554184042869e+00
9.374999999999999653e-03 3.276540000000000095e-03 2.241194642084717081e+00
3.437500000000000278e-02 9.245499999999999552e-02 4.248605822286783074e+00
2.812500000000000069e-02 2.271040000000000211e-03 2.176581487251690206e+00
1.874999999999999931e-02 2.817660000000000043e-03 4.723641103858631674e+00
0.000000000000000000e+00 3.853439999999999752e-04 6.885841924108104806e-01
6.250000000000000347e-03 2.312770000000000017e-03 4.123067382361890409e+00
0.000000000000000000e+00 5.649859999999999605e-03 7.926527722365589446e-01
1.250000000000000069e-02 9.557999999999999829e-02 2.596727169191285434e+00
0.000000000000000000e+00 2.998849999999999953e-03 2.264924875501659773e+00
9.374999999999999653e-03 9.792189999999999228e-03 4.321641964128538405e+00
3.125000000000000173e-03 9.754440000000000333e-02 9.709608824813337202e-01
0.000000000000000000e+00 5.562050000000000327e-02 7.240445428524339144e-01
1.250000000000000069e-02 3.195710000000000044e-03 1.977217688204469415e+00
3.125000000000000000e-02 2.862529999999999849e-03 3.835112960862710363e+00
2.187499999999999861e-02 1.914109999999999900e-03 2.226802915985545361e+00
0.000000000000000000e+00 3.926210000000000290e-03 8.161843875407964743e-01
0.000000000000000000e+00 6.167360000000000203e-03 4.736567595209637993e+00
0.000000000000000000e+00 1.020869999999999894e-03 3.944298685565920337e+00
6.250000000000000347e-03 3.445500000000000212e-03 4.057571741835531931e+00
1.250000000000000069e-02 1.752059999999999946e-03 2.304016189963626449e+00
0.000000000000000000e+00 3.440579999999999940e-03 4.685873619873615059e-01
0.000000000000000000e+00 6.459779999999999689e-02 4.989690429794213955e+00
3.125000000000000173e-03 1.343139999999999959e-02 2.922093480622540707e+00
5.312499999999999861e-02 9.487370000000000525e-02 1.380188757889954099e+00
2.500000000000000139e-02 2.135039999999999941e-03 2.439485036227835746e+00
1.562500000000000000e-02 2.189379999999999885e-03 3.017489275890794520e-02
0.000000000000000000e+00 5.438440000000000331e-04 1.445248973857026886e+00
2.812500000000000069e-02 2.243329999999999977e-03 4.330327588232682601e+00
0.000000000000000000e+00 1.175950000000000085e-02 2.547454648827034873e+00
4.374999999999999722e-02 9.193239999999999745e-02 6.251810069100360856e-01
0.000000000000000000e+00 1.126319999999999925e-02 2.121118429983888554e+00
0.000000000000000000e+00 7.439779999999999571e-04 4.236778051150603019e+00
3.437500000000000278e-02 9.270760000000000112e-02 3.552847605194559222e+00
9.374999999999999653e-03 5.136579999999999965e-03 2.850450242405599077e+00
0.000000000000000000e+00 3.502520000000000069e-04 2.564874581784446939e+00
2.187499999999999861e-02 3.062720000000000112e-03 2.928844503626555795e+00
0.000000000000000000e+00 5.478199999999999693e-04 2.046963937227620711e+00
0.000000000000000000e+00 4.392959999999999899e-04 1.321946385557264403e+00
0.000000000000000000e+00 1.548930000000000012e-03 1.735806088438333727e+00
0.000000000000000000e+00 7.337179999999999570e-04 1.731043101362049086e+00
6.250000000000000347e-03 2.379070000000000056e-03 3.765490595429647591e+00
3.125000000000000173e-03 9.645410000000000095e-02 2.996307162460985829e+00
0.000000000000000000e+00 3.542400000000000236e-04 1.994584906266999580e-01
0.000000000000000000e+00 3.788800000000000045e-04 4.669570026459435752e+00
3.125000000000000173e-03 1.058889999999999970e-01 1.587840486350224456e+00
2.187499999999999861e-02 2.823679999999999853e-03 3.276074555705449143e+00
0.000000000000000000e+00 2.774589999999999956e-03 3.959754088336897571e+00
9.374999999999999653e-03 4.547520000000000034e-02 3.842349731532407331e-01
2.500000000000000139e-02 9.236489999999999978e-02 2.391582851717665825e+00
0.000000000000000000e+00 2.457600000000000062e-02 3.001775078177820077e+00
0.000000000000000000e+00 2.284740000000000084e-05 1.376267476779807764e-01
3.125000000000000173e-03 9.150059999999999791e-03 4.510375982901969394e+00
2.500000000000000139e-02 2.034939999999999839e-03 1.771350801977472633e-01
0.000000000000000000e+00 1.145090000000000083e-03 2.450277723602320545e+00
0.000000000000000000e+00 1.824639999999999932e-04 3.488714286455740332e+00
0.000000000000000000e+00 3.008129999999999919e-03 1.849119948684179171e+00
1.250000000000000069e-02 1.582660000000000056e-03 2.168398606762238945e+00
0.000000000000000000e+00 1.508929999999999993e-02 2.305572739415973071e+00
6.250000000000000347e-03 1.229889999999999976e-03 7.347704813872218965e-01
0.000000000000000000e+00 3.311230000000000076e-03 2.291341287234736512e+00
0.000000000000000000e+00 4.003200000000000161e-04 4.740528115632143269e+00
0.000000000000000000e+00 1.139969999999999916e-03 1.668206791755472151e-01
3.125000000000000173e-03 2.352899999999999783e-03 4.092532653513106133e+00
2.187499999999999861e-02 3.585150000000000056e-03 1.425789663431129561e+00
3.125000000000000000e-02 2.738180000000000214e-03 3.767090849970907485e+00
0.000000000000000000e+00 1.721089999999999990e-03 1.292013006457612523e+00
3.125000000000000173e-03 4.363520000000000072e-03 1.831576769903993096e+00
3.749999999999999861e-02 9.273059999999999636e-02 3.019532646634143225e-01
3.125000000000000173e-03 1.950590000000000093e-03 3.743286957449697638e+00
0.000000000000000000e+00 9.791890000000001010e-04 4.855757847900402879e+00
0.000000000000000000e+00 4.563780000000000137e-04 4.223643630180526465e+00
0.000000000000000000e+00 5.597440000000000401e-04 2.973421608799897697e-01
0.000000000000000000e+00 9.790079999999999616e-04 2.163865817652328438e+00
0.000000000000000000e+00 1.823999999999999884e-04 2.005311035842847645e+00
0.000000000000000000e+00 1.509309999999999992e-02 4.884953713038836520e-01
0.000000000000000000e+00 5.709740000000000258e-04 9.904764013607980644e-01
2.812500000000000069e-02 2.498370000000000191e-03 1.295937966910822414e+00
0.000000000000000000e+00 3.593279999999999912e-03 1.339352455818504373e-01
0.000000000000000000e+00 1.521299999999999953e-03 3.782419843848310759e+00
3.125000000000000173e-03 1.004459999999999936e-01 1.585790937058018102e-01
2.500000000000000139e-02 1.554049999999999963e-03 4.162181555690186663e+00
1.250000000000000069e-02 1.349820000000000056e-03 6.246917720695283061e-01
0.000000000000000000e+00 1.257859999999999968e-03 2.709931335654486295e-01
0.000000000000000000e+00 7.051829999999999600e-04 4.187008824870057211e+00
0.000000000000000000e+00 1.265379999999999977e-03 2.366856056879730552e+00
0.000000000000000000e+00 1.127569999999999961e-02 3.248195396400045176e+00
1.250000000000000069e-02 1.183419999999999915e-03 2.046081596402898883e-01
2.500000000000000139e-02 1.606529999999999894e-03 3.167920871192252186e+00
2.187499999999999861e-02 3.785440000000000332e-02 2.024440328528248401e+00
2.187499999999999861e-02 3.621570000000000171e-03 2.419264656528512525e+00
2.500000000000000139e-02 1.712830000000000038e-03 3.940990260952586866e+00
1.562500000000000000e-02 2.632900000000000084e-03 4.331262235371588609e+00
0.000000000000000000e+00 3.493819999999999912e-03 2.664622379364213867e+00
2.500000000000000139e-02 2.200580000000000157e-03 4.237355317546686706e+00
0.000000000000000000e+00 3.081539999999999800e-03 1.582856384922899373e+00
0.000000000000000000e+00 2.791099999999999918e-03 2.027624173502729388e+00
0.000000000000000000e+00 1.072229999999999971e-03 2.708131709892423356e+00
1.874999999999999931e-02 3.410750000000000153e-03 2.769479446337039796e+00
0.000000000000000000e+00 7.337179999999999570e-04 4.162511493318644895e+00
0.000000000000000000e+00 3.825659999999999825e-03 9.434092377466118950e-02
3.125000000000000173e-03 1.648769999999999923e-03 1.449926549050535751e+00
0.000000000000000000e+00 3.610880000000000231e-04 3.466578525899688845e+00
2.812500000000000069e-02 1.820739999999999945e-03 2.845422124949152920e+00
0.000000000000000000e+00 5.724799999999999941e-04 2.796676989179192052e+00
6.250000000000000347e-03 9.843630000000000435e-02 3.753048241474385982e+00
0.000000000000000000e+00 3.014849999999999908e-03 2.256630344382788422e+00
0.000000000000000000e+00 5.425280000000000206e-04 4.782891773753916276e+00
3.125000000000000173e-03 1.970869999999999914e-02 3.842599702343985513e+00
0.000000000000000000e+00 5.000469999999999915e-04 4.703248110249513836e+00
1.250000000000000069e-02 1.752059999999999946e-03 3.912923190030765497e+00
3.125000000000000173e-03 1.748739999999999930e-03 3.449126953876116453e+00
3.125000000000000173e-03 4.383230000000000112e-03 3.362421816393665441e+00
6.250000000000000347e-03 2.550909999999999983e-03 2.487033899453626073e+00
0.000000000000000000e+00 2.632649999999999834e-03 2.597355363633111924e+00
3.125000000000000173e-03 4.957569999999999685e-03 3.165590874897981077e+00
2.812500000000000069e-02 9.311029999999999307e-02 4.291073668369215000e+00
3.125000000000000173e-03 1.050269999999999954e-01 2.895278947381114243e+00
0.000000000000000000e+00 1.750999999999999952e-03 3.749548221966022332e+00
2.500000000000000139e-02 2.681150000000000200e-03 2.703725195411132987e+00
6.250000000000000347e-03 3.131459999999999973e-03 4.490197644740582916e+00
0.000000000000000000e+00 2.954689999999999834e-03 4.803781614529890831e+00
0.000000000000000000e+00 3.066370000000000120e-03 5.711366413848334433e-01
1.562500000000000000e-02 9.228169999999999429e-02 3.911176121823184637e+00
0.000000000000000000e+00 2.267750000000000099e-05 1.824864469738565198e+00
3.125000000000000000e-02 9.182239999999999847e-02 2.414811179939541752e+00
0.000000000000000000e+00 1.084539999999999940e-03 4.434491310146473353e+00
3.125000000000000173e-03 1.081870000000000054e-01 4.393981557756108103e+00
0.000000000000000000e+00 1.890560000000000005e-04 3.593764919857709739e+00
2.187499999999999861e-02 2.911739999999999901e-03 4.069166308397335285e+00
1.874999999999999931e-02 5.410619999999999666e-03 2.129200583041299666e+00
6.250000000000000347e-03 9.934070000000000400e-02 4.070238077052507286e+00
0.000000000000000000e+00 3.829309999999999832e-03 4.851995090270081690e+00
0.000000000000000000e+00 1.587840000000000030e-04 1.113489545397183811e+00
1.250000000000000069e-02 1.436159999999999911e-03 2.344386302517022624e+00
0.000000000000000000e+00 3.634619999999999865e-03 4.239917124282428063e+00
0.000000000000000000e+00 1.978040000000000007e-02 1.742845619052142858e+00
0.000000000000000000e+00 0.000000000000000000e+00 1.488937412448304576e+00
6.250000000000000347e-03 3.903870000000000257e-02 2.069548884417484746e+00
0.000000000000000000e+00 6.078400000000000296e-03 1.104251884465219380e+00
0.000000000000000000e+00 1.142140000000000039e-03 1.318317366040453464e+00
0.000000000000000000e+00 1.135299999999999894e-03 3.934229863946891559e+00
0.000000000000000000e+00 1.285499999999999967e-03 1.386760738262068360e+00
0.000000000000000000e+00 2.943170000000000161e-03 1.754847861547407240e+00
2.500000000000000139e-02 8.844609999999999278e-03 2.612898708993805386e+00
1.562500000000000000e-02 1.869949999999999998e-03 1.738565132071639985e-01
3.125000000000000173e-03 1.667899999999999938e-03 1.076381377860572419e+00
9.374999999999999653e-03 3.426939999999999847e-03 9.021345870642233367e-01
0.000000000000000000e+00 4.928639999999999757e-04 2.556072076012712468e+00
0.000000000000000000e+00 2.725570000000000076e-03 3.568785447896191787e+00
2.187499999999999861e-02 2.023099999999999898e-03 4.740417842099706291e+00
5.000000000000000278e-02 3.967829999999999968e-02 4.033716461615739490e+00
0.000000000000000000e+00 4.863619999999999922e-03 6.891711608891187835e-01
0.000000000000000000e+00 1.196669999999999939e-03 1.942694161525186480e+00
1.125000000000000028e-01 9.163780000000000536e-02 8.586541435666117383e-01
0.000000000000000000e+00 1.822060000000000068e-01 2.448814939373394672e+00
0.000000000000000000e+00 4.781630000000000255e-03 1.819956778522570762e+00
0.000000000000000000e+00 6.832519999999999696e-04 9.839141163229786491e-01
0.000000000000000000e+00 2.776900000000000115e-03 4.420820302284783621e-01
0.000000000000000000e+00 3.598140000000000106e-03 1.144682453803155919e+00
2.187499999999999861e-02 3.784000000000000037e-03 4.170725721090445814e-01
0.000000000000000000e+00 6.612670000000000180e-03 4.072967803589117031e-01
0.000000000000000000e+00 3.886079999999999765e-04 2.933722593025661851e+00
3.125000000000000173e-03 1.037910000000000048e-02 2.630212149272002975e+00
0.000000000000000000e+00 3.579070000000000168e-03 3.757447052700540358e+00
2.187499999999999861e-02 5.387580000000000320e-03 4.991042556041210609e+00
0.000000000000000000e+00 5.320130000000000171e-03 4.089993947415836217e+00
3.125000000000000173e-03 3.281919999999999803e-03 1.129870388589349517e+00
0.000000000000000000e+00 6.538220000000000143e-02 4.836865337320617186e+00
3.125000000000000173e-03 4.993540000000000305e-03 4.041080477210654109e+00
1.562500000000000000e-02 1.061349999999999932e-01 4.696745189937578946e-01
0.000000000000000000e+00 3.777599999999999882e-04 1.775740646936138756e+00
0.000000000000000000e+00 2.030719999999999964e-04 1.214811400647933803e+00
0.000000000000000000e+00 2.216829999999999929e-03 3.639904837553821881e+00
1.250000000000000069e-02 2.026050000000000160e-03 1.795228163320052417e+00
0.000000000000000000e+00 1.739150000000000112e-05 7.426585791103673673e-01
0.000000000000000000e+00 7.294219999999999697e-04 3.979781533544999306e+00
2.187499999999999861e-02 6.055490000000000178e-03 1.960006375287457026e+00
1.562500000000000000e-02 1.552130000000000089e-03 3.164324211271551057e+00
0.000000000000000000e+00 5.149250000000000181e-03 1.128725868558279721e+00
0.000000000000000000e+00 2.257319999999999929e-05 4.780768349009729690e+00
0.000000000000000000e+00 2.286039999999999885e-05 3.496789625002497459e+00
9.374999999999999653e-03 9.578780000000000627e-02 3.683594789333222153e-03
0.000000000000000000e+00 1.129470000000000040e-03 1.159203588575841604e+00
3.125000000000000173e-03 5.019009999999999964e-03 2.920134724002755977e+00
3.125000000000000173e-03 1.130789999999999920e-02 4.287638548974450181e+00
1.562500000000000000e-02 2.127529999999999977e-01 2.389460850749646870e+00
6.250000000000000347e-03 3.469680000000000160e-03 3.296195646139854052e+00
0.000000000000000000e+00 3.957119999999999952e-04 2.229191918610321288e+00
1.874999999999999931e-02 2.660290000000000050e-03 2.301677389070405644e-01
0.000000000000000000e+00 9.674240000000000400e-04 3.778578472236528984e+00
0.000000000000000000e+00 1.668350000000000085e-03 3.416411723912621268e-01
6.875000000000000555e-02 4.090909999999999686e-02 3.283167305181322604e-01
0.000000000000000000e+00 2.157169999999999921e-02 3.676768201083993493e+00
0.000000000000000000e+00 2.663039999999999765e-04 2.569710535374680749e-01
6.250000000000000347e-03 9.795689999999999953e-02 3.364390803508926497e-01
3.125000000000000000e-02 3.063810000000000144e-02 2.894172522099054845e+00
3.125000000000000173e-03 4.677500000000000234e-03 3.290002947555492607e+00
0.000000000000000000e+00 3.029759999999999832e-03 4.124398311154682695e+00
3.125000000000000173e-03 1.849409999999999899e-03 2.572536232584459182e+00
0.000000000000000000e+00 3.455999999999999979e-04 3.779726294418223054e-01
6.250000000000000000e-02 9.262099999999999500e-02 3.661800199452229787e+00
2.500000000000000139e-02 2.639170000000000144e-03 3.897984899667343850e+00
6.250000000000000347e-03 1.742339999999999991e-03 7.802472946953348254e-01
1.250000000000000069e-02 3.305090000000000111e-03 2.977725152760313243e-01
1.562500000000000000e-02 2.988429999999999906e-02 4.963085921033217218e+00
2.187499999999999861e-02 2.438529999999999951e-03 8.006348003123181511e-01
1.874999999999999931e-02 2.775360000000000153e-03 2.141308873611195818e+00
0.000000000000000000e+00 5.386879999999999490e-04 4.407896723626560487e+00
0.000000000000000000e+00 5.037660000000000011e-04 2.592095839116259182e+00
2.187499999999999861e-02 2.499789999999999998e-03 9.298295197363637410e-02
3.125000000000000173e-03 4.335170000000000169e-03 3.784826325778723355e+00
0.000000000000000000e+00 1.197439999999999919e-03 2.695631678319113433e+00
6.250000000000000347e-03 1.752129999999999964e-03 4.280792173130818057e+00
0.000000000000000000e+00 9.777919999999998973e-04 8.610996869677856047e-01
0.000000000000000000e+00 2.959230000000000194e-03 3.489809277847737867e+00
2.187499999999999861e-02 9.181400000000000672e-02 3.696633062809773218e+00
9.374999999999999653e-03 2.458179999999999914e-03 2.283996753982994843e+00
2.187499999999999861e-02 2.150720000000000062e-03 3.170421061435103383e+00
0.000000000000000000e+00 2.011199999999999880e-03 5.544209988472975636e-01
0.000000000000000000e+00 2.279899999999999974e-05 1.072254591213203767e+00
2.187499999999999861e-02 3.454720000000000100e-03 1.638072189503638754e+00
0.000000000000000000e+00 3.976960000000000087e-04 1.639648091263377072e+00
9.374999999999999653e-03 2.288699999999999849e-03 9.885548385467551880e-01
3.125000000000000173e-03 8.779199999999999157e-03 5.646276480649686791e-01
2.187499999999999861e-02 1.860029999999999930e-03 1.930112723301102395e+00
0.000000000000000000e+00 6.760640000000000052e-03 5.793669929623879167e-02
1.874999999999999931e-02 9.673660000000000592e-02 3.012282696643919344e+00
0.000000000000000000e+00 1.512160000000000067e-02 1.699170224673645091e+00
0.000000000000000000e+00 1.468029999999999943e-03 4.101054963327505298e+00
0.000000000000000000e+00 1.970560000000000052e-04 4.477456785578946885e+00
2.187499999999999861e-02 1.502340000000000012e-03 3.245185723804675515e+00
3.125000000000000173e-03 4.457599999999999930e-03 9.343140809406191849e-01
0.000000000000000000e+00 2.662079999999999828e-03 5.321452255248942942e-01
0.000000000000000000e+00 5.255300000000000075e-03 3.398180538080160407e+00
0.000000000000000000e+00 9.581439999999999662e-04 1.985137151253819621e+00
2.500000000000000139e-02 2.069500000000000159e-03 2.953555263479342941e+00
3.125000000000000173e-03 4.442940000000000257e-03 2.438193330004251536e+00
0.000000000000000000e+00 3.243530000000000024e-02 1.362769599107298557e+00
0.000000000000000000e+00 1.220160000000000081e-03 9.908702409297531766e-03
1.562500000000000000e-02 2.406370000000000037e-02 1.039856004985690863e+00
9.374999999999999653e-03 5.747519999999999886e-03 4.118435852458970814e+00
3.125000000000000173e-03 4.512770000000000149e-03 4.129268030286278979e+00
0.000000000000000000e+00 1.661439999999999868e-04 2.144353620381545422e+00
3.125000000000000173e-03 1.018339999999999940e-01 4.529398419293480416e+00
1.000000000000000056e-01 9.352660000000000140e-02 1.033131959210571438e+00
9.374999999999999653e-03 5.814399999999999950e-03 2.006620265423054050e+00
0.000000000000000000e+00 1.572159999999999964e-03 2.461283191279033389e+00
0.000000000000000000e+00 3.001789999999999840e-03 4.351689796560099133e+00
0.000000000000000000e+00 3.758720000000000225e-04 4.101166310833916917e+00
0.000000000000000000e+00 1.126269999999999962e-03 1.185765593899104520e+00
0.000000000000000000e+00 7.073630000000000239e-04 4.383551495882381133e+00
9.374999999999999653e-03 2.560609999999999969e-02 1.375726561121130676e+00
0.000000000000000000e+00 1.294460000000000098e-03 1.883073654154614474e+00
0.000000000000000000e+00 4.938269999999999596e-04 1.502555287839238307e+00
1.562500000000000000e-02 1.689280000000000035e-03 1.793584006161919042e-02
6.250000000000000347e-03 9.607190000000000174e-02 4.098055705485026401e-01
1.874999999999999931e-02 1.940099999999999941e-03 4.531490218095753697e+00
0.000000000000000000e+00 3.748420000000000137e-03 2.055378347260010230e+00
0.000000000000000000e+00 1.485060000000000069e-03 3.049275640752290073e+00
9.374999999999999653e-03 1.353859999999999916e-03 8.954116017493968238e-01
1.562500000000000000e-02 8.111359999999999534e-04 3.556535094698262789e+00
3.125000000000000000e-02 9.195620000000000183e-02 7.778934792917163721e-01
3.749999999999999861e-02 9.394669999999999410e-02 3.230991516849184286e+00
0.000000000000000000e+00 3.833280000000000021e-02 3.387579360847785104e+00
3.125000000000000173e-03 9.825240000000000362e-02 2.346207479758345649e+00
1.562500000000000000e-02 5.600449999999999873e-03 1.634451997733901596e+00
6.250000000000000347e-03 9.509120000000000072e-02 3.542269302975442624e+00
2.500000000000000139e-02 2.498180000000000019e-03 3.143985045193276484e+00
0.000000000000000000e+00 3.114430000000000063e-03 3.520549276787994675e+00
3.125000000000000173e-03 9.547759999999999581e-02 1.689161270674735427e+00
0.000000000000000000e+00 3.767739999999999891e-03 6.370789009041655238e-01
0.000000000000000000e+00 1.171010000000000106e-03 4.639402254228158995e+00
9.374999999999999653e-03 1.077830000000000038e-01 1.801540822169976908e+00
0.000000000000000000e+00 2.749059999999999785e-03 8.101353696976582031e-01
0.000000000000000000e+00 1.164349999999999977e-03 2.549535839258505909e+00
3.125000000000000173e-03 9.772740000000000593e-02 3.277362754183283933e+00
3.437500000000000278e-02 2.675229999999999969e-02 2.220257926237027668e+00
0.000000000000000000e+00 3.855360000000000167e-04 1.496105533040311020e+00
6.250000000000000347e-03 2.485439999999999785e-03 1.671397707760315487e+00
0.000000000000000000e+00 9.875199999999999777e-04 4.942554618508251174e+00
0.000000000000000000e+00 1.131969999999999938e-03 2.439979542110986444e+00
9.374999999999999653e-03 9.587629999999999764e-02 1.136533546675084327e+00
9.375000000000000000e-02 8.130139999999999589e-02 4.792598867125223094e+00
0.000000000000000000e+00 3.855360000000000167e-04 1.933552965834945514e+00
0.000000000000000000e+00 8.652029999999999790e-03 3.024598199309597835e+00
0.000000000000000000e+00 6.952430000000000112e-04 4.111998178139097071e+00
0.000000000000000000e+00 1.935999999999999895e-04 3.651465807603719416e+00
0.000000000000000000e+00 1.072639999999999922e-03 2.950495341097780333e+00
1.250000000000000069e-02 1.964539999999999863e-03 4.110875593651329929e+00
0.000000000000000000e+00 2.005759999999999986e-04 3.463376383728203223e+00
3.125000000000000173e-03 9.689810000000000090e-02 4.617518556033830102e+00
0.000000000000000000e+00 9.054720000000000477e-04 1.263737318007001509e+00
0.000000000000000000e+00 3.661820000000000092e-03 1.307983359354869979e+00
6.250000000000000347e-03 2.884030000000000100e-03 1.831479848412301159e+00
2.812500000000000069e-02 2.277760000000000201e-03 5.941629300514245093e-01
3.125000000000000173e-03 4.885819999999999920e-03 2.235132891348341033e+00
0.000000000000000000e+00 3.657150000000000071e-03 4.912318310183964698e+00
0.000000000000000000e+00 4.910719999999999495e-04 3.777152350710608175e+00
9.374999999999999653e-03 2.063300000000000117e-03 6.073589445097193895e-01
0.000000000000000000e+00 7.838640000000000017e-04 2.962340636507987401e-01
1.250000000000000069e-02 2.838719999999999872e-03 2.721903568924263883e+00
0.000000000000000000e+00 9.312640000000000067e-04 2.544230291485552353e+00
1.562500000000000000e-02 3.727680000000000143e-03 4.175249834577367203e+00
2.812500000000000069e-02 3.060349999999999876e-03 4.447232020244467954e+00
0.000000000000000000e+00 4.258539999999999786e-04 4.059892472807039354e+00
3.125000000000000173e-03 4.663579999999999809e-02 1.331804522294315785e+00
1.874999999999999931e-02 2.854139999999999802e-03 3.608294537520746470e+00
0.000000000000000000e+00 3.621760000000000235e-04 4.234897274471684625e+00
3.125000000000000173e-03 1.558719999999999984e-03 8.444979542479530421e-01
2.500000000000000139e-02 2.121220000000000050e-03 1.236504510911846211e+00
0.000000000000000000e+00 9.997739999999999318e-04 4.724665399269579957e+00
0.000000000000000000e+00 3.316479999999999797e-04 2.043575721391539979e+00
0.000000000000000000e+00 6.174090000000000134e-02 1.658665338419565982e+00
9.374999999999999653e-03 1.654139999999999907e-03 4.781377527432603358e+00
1.874999999999999931e-02 2.957570000000000077e-03 3.435717627451806866e+00
0.000000000000000000e+00 2.102399999999999929e-03 1.811795952739349680e+00
0.000000000000000000e+00 5.496799999999999820e-04 3.724138209251423248e+00
0.000000000000000000e+00 5.085750000000000427e-04 4.673815104792428121e-01
3.125000000000000173e-03 4.518050000000000017e-03 9.290040721829151416e-02
0.000000000000000000e+00 5.126659999999999898e-03 2.806544888067747046e+00
0.000000000000000000e+00 3.785300000000000231e-04 2.059671057393244631e+00
0.000000000000000000e+00 1.220160000000000081e-03 3.183900818930564647e+00
0.000000000000000000e+00 1.515649999999999897e-03 4.912654654993268366e+00
1.874999999999999931e-02 1.819520000000000035e-03 2.816221610961349597e+00
0.000000000000000000e+00 3.217789999999999886e-03 7.712476322126404771e-02
0.000000000000000000e+00 1.015360000000000091e-03 4.323960750548609511e+00
6.250000000000000347e-03 4.489409999999999928e-02 2.005218918137339656e+00
0.000000000000000000e+00 5.914240000000000079e-04 2.049952888586225708e+00
0.000000000000000000e+00 5.660160000000000018e-03 1.087805238388451778e+00
0.000000000000000000e+00 4.129919999999999924e-04 1.039995115567338591e+00
0.000000000000000000e+00 4.210449999999999913e-04 1.290845042407717358e+00
0.000000000000000000e+00 5.756160000000000400e-04 2.401124634241462719e+00
0.000000000000000000e+00 1.502510000000000087e-03 3.439909196268744473e+00
1.874999999999999931e-02 1.388420000000000019e-03 2.589047069035395499e+00
1.250000000000000069e-02 3.600059999999999979e-03 3.397910371918686945e+00
0.000000000000000000e+00 4.304070000000000010e-04 2.547133807141481743e+00
0.000000000000000000e+00 4.258559999999999776e-03 9.571091423343069948e-01
9.687500000000000278e-02 2.212180000000000049e-02 1.986462378704475507e+00
0.000000000000000000e+00 5.660370000000000288e-04 3.563136854264680409e+00
9.374999999999999653e-03 1.400959999999999922e-03 4.957027122668949737e+00
0.000000000000000000e+00 4.979840000000000351e-04 4.154844760033692630e+00
0.000000000000000000e+00 2.828549999999999879e-04 4.617472982866322795e+00
6.250000000000000347e-03 9.791060000000000041e-02 8.355215930806486613e-01
0.000000000000000000e+00 9.088440000000000147e-04 3.103350342462890543e-01
3.125000000000000173e-03 2.205439999999999918e-03 1.021266968286472787e+00
3.125000000000000173e-03 1.589179999999999933e-03 2.522613567284635483e+00
0.000000000000000000e+00 5.470270000000000167e-03 1.609255889587220434e+00
0.000000000000000000e+00 1.690689999999999901e-03 2.401852906546538158e+00
0.000000000000000000e+00 1.749270000000000035e-03 3.291347076265939808e+00
3.125000000000000173e-03 4.390980000000000057e-03 2.269293774253910989e+00
0.000000000000000000e+00 3.817599999999999770e-04 3.289226423983299341e+00
1.874999999999999931e-02 1.053510000000000002e-01 4.507386722002106438e+00
2.500000000000000139e-02 4.837759999999999977e-03 4.412656028595634439e+00
0.000000000000000000e+00 3.037019999999999997e-02 2.832621685862696026e+00
0.000000000000000000e+00 4.182230000000000105e-04 2.175854078283665061e+00
0.000000000000000000e+00 1.128899999999999956e-03 5.175162663514515371e-01
3.125000000000000173e-03 1.882619999999999997e-03 5.791429966593658607e-01
2.500000000000000139e-02 1.001009999999999955e-01 2.988898097277305599e+00
0.000000000000000000e+00 9.905280000000000681e-04 6.174597219333388676e-02
1.562500000000000000e-02 1.347649999999999933e-03 2.944666125279764568e+00
3.125000000000000173e-03 1.674619999999999928e-03 2.971397348638542990e+00
9.374999999999999653e-03 4.263740000000000238e-03 3.491714240590804152e-02
2.812500000000000069e-02 4.611650000000000124e-03 6.599574000538815932e-01
6.250000000000000347e-03 1.857340000000000076e-03 1.942168261509881866e+00
3.125000000000000173e-03 4.862530000000000324e-03 3.521207286854158625e+00
3.125000000000000000e-02 9.727509999999999976e-03 4.435047521929084802e+00
3.125000000000000173e-03 4.773890000000000251e-03 1.462183794766540590e+00
0.000000000000000000e+00 1.912900000000000017e-02 4.500152876235802957e+00
0.000000000000000000e+00 1.341060000000000038e-03 4.091252728388238502e+00
6.250000000000000347e-03 1.750720000000000097e-03 1.656236176509200408e+00
