3.125000000000000173e-03 2.345340000000000012e-03 4.130701905027907017e+00
0.000000000000000000e+00 1.049980000000000054e-03 4.825590840161686046e+00
0.000000000000000000e+00 3.125699999999999919e-03 2.235241251694553011e-02
3.125000000000000173e-03 1.732030000000000071e-03 3.303202391926170378e+00
0.000000000000000000e+00 1.720509999999999965e-03 5.287052225552607565e-01
0.000000000000000000e+00 2.721280000000000075e-04 3.672747891234420692e+00
1.250000000000000069e-02 1.237500000000000102e-03 1.449583616121185026e+00
6.250000000000000347e-03 9.668060000000000542e-02 4.016571184265184336e+00
0.000000000000000000e+00 4.254050000000000106e-04 1.543211017377501992e+00
0.000000000000000000e+00 5.274919999999999566e-04 2.455452997229729206e+00
0.000000000000000000e+00 1.866239999999999913e-03 9.974732622835463802e-01
1.250000000000000069e-02 2.679940000000000013e-03 1.012492740539948644e+00
0.000000000000000000e+00 3.348480000000000033e-04 3.579727020716909180e+00
0.000000000000000000e+00 0.000000000000000000e+00 2.755696552777781694e+00
0.000000000000000000e+00 1.620670000000000053e-03 4.188695284315652856e+00
0.000000000000000000e+00 3.805440000000000211e-04 7.906806177660258284e-01
0.000000000000000000e+00 4.075519999999999902e-04 4.978914641812822950e+00
0.000000000000000000e+00 4.739839999999999939e-04 3.941704413477266744e+00
3.125000000000000000e-02 1.000739999999999963e-02 3.198649854272868964e+00
0.000000000000000000e+00 1.763199999999999924e-04 2.568012364567126227e+00
0.000000000000000000e+00 1.433540000000000075e-03 3.202426614583883779e+00
1.562500000000000000e-02 2.636349999999999978e-03 4.924137000515182550e+00
0.000000000000000000e+00 1.744639999999999884e-04 3.002982438954769684e+00
9.375000000000000000e-02 8.062819999999999709e-02 9.949791408246444480e-01
2.812500000000000069e-02 2.943659999999999853e-03 4.513564827534694013e-01
6.250000000000000347e-03 7.824639999999999677e-04 4.372111681684774709e+00
9.374999999999999653e-03 1.772160000000000055e-03 9.530282328606559661e-01
0.000000000000000000e+00 4.420659999999999867e-02 1.796950080195111044e+00
5.625000000000000139e-02 9.476189999999999614e-02 4.538684291859039988e+00
2.187499999999999861e-02 2.581570000000000045e-03 4.523377978346221795e+00
1.562500000000000000e-02 1.696320000000000076e-03 4.108186420782781845e+00
1.874999999999999931e-02 3.318080000000000161e-03 1.887466951894103406e+00
3.125000000000000000e-02 2.494530000000000011e-03 2.941607723767600380e+00
0.000000000000000000e+00 4.452649999999999837e-03 2.415564880893144029e+00
2.187499999999999861e-02 1.252069999999999919e-02 4.440905077467032669e+00
6.250000000000000347e-03 4.539969999999999943e-03 3.310129519182103408e-01
6.250000000000000347e-03 2.797700000000000187e-03 4.596805694177974466e-02
0.000000000000000000e+00 5.092809999999999915e-04 1.865769595520538449e+00
0.000000000000000000e+00 1.140860000000000051e-03 7.148293338337052827e-01
3.125000000000000173e-03 2.711809999999999828e-03 4.917217889459878144e+00
2.500000000000000139e-02 2.508030000000000068e-03 1.049686056911812715e+00
3.125000000000000173e-03 4.915199999999999778e-03 3.170419957666954947e+00
0.000000000000000000e+00 9.725439999999999910e-04 6.327652440695263891e-01
2.500000000000000139e-02 1.893060000000000012e-03 4.641383260735290506e+00
1.250000000000000069e-02 1.013760000000000052e-03 3.144677137066163031e+00
0.000000000000000000e+00 1.449600000000000107e-03 2.044634070512562740e+00
0.000000000000000000e+00 2.082559999999999793e-03 2.991195329110309942e+00
0.000000000000000000e+00 1.870080000000000093e-04 2.218013046757028039e+00
1.874999999999999931e-02 2.121470000000000022e-01 2.294705078888386485e+00
3.125000000000000173e-03 1.391359999999999906e-03 3.726840030036717266e+00
3.125000000000000173e-03 4.965820000000000130e-03 2.054140937865633898e+00
0.000000000000000000e+00 3.759619999999999976e-03 3.646016880565378315e+00
3.125000000000000173e-03 4.267970000000000270e-03 1.709671298423192543e+00
0.000000000000000000e+00 1.073659999999999936e-03 3.289584149250980971e+00
1.250000000000000069e-02 2.272319999999999982e-03 3.576427889892858758e+00
3.125000000000000173e-03 1.651970000000000001e-03 3.197868376792305511e+00
0.000000000000000000e+00 6.895619999999999875e-03 4.591228751142470088e+00
5.625000000000000139e-02 9.327889999999999793e-02 3.423820499402308037e-01
1.562500000000000000e-02 2.950340000000000081e-03 4.084132182186898774e+00
1.562500000000000000e-02 1.274720000000000020e-02 6.362747916695821182e-01
1.250000000000000069e-02 1.934139999999999991e-03 1.686499046279131830e+00
9.374999999999999653e-03 9.205019999999999869e-02 1.890721221106066885e+00
3.125000000000000173e-03 4.616190000000000050e-03 1.947727532156560137e+00
6.250000000000000347e-03 1.718590000000000092e-03 1.907244141828301487e-03
0.000000000000000000e+00 1.112060000000000002e-03 3.782582940436197028e+00
1.250000000000000069e-02 1.687099999999999971e-03 4.958942534758663534e+00
0.000000000000000000e+00 3.543560000000000069e-04 1.968155313968089182e+00
0.000000000000000000e+00 7.358339999999999890e-04 6.669804131054885010e-01
0.000000000000000000e+00 4.365440000000000292e-02 4.079227347828146222e+00
0.000000000000000000e+00 3.780170000000000231e-04 3.556298370899050099e+00
6.250000000000000347e-03 1.840190000000000011e-03 1.439906383553422042e+00
0.000000000000000000e+00 4.069119999999999964e-04 4.718490173200201587e-01
0.000000000000000000e+00 1.390449999999999943e-04 4.090684205889049352e+00
0.000000000000000000e+00 4.252770000000000009e-04 9.300876256527773611e-01
2.500000000000000139e-02 8.327170000000000058e-03 3.235218444791862602e+00
0.000000000000000000e+00 7.079400000000000016e-04 2.103244257000660866e+00
3.125000000000000173e-03 4.899899999999999568e-03 3.606762291749694871e+00
3.125000000000000173e-03 2.080770000000000015e-03 2.943821220689692097e+00
0.000000000000000000e+00 8.236860000000000145e-04 8.698887214455430783e-01
2.500000000000000139e-02 8.253059999999999563e-03 3.554961636924544699e+00
2.500000000000000139e-02 3.363259999999999861e-03 1.817000894934782007e+00
3.125000000000000173e-03 1.026359999999999946e-02 3.727148148569010555e+00
3.125000000000000000e-02 1.733940000000000004e-03 9.655755148352812567e-01
0.000000000000000000e+00 7.326919999999999570e-04 2.923865629177857084e+00
0.000000000000000000e+00 1.006960000000000103e-03 5.366534300660724677e-01
3.125000000000000173e-03 4.007499999999999951e-02 2.224876382836529665e+00
3.125000000000000173e-03 9.967159999999999909e-02 8.661091352108807317e-01
1.562500000000000000e-02 2.841660000000000193e-03 4.354818730183830588e+00
1.093750000000000000e-01 3.474089999999999817e-02 2.130526660952258844e-01
0.000000000000000000e+00 1.411389999999999997e-03 4.364334870814388978e+00
0.000000000000000000e+00 1.111620000000000013e-03 2.895986595771910643e+00
6.250000000000000347e-03 1.325439999999999995e-03 1.286731262476512150e+00
0.000000000000000000e+00 1.718979999999999944e-03 3.772117533589685934e+00
2.812500000000000069e-02 2.158909999999999996e-03 3.254455777118526072e+00
6.250000000000000347e-03 1.964860000000000131e-03 4.278275267478841570e+00
9.374999999999999653e-03 9.185859999999999859e-02 6.721126879782807206e-01
2.187499999999999861e-02 2.691510000000000083e-02 5.075514691406701751e-01
0.000000000000000000e+00 2.292000000000000078e-05 2.146202058461165851e+00
0.000000000000000000e+00 3.717120000000000081e-04 1.227684064173145018e+00
1.562500000000000000e-02 1.918269999999999914e-03 2.013064765141563850e+00
0.000000000000000000e+00 1.685499999999999932e-03 4.400865726294852287e+00
9.374999999999999653e-03 2.112450000000000092e-03 4.419355743571989237e+00
9.374999999999999653e-03 1.909570000000000017e-02 2.962633746067871998e-01
1.562500000000000000e-02 1.731459999999999987e-03 2.851352158573297046e+00
2.500000000000000139e-02 7.532099999999999906e-03 2.809108852657480337e+00
0.000000000000000000e+00 1.463359999999999921e-03 1.130632220392924658e+00
0.000000000000000000e+00 1.816920000000000080e-03 7.592736706808334013e-01
0.000000000000000000e+00 2.410180000000000048e-03 2.821396763910723138e+00
1.250000000000000069e-02 9.605710000000000637e-02 4.587176387541625822e+00
3.125000000000000173e-03 1.518659999999999975e-02 2.536806800539707751e+00
9.374999999999999653e-03 5.025019999999999834e-03 8.795250266755438862e-01
9.374999999999999653e-03 1.767169999999999982e-03 2.595013201737832453e+00
6.250000000000000347e-03 9.733550000000000535e-02 4.737887201424477723e+00
3.437500000000000278e-02 3.980260000000000048e-02 2.107882398846780969e+00
3.125000000000000173e-03 1.020070000000000005e-02 4.452643505872179830e+00
1.250000000000000069e-02 7.823360000000000123e-04 1.841658541826551865e-02
2.500000000000000139e-02 4.778619999999999916e-03 3.013810488902008089e+00
0.000000000000000000e+00 0.000000000000000000e+00 3.722335038747050628e+00
3.125000000000000173e-03 1.728509999999999942e-03 2.791850180398522951e+00
0.000000000000000000e+00 4.056320000000000086e-04 4.439621209243981070e+00
0.000000000000000000e+00 2.289799999999999998e-05 2.269686980542410026e+00
2.187499999999999861e-02 9.218030000000000668e-02 4.982917733831791374e+00
0.000000000000000000e+00 1.953219999999999869e-03 9.456305838885353809e-01
0.000000000000000000e+00 5.592960000000000336e-04 9.516136829632765304e-01
0.000000000000000000e+00 1.102590000000000080e-03 1.565241789396252692e+00
3.125000000000000173e-03 8.065920000000000034e-02 1.781799486246171682e-01
0.000000000000000000e+00 1.586559999999999934e-04 1.508683936661947556e+00
0.000000000000000000e+00 9.446399999999999545e-04 3.313806575812817012e+00
0.000000000000000000e+00 7.630719999999999474e-04 1.588232590725421334e+00
3.125000000000000173e-03 8.640200000000000657e-03 5.239278311871509164e-01
3.125000000000000173e-03 4.059010000000000049e-03 5.393202450458411956e-01
0.000000000000000000e+00 2.099199999999999959e-04 4.692559239328046417e+00
9.374999999999999653e-03 3.020609999999999962e-03 8.982950585578752811e-01
0.000000000000000000e+00 5.281279999999999959e-04 2.849012293484183278e+00
3.125000000000000000e-02 2.115199999999999806e-03 3.642628700250418738e+00
0.000000000000000000e+00 3.259520000000000126e-04 1.509603132014613713e+00
2.812500000000000069e-02 9.390819999999999723e-02 3.342108228960749106e+00
0.000000000000000000e+00 1.154939999999999916e-03 2.053695942108282768e+00
3.125000000000000173e-03 2.031260000000000010e-02 6.218592665101851935e-01
0.000000000000000000e+00 2.267789999999999848e-05 2.483073623180459322e+00
2.187499999999999861e-02 1.718780000000000047e-03 2.178297283961617037e+00
1.031249999999999944e-01 5.783069999999999877e-02 4.848895015789452145e+00
0.000000000000000000e+00 9.396250000000000305e-04 4.979043093531179132e+00
2.812500000000000069e-02 2.918140000000000057e-03 1.585577037833894032e+00
1.874999999999999931e-02 9.679240000000000066e-02 3.692055306217698618e+00
1.562500000000000000e-02 1.995199999999999925e-03 2.447407578962209840e+00
0.000000000000000000e+00 3.417089999999999798e-03 2.525376931233898059e+00
0.000000000000000000e+00 3.804029999999999911e-03 1.743082207639060632e+00
0.000000000000000000e+00 3.133180000000000166e-03 1.676251468568440428e-01
0.000000000000000000e+00 1.103940000000000086e-03 1.280996449653086344e+00
3.125000000000000173e-03 5.108989999999999886e-03 4.956108303568958817e+00
3.125000000000000173e-03 6.125379999999999714e-02 4.639727443994229539e+00
0.000000000000000000e+00 0.000000000000000000e+00 5.540438364587008113e-01
0.000000000000000000e+00 1.134079999999999984e-03 3.284638583220323760e+00
0.000000000000000000e+00 1.511170000000000048e-03 2.958989426116544585e+00
6.250000000000000347e-03 1.823299999999999921e-03 3.834122898171685279e+00
6.250000000000000347e-03 2.575099999999999872e-03 3.872278891750044583e+00
0.000000000000000000e+00 1.114750000000000072e-03 1.162051299667488102e-01
6.250000000000000347e-03 2.155840000000000013e-03 1.734452073308670350e+00
0.000000000000000000e+00 7.275520000000000164e-04 1.064366053429272041e-01
1.874999999999999931e-02 1.933760000000000080e-03 7.824975133769063174e-01
0.000000000000000000e+00 1.130429999999999977e-03 2.119631713118796945e-01
3.437500000000000278e-02 9.397780000000000022e-02 1.701067648955933986e-01
3.125000000000000173e-03 4.941380000000000425e-03 4.972282927560548238e+00
1.250000000000000069e-02 2.639939999999999908e-03 2.156420513990880750e+00
3.125000000000000173e-03 9.661469999999999780e-02 1.885815285353892312e-01
0.000000000000000000e+00 1.064260000000000067e-01 3.159345869805340712e+00
9.374999999999999653e-03 4.852030000000000232e-03 4.951031541146379666e+00
3.125000000000000173e-03 9.619330000000000588e-03 3.415139108097933640e+00
3.125000000000000173e-03 3.414079999999999893e-03 3.205842685521928637e+00
7.499999999999999722e-02 9.077620000000000133e-02 2.131547264207526382e+00
0.000000000000000000e+00 1.946880000000000138e-02 2.813076964140837077e-01
6.250000000000000347e-03 2.351549999999999994e-03 2.248641941843914971e+00
2.500000000000000139e-02 3.021380000000000159e-03 3.466060978318059593e+00
0.000000000000000000e+00 2.617009999999999909e-03 4.536217700680000853e-01
2.187499999999999861e-02 6.254410000000000525e-02 3.474442847102825471e+00
6.250000000000000347e-03 4.192959999999999916e-03 2.205556048296859473e+00
1.874999999999999931e-02 8.549309999999999202e-03 3.465620011272251944e+00
0.000000000000000000e+00 9.952209999999999095e-04 5.831552818556295925e-02
2.812500000000000069e-02 9.393519999999999648e-02 1.072312831817808787e+00
0.000000000000000000e+00 2.810819999999999985e-02 1.165087522832380929e+00
3.125000000000000173e-03 4.629949999999999864e-03 4.383154608420599452e+00
3.125000000000000173e-03 1.921940000000000107e-02 2.607574814178927891e+00
0.000000000000000000e+00 1.093439999999999994e-03 1.240869681938931546e+00
0.000000000000000000e+00 1.255360000000000070e-03 3.359535374724736734e+00
0.000000000000000000e+00 1.291140000000000083e-03 1.378335568982915316e+00
2.187499999999999861e-02 5.510460000000000011e-03 3.912426312256486849e+00
0.000000000000000000e+00 1.125949999999999911e-03 2.294196001549272168e+00
5.937499999999999722e-02 3.978519999999999973e-02 4.054886665447166472e+00
6.250000000000000347e-03 2.098370000000000010e-03 2.958235021062909365e+00
0.000000000000000000e+00 7.753229999999999844e-03 2.136063668974477636e+00
9.374999999999999653e-03 2.390849999999999920e-03 3.562027564385180867e+00
0.000000000000000000e+00 9.148160000000000449e-04 1.157573143589223363e+00
0.000000000000000000e+00 7.609599999999999784e-04 1.844791253779410223e+00
3.125000000000000173e-03 9.854090000000000071e-02 4.891510503057460824e+00
0.000000000000000000e+00 9.790720000000001019e-04 2.245810401181133731e+00
0.000000000000000000e+00 9.973759999999999050e-04 3.502662635522848067e+00
2.812500000000000069e-02 4.772289999999999865e-02 1.199514815545175583e+00
3.125000000000000173e-03 1.068120000000000042e-01 3.130731253872881537e-01
0.000000000000000000e+00 4.273290000000000009e-04 3.185853493062069663e+00
0.000000000000000000e+00 9.746559999999999599e-04 6.604230509995762111e-01
1.093750000000000000e-01 8.067720000000000447e-02 3.072244864573807632e+00
0.000000000000000000e+00 7.347439999999999570e-04 2.676792264378030639e-01
9.374999999999999653e-03 1.798020000000000000e-03 4.137793981428902867e+00
0.000000000000000000e+00 4.408129999999999687e-03 4.189789421968383110e+00
0.000000000000000000e+00 2.401340000000000072e-03 1.875121955436431787e-02
0.000000000000000000e+00 3.526889999999999973e-04 4.756944152298271611e+00
3.125000000000000173e-03 4.960509999999999572e-03 6.658355091005496718e-01
2.812500000000000069e-02 2.455999999999999850e-03 3.880573585474576426e+00
0.000000000000000000e+00 2.310570000000000139e-05 1.970648169789597226e+00
9.374999999999999653e-03 1.828989999999999956e-03 1.547101085841471324e+00
2.812500000000000069e-02 2.289540000000000065e-03 1.078323888576909750e+00
0.000000000000000000e+00 3.507839999999999808e-04 4.024749271979636944e+00
0.000000000000000000e+00 1.495419999999999909e-03 3.067119597503564332e+00
0.000000000000000000e+00 3.923840000000000162e-04 2.444365084060359017e+00
3.125000000000000173e-03 1.347969999999999984e-03 1.153776437634829843e+00
0.000000000000000000e+00 7.014690000000000291e-04 4.777915764528064990e+00
0.000000000000000000e+00 1.061120000000000032e-04 4.999611449942627850e+00
3.125000000000000173e-03 1.921370000000000022e-02 3.730288126996872400e-01
0.000000000000000000e+00 2.749440000000000022e-04 2.488371591227065416e+00
0.000000000000000000e+00 7.117570000000000147e-03 1.246941888337371740e+00
0.000000000000000000e+00 7.298069999999999601e-04 8.415557884640012531e-01
6.250000000000000347e-03 1.611969999999999896e-03 2.006038251832540809e+00
2.812500000000000069e-02 2.229889999999999997e-03 3.656060807717840699e+00
0.000000000000000000e+00 1.939900000000000044e-03 1.748847353680438310e+00
0.000000000000000000e+00 1.484489999999999985e-03 4.525585988133579818e+00
1.562500000000000000e-02 1.696959999999999961e-03 4.005084835545804189e+00
0.000000000000000000e+00 1.080379999999999925e-03 3.327782903006281323e+00
0.000000000000000000e+00 1.237250000000000068e-03 3.944842422055251596e+00
1.250000000000000069e-02 1.801730000000000085e-03 2.259272521213509410e+00
3.125000000000000173e-03 4.398530000000000321e-03 4.399157668298697033e+00
0.000000000000000000e+00 2.159359999999999925e-03 7.831356228697361477e-01
1.874999999999999931e-02 2.692289999999999961e-03 6.849765136599811344e-01
3.125000000000000173e-03 4.576509999999999780e-03 2.580036451111902718e+00
9.374999999999999653e-03 1.883139999999999944e-03 1.897066229992454112e+00
0.000000000000000000e+00 1.080189999999999970e-03 1.224764134760019552e+00
0.000000000000000000e+00 1.004160000000000035e-03 3.031779659144834937e+00
3.125000000000000173e-03 4.597379999999999869e-03 2.797372889964081288e+00
0.000000000000000000e+00 1.144639999999999937e-03 3.711638523245510690e+00
0.000000000000000000e+00 1.681409999999999936e-03 2.243610322084256481e+00
0.000000000000000000e+00 1.754560000000000061e-03 1.485583478592226170e+00
0.000000000000000000e+00 2.068669999999999884e-03 3.315395698908536470e+00
0.000000000000000000e+00 1.000959999999999957e-03 6.871949319783743348e-01
0.000000000000000000e+00 1.109439999999999949e-03 1.090177578374292855e+00
0.000000000000000000e+00 1.362429999999999978e-03 7.756555268347381515e-01
0.000000000000000000e+00 3.820569999999999912e-04 3.300450436534748011e+00
0.000000000000000000e+00 1.029380000000000095e-03 2.506118563028099100e+00
6.250000000000000347e-03 2.649729999999999881e-03 4.337034324841154698e-01
3.125000000000000173e-03 9.619600000000000373e-02 4.599610265851311830e+00
0.000000000000000000e+00 1.050500000000000001e-03 1.368335298198546823e+00
3.125000000000000173e-03 4.524290000000000256e-03 4.284174134909757292e-01
1.562500000000000000e-02 1.797250000000000019e-03 4.287423680369334633e+00
0.000000000000000000e+00 7.660370000000000113e-04 3.531622389139509544e+00
0.000000000000000000e+00 9.443700000000000401e-04 3.467316328257647129e+00
3.125000000000000173e-03 1.727620000000000024e-03 2.368467786956512278e+00
1.562500000000000000e-02 2.225790000000000060e-03 2.161035795752437760e+00
9.374999999999999653e-03 1.154110000000000075e-03 1.664179564039154346e+00
2.812500000000000069e-02 9.450959999999999916e-02 8.290486331316576640e-01
0.000000000000000000e+00 2.513220000000000037e-03 1.566898775957402679e+00
0.000000000000000000e+00 1.396029999999999927e-03 3.749291061834961081e+00
0.000000000000000000e+00 9.455239999999999955e-04 5.508926366303434907e-01
1.562500000000000000e-02 2.329540000000000170e-03 1.330333965731433477e+00
0.000000000000000000e+00 1.572049999999999836e-02 1.635436872515243500e+00
9.374999999999999653e-03 2.659390000000000191e-03 4.095218491810071804e+00
9.374999999999999653e-03 1.984640000000000189e-03 6.019391239991866982e-01
2.812500000000000069e-02 3.838209999999999886e-03 3.870898892993865026e+00
3.125000000000000173e-03 1.978750000000000040e-03 3.120283525193448426e+00
0.000000000000000000e+00 1.866579999999999975e-02 4.049619409444627394e+00
0.000000000000000000e+00 7.498879999999999869e-04 2.811498113937505927e+00
0.000000000000000000e+00 7.513529999999999601e-04 8.023633863788925957e-01
0.000000000000000000e+00 4.151450000000000105e-04 4.701017494492495175e+00
0.000000000000000000e+00 1.895040000000000071e-04 6.464967584742969953e-01
0.000000000000000000e+00 1.361730000000000015e-03 3.876846126332867293e+00
6.250000000000000347e-03 3.073180000000000009e-02 1.399339751605048754e+00
0.000000000000000000e+00 7.630719999999999474e-04 3.196332895412945074e+00
0.000000000000000000e+00 1.016900000000000052e-03 4.484199294223420118e+00
0.000000000000000000e+00 4.777339999999999712e-03 4.054900060272783158e+00
0.000000000000000000e+00 1.475559999999999927e-01 4.192090486904740843e+00
1.874999999999999931e-02 1.077100000000000002e-01 8.797705226918584032e-02
0.000000000000000000e+00 3.789789999999999912e-04 3.592751749783283266e+00
0.000000000000000000e+00 2.401340000000000072e-03 2.543392745345327555e+00
0.000000000000000000e+00 3.820569999999999912e-04 2.277549651828305155e+00
3.125000000000000173e-03 1.715649999999999988e-03 1.712431315003940524e+00
3.125000000000000173e-03 3.056189999999999862e-03 1.776744731426664892e+00
2.812500000000000069e-02 1.584509999999999912e-03 3.008380811492356699e+00
3.125000000000000173e-03 2.294529999999999920e-03 4.945920376323906353e+00
0.000000000000000000e+00 3.684859999999999872e-03 2.082194933681068783e+00
3.125000000000000173e-03 4.404289999999999941e-03 4.707904744398646812e+00
1.250000000000000069e-02 1.115159999999999936e-02 6.871553627080995152e-01
0.000000000000000000e+00 1.058429999999999961e-03 1.269456535341193515e+00
0.000000000000000000e+00 1.623680000000000013e-04 3.514395000992657891e+00
6.250000000000000347e-03 9.350730000000000153e-02 2.560108796775008688e+00
1.250000000000000069e-02 2.250049999999999967e-03 3.649738521313970807e+00
0.000000000000000000e+00 1.550209999999999999e-03 1.221600396242031872e+00
0.000000000000000000e+00 7.315380000000000016e-04 6.340921019043443962e-01
3.125000000000000173e-03 2.318660000000000165e-03 2.545466815329080479e+00
0.000000000000000000e+00 2.010240000000000052e-04 7.578302249250623568e-01
0.000000000000000000e+00 1.109570000000000044e-03 3.646306459434370595e+00
0.000000000000000000e+00 9.719680000000000290e-04 2.857692923892665160e+00
0.000000000000000000e+00 2.363449999999999877e-05 4.266330817731924796e+00
0.000000000000000000e+00 7.176230000000000239e-04 4.733734170851255030e+00
0.000000000000000000e+00 3.839359999999999778e-04 4.634434033830675759e+00
0.000000000000000000e+00 7.397460000000000016e-04 4.588314121758143571e+00
1.874999999999999931e-02 2.912380000000000004e-03 4.972515020337425540e+00
3.125000000000000173e-03 1.010199999999999987e-02 3.377730468628755922e+00
1.250000000000000069e-02 1.307250000000000079e-02 4.575536918231104089e+00
3.125000000000000000e-02 4.029730000000000117e-02 1.765374358033879432e+00
8.749999999999999445e-02 9.047869999999999524e-02 4.185439418337766337e-02
1.250000000000000069e-02 2.144699999999999818e-03 1.289357874333078691e+00
0.000000000000000000e+00 2.109950000000000193e-03 8.896514358020102264e-01
1.874999999999999931e-02 2.059200000000000180e-03 4.117645360446590352e+00
2.812500000000000069e-02 9.366879999999999651e-02 1.017366244528119967e+00
1.562500000000000000e-02 1.986050000000000055e-03 3.549843456882808113e+00
2.500000000000000139e-02 2.798460000000000010e-03 2.007769393043754125e+00
0.000000000000000000e+00 5.321730000000000210e-03 3.611353290890315648e+00
0.000000000000000000e+00 9.978879999999999435e-04 3.489940837204303925e+00
0.000000000000000000e+00 4.297659999999999913e-04 2.373013323664791230e+00
0.000000000000000000e+00 4.252369999999999761e-02 4.160699027978731479e-01
6.250000000000000347e-03 1.771779999999999926e-03 3.909300754705424819e-01
0.000000000000000000e+00 4.318179999999999913e-04 8.923741048174427259e-01
0.000000000000000000e+00 2.692030000000000204e-03 4.706883474581119664e+00
3.125000000000000173e-03 3.610560000000000071e-03 7.372818652569695930e-01
1.562500000000000000e-02 2.747260000000000067e-03 2.497648786478266381e+00
1.874999999999999931e-02 3.681220000000000325e-02 3.635795477001273923e+00
1.874999999999999931e-02 2.279230000000000145e-03 1.975017278954533939e+00
0.000000000000000000e+00 1.911600000000000105e-02 1.228697892892717913e+00
1.874999999999999931e-02 2.737729999999999851e-03 1.839863307561195871e+00
0.000000000000000000e+00 3.018240000000000159e-04 1.383792793840136870e+00
0.000000000000000000e+00 8.181720000000000399e-04 3.568953222311512796e+00
0.000000000000000000e+00 5.818880000000000233e-04 1.138875802915884528e+00
3.125000000000000173e-03 7.853970000000000048e-03 2.889878744104928954e-01
0.000000000000000000e+00 6.729919999999999696e-04 2.426875196725914563e+00
0.000000000000000000e+00 9.579519999999999789e-04 1.103839617695608899e+00
0.000000000000000000e+00 1.292860000000000060e-03 1.211513100935485143e-01
0.000000000000000000e+00 2.302749999999999933e-05 4.516202162298713851e+00
1.250000000000000069e-02 9.576809999999999490e-02 4.704568406283053505e+00
3.125000000000000173e-03 2.108539999999999894e-03 1.389392177942517126e+00
0.000000000000000000e+00 1.105859999999999959e-03 7.152596797633975489e-01
9.374999999999999653e-03 2.893440000000000161e-03 1.424296833990906785e-01
0.000000000000000000e+00 1.694079999999999881e-04 2.110960356422755702e+00
0.000000000000000000e+00 3.778559999999999818e-04 3.874287203931825463e-01
2.187499999999999861e-02 2.076099999999999994e-03 1.527281692377459033e+00
0.000000000000000000e+00 3.937920000000000136e-04 1.691647268908825108e+00
0.000000000000000000e+00 8.992639999999999878e-04 4.093266486006201355e+00
0.000000000000000000e+00 0.000000000000000000e+00 1.698691806569643248e+00
0.000000000000000000e+00 3.735070000000000057e-02 2.181187358555076727e+00
0.000000000000000000e+00 6.746430000000000482e-02 1.828217405720234945e+00
1.250000000000000069e-02 1.171200000000000062e-03 3.674245485466920869e+00
0.000000000000000000e+00 1.166399999999999946e-03 2.291203256427100321e+00
9.374999999999999653e-03 1.716349999999999950e-03 6.524670555707534625e-01
0.000000000000000000e+00 7.333329999999999666e-04 9.542798907242028283e-01
0.000000000000000000e+00 2.870720000000000216e-03 2.786667499269665615e+00
1.874999999999999931e-02 2.360699999999999864e-03 1.626046381438334132e-01
1.250000000000000069e-02 1.427579999999999908e-03 1.943605052787069187e+00
0.000000000000000000e+00 1.811069999999999911e-03 2.909748097614307305e+00
3.125000000000000173e-03 1.113869999999999964e-02 3.691798975374617875e+00
0.000000000000000000e+00 1.069309999999999965e-03 1.308930458957798804e+00
1.874999999999999931e-02 4.746750000000000101e-03 1.734329699413228454e+00
3.125000000000000173e-03 2.080770000000000015e-03 2.069789549492288661e+00
9.374999999999999653e-03 1.735940000000000052e-03 4.277898890814429977e-01
0.000000000000000000e+00 7.377580000000000335e-04 3.115257257474462360e+00
0.000000000000000000e+00 3.740160000000000186e-03 2.112428075760897084e-01
4.062500000000000139e-02 9.184230000000000171e-02 3.190677805178743220e+00
9.374999999999999653e-03 8.202240000000000399e-04 2.653074920735159381e+00
3.125000000000000173e-03 1.227650000000000052e-03 3.452016721677471534e+00
6.250000000000000347e-03 1.304260000000000011e-03 3.428463198683007196e-01
0.000000000000000000e+00 4.311760000000000202e-04 4.660919670765197864e+00
0.000000000000000000e+00 3.543549999999999912e-04 3.744260856139751237e+00
3.125000000000000173e-03 4.367420000000000330e-03 3.881678913639556860e+00
2.187499999999999861e-02 9.162629999999999386e-02 4.750644786091010374e+00
0.000000000000000000e+00 1.115260000000000079e-03 4.835430418096860805e+00
1.250000000000000069e-02 4.937659999999999966e-03 2.759581163245404589e+00
2.500000000000000139e-02 2.894400000000000098e-03 9.433457970463871023e-01
0.000000000000000000e+00 3.112960000000000033e-02 2.825085733932514831e+00
0.000000000000000000e+00 4.134780000000000009e-04 3.468683860916649264e-01
0.000000000000000000e+00 3.777599999999999882e-04 2.874285900426493123e-01
9.374999999999999653e-03 1.533759999999999898e-03 1.085443923468880634e+00
0.000000000000000000e+00 1.383260000000000045e-02 4.827567700810976525e+00
9.374999999999999653e-03 1.001220000000000027e-01 1.187984322302505502e+00
3.125000000000000173e-03 2.074209999999999943e-02 2.009676217387095676e+00
2.187499999999999861e-02 1.912260000000000045e-03 3.892862295649971216e+00
3.125000000000000173e-03 4.955649999999999812e-03 4.666828453981901603e+00
1.874999999999999931e-02 1.819010000000000028e-03 4.513671219951235436e+00
0.000000000000000000e+00 9.905280000000000681e-04 1.266329018580226062e+00
2.500000000000000139e-02 3.132119999999999956e-03 2.729110061557153522e+00
1.250000000000000069e-02 1.992320000000000115e-03 2.700913475963980126e+00
2.187499999999999861e-02 2.231359999999999941e-03 1.147546173346764009e+00
1.093750000000000000e-01 2.488160000000000024e-02 2.084520411021133945e+00
1.874999999999999931e-02 9.754519999999999857e-02 1.760996434874507743e+00
3.125000000000000173e-03 9.625430000000000097e-02 7.776668323106322722e-01
3.125000000000000000e-02 2.639419999999999961e-03 2.873545036103845263e+00
1.562500000000000000e-02 2.282619999999999962e-03 2.255614743572145198e+00
0.000000000000000000e+00 1.167939999999999907e-03 2.166878782599412911e-02
0.000000000000000000e+00 1.659519999999999995e-04 1.969981077458130558e+00
0.000000000000000000e+00 2.752639999999999991e-04 5.339090081396630216e-01
6.250000000000000347e-03 1.721110000000000088e-03 4.101398165716906519e+00
0.000000000000000000e+00 1.139260000000000012e-03 2.288340587438138840e+00
0.000000000000000000e+00 2.104579999999999992e-03 4.760416724637465791e+00
0.000000000000000000e+00 5.794329999999999663e-04 1.961409701196516586e+00
0.000000000000000000e+00 1.278019999999999937e-03 8.430022898732059122e-01
0.000000000000000000e+00 4.161279999999999840e-04 4.795586144133973105e-01
0.000000000000000000e+00 2.206319999999999909e-05 1.456173875179593846e+00
4.687500000000000000e-02 9.463839999999999753e-02 4.439172061925114932e+00
3.125000000000000173e-03 1.947810000000000166e-02 4.779313916119031447e+00
0.000000000000000000e+00 3.071550000000000148e-03 2.279967602109178593e+00
0.000000000000000000e+00 1.182120000000000046e-02 2.991890972746436006e+00
1.874999999999999931e-02 3.585790000000000158e-03 2.595424058488038366e-01
9.374999999999999653e-03 4.868540000000000194e-03 3.338605688695490681e+00
0.000000000000000000e+00 5.505280000000000416e-03 2.420803202485510841e-01
2.500000000000000139e-02 1.802430000000000048e-03 4.881664184057105338e+00
0.000000000000000000e+00 7.321149999999999793e-04 3.051968950811914105e+00
3.125000000000000173e-03 4.778300000000000082e-03 4.782106388936327335e+00
0.000000000000000000e+00 1.988480000000000044e-04 1.071788515362607219e+00
0.000000000000000000e+00 9.756870000000000820e-03 9.497286994645265379e-01
0.000000000000000000e+00 3.691519999999999784e-04 4.881292152671107054e+00
0.000000000000000000e+00 1.693609999999999907e-02 2.818986394890889535e+00
1.562500000000000000e-02 2.121979999999999873e-03 4.922004617493549006e+00
2.500000000000000139e-02 3.015869999999999922e-03 4.695381440385249405e+00
2.187499999999999861e-02 2.599419999999999856e-03 1.982125114516297693e-01
3.125000000000000173e-03 1.524799999999999984e-03 2.197543116211511549e+00
6.250000000000000347e-03 1.649660000000000059e-03 3.627209204284302491e+00
0.000000000000000000e+00 7.541100000000000017e-04 4.478984691354548353e-02
9.374999999999999653e-03 1.480380000000000107e-03 1.041628255802394154e+00
0.000000000000000000e+00 9.232640000000000291e-04 4.459070703725097395e+00
0.000000000000000000e+00 7.356420000000000016e-04 2.533210529863062277e+00
0.000000000000000000e+00 4.025769999999999913e-04 7.005753459410452022e-01
3.749999999999999861e-02 9.162320000000000186e-02 1.647578251920056580e+00
0.000000000000000000e+00 7.567100000000000215e-02 3.561199446358676468e+00
1.874999999999999931e-02 1.147140000000000052e-03 1.555206387436280924e-02
3.125000000000000173e-03 4.749500000000000249e-03 1.402771312096197764e+00
0.000000000000000000e+00 1.131520000000000008e-03 3.911401220345234186e+00
1.874999999999999931e-02 1.005089999999999976e-02 4.104835485629048542e+00
0.000000000000000000e+00 1.922239999999999973e-03 3.701221069539821329e+00
0.000000000000000000e+00 1.571649999999999957e-03 2.877951526944688698e-01
0.000000000000000000e+00 1.041730000000000043e-03 1.299155999688302199e+00
2.500000000000000139e-02 3.442179999999999979e-03 3.551556776938775695e+00
2.187499999999999861e-02 3.380290000000000204e-03 2.983650127039594757e+00
2.812500000000000069e-02 9.266340000000000687e-02 3.743521041102860991e+00
3.125000000000000173e-03 1.870850000000000074e-03 4.355841146242601880e+00
0.000000000000000000e+00 3.866739999999999912e-04 2.800747099541112117e-01
0.000000000000000000e+00 1.099069999999999952e-03 3.117649936697181712e+00
0.000000000000000000e+00 1.035899999999999972e-03 1.496702844447948433e+00
2.187499999999999861e-02 1.930180000000000090e-03 1.178329362122693791e+00
3.125000000000000173e-03 4.767809999999999930e-03 2.904982029065358962e+00
0.000000000000000000e+00 1.191039999999999981e-03 2.782442430607283246e+00
0.000000000000000000e+00 1.670590000000000009e-03 1.802853577884651060e+00
2.500000000000000139e-02 2.452479999999999938e-03 1.798014895879587627e+00
1.562500000000000000e-02 2.516579999999999859e-02 1.763096149616114161e+00
2.187499999999999861e-02 1.718780000000000047e-03 1.254512854445493097e+00
0.000000000000000000e+00 1.366140000000000063e-03 1.135565010744519654e+00
0.000000000000000000e+00 2.303169999999999783e-03 4.721028022485484144e+00
1.250000000000000069e-02 9.485330000000000150e-02 3.758378338960977061e-01
0.000000000000000000e+00 9.183999999999999889e-04 3.456687669690234443e+00
1.562500000000000000e-02 2.407550000000000055e-03 2.798620749438712751e-01
0.000000000000000000e+00 7.768739999999999890e-04 2.982500810475197106e+00
6.250000000000000347e-03 1.628029999999999929e-03 7.928802786821131932e-01
0.000000000000000000e+00 1.012859999999999976e-03 7.741899969602306086e-01
0.000000000000000000e+00 1.865469999999999932e-03 3.975970329680327264e+00
0.000000000000000000e+00 4.163640000000000136e-04 5.954657395479989734e-01
2.187499999999999861e-02 3.826269999999999671e-02 3.332927902195770287e-01
3.125000000000000000e-02 1.893949999999999930e-03 4.490444728928739693e+00
2.500000000000000139e-02 2.232259999999999800e-03 4.149782207498275977e-01
0.000000000000000000e+00 2.843299999999999994e-03 7.463004859750610454e-01
1.250000000000000069e-02 2.160089999999999927e-02 3.758912515470657745e+00
0.000000000000000000e+00 1.938370000000000024e-03 3.275379345238500051e+00
9.374999999999999653e-03 9.437440000000000499e-04 3.384357286974531753e+00
0.000000000000000000e+00 5.251200000000000138e-04 9.282996487887279491e-01
0.000000000000000000e+00 6.909470000000000238e-04 8.419110283615321988e-01
0.000000000000000000e+00 2.411260000000000139e-03 4.888057203693014330e+00
9.374999999999999653e-03 1.338559999999999924e-03 3.920148993975561158e+00
6.250000000000000347e-03 3.050370000000000165e-03 1.264660931230664476e+00
2.187499999999999861e-02 3.962689999999999615e-03 3.163187730027235745e+00
0.000000000000000000e+00 4.333569999999999913e-04 1.773571514113497116e+00
0.000000000000000000e+00 4.379580000000000105e-03 8.930390397340348674e-01
2.187499999999999861e-02 2.248640000000000101e-03 4.402435966610965146e+00
3.125000000000000173e-03 2.394180000000000093e-03 3.158533334177051621e+00
0.000000000000000000e+00 3.639939999999999929e-03 3.753277829319823233e+00
0.000000000000000000e+00 3.535999999999999755e-04 4.154428450223802471e+00
0.000000000000000000e+00 1.341500000000000027e-03 4.111272867548814602e+00
3.125000000000000173e-03 1.215650000000000064e-02 4.609025460595742807e+00
6.250000000000000347e-03 3.173819999999999940e-03 2.676787697678204569e+00
0.000000000000000000e+00 4.562939999999999705e-03 1.118392734378743203e+00
1.562500000000000000e-02 2.900349999999999890e-03 1.392329107594057369e+00
9.374999999999999653e-03 2.754749999999999820e-03 2.795282201881488238e-01
1.562500000000000000e-02 3.677249999999999963e-03 3.822091891720188706e+00
2.500000000000000139e-02 2.547220000000000213e-03 3.766485637035452250e+00
1.250000000000000069e-02 9.429410000000000569e-02 1.910701034464309389e+00
3.125000000000000173e-03 1.885039999999999979e-02 3.471774153157866749e+00
0.000000000000000000e+00 2.061059999999999975e-03 1.943769841442728463e+00
6.250000000000000347e-03 2.186689999999999814e-03 6.189315367164355264e-01
0.000000000000000000e+00 1.055039999999999928e-03 3.869479329708955806e+00
0.000000000000000000e+00 5.313919999999999972e-04 2.601179522010825362e+00
6.250000000000000347e-03 3.775999999999999843e-03 4.504865039404732485e+00
3.125000000000000000e-02 2.397820000000000160e-03 4.873473439049203826e+00
0.000000000000000000e+00 3.737850000000000135e-04 1.439063480974103193e+00
0.000000000000000000e+00 3.972480000000000021e-04 1.710766605587008993e+00
3.125000000000000000e-02 3.034199999999999918e-03 2.286969293821425442e+00
3.125000000000000173e-03 1.323650000000000000e-03 2.835481786748712540e+00
1.062499999999999972e-01 2.910480000000000012e-02 1.143047302130610898e+00
1.562500000000000000e-02 1.920639999999999934e-03 1.464734900511682758e+00
2.812500000000000069e-02 2.352509999999999931e-03 2.219349666339685445e+00
1.874999999999999931e-02 2.773760000000000114e-03 3.388123821781111822e+00
0.000000000000000000e+00 2.432580000000000159e-03 3.944313161993046712e+00
0.000000000000000000e+00 9.514880000000000082e-04 4.976554442505075393e+00
0.000000000000000000e+00 1.569269999999999997e-03 9.617560187907348013e-01
3.125000000000000173e-03 1.381250000000000099e-03 1.784094366178543112e+00
0.000000000000000000e+00 1.161149999999999899e-03 4.316428932040539124e-01
0.000000000000000000e+00 2.710460000000000039e-03 1.399756476261948102e+00
0.000000000000000000e+00 3.823359999999999931e-04 3.608989664531387920e+00
1.250000000000000069e-02 9.293289999999999884e-02 2.905782326459305231e+00
3.125000000000000173e-03 1.463939999999999946e-03 2.520925384412465498e+00
1.874999999999999931e-02 2.528830000000000140e-03 4.251084290085988648e+00
0.000000000000000000e+00 4.411160000000000233e-04 2.298349087682723280e+00
1.874999999999999931e-02 2.114340000000000108e-01 3.735462371983815366e+00
5.625000000000000139e-02 1.081280000000000019e-01 3.919275046761784509e+00
9.374999999999999653e-03 1.891969999999999980e-03 4.465930219342051366e-01
3.125000000000000173e-03 1.051860000000000017e-01 1.479469570991037708e+00
0.000000000000000000e+00 7.292940000000000143e-04 4.156811830311962552e+00
0.000000000000000000e+00 1.163779999999999893e-03 1.212076832240169821e+00
9.374999999999999653e-03 4.354880000000000209e-03 2.521157015098181020e+00
0.000000000000000000e+00 1.009260000000000105e-03 3.258813026164725235e-01
0.000000000000000000e+00 1.162239999999999931e-03 3.055257820834031079e+00
1.874999999999999931e-02 2.168189999999999961e-03 4.705011449493988529e+00
2.187499999999999861e-02 9.159920000000000562e-02 1.766798664431065147e+00
0.000000000000000000e+00 1.571200000000000027e-03 3.912064069986805670e+00
0.000000000000000000e+00 2.553279999999999786e-03 1.199935142580101921e+00
0.000000000000000000e+00 4.485099999999999677e-03 4.970682256233921237e+00
9.374999999999999653e-03 2.383680000000000000e-03 3.311894078011490716e+00
2.812500000000000069e-02 1.702020000000000052e-03 4.658142386925373302e+00
0.000000000000000000e+00 4.845930000000000138e-04 8.001609102633461257e-01
3.437500000000000278e-02 9.294879999999999809e-02 3.875391728426235360e+00
1.874999999999999931e-02 2.476739999999999844e-03 1.403327362919783994e+00
3.125000000000000173e-03 4.365950000000000386e-03 3.717653576029738893e+00
0.000000000000000000e+00 8.102510000000000268e-03 7.696715335121651069e-01
0.000000000000000000e+00 3.329470000000000172e-03 3.366818726281517460e-01
1.250000000000000069e-02 2.362879999999999928e-03 2.909908470348698817e+00
0.000000000000000000e+00 8.568379999999999573e-04 1.435737941208334867e+00
2.812500000000000069e-02 9.266340000000000687e-02 4.749547157591279323e+00
1.250000000000000069e-02 1.879999999999999944e-03 4.364335446046289313e+00
0.000000000000000000e+00 2.168699999999999968e-03 4.895763327247101060e+00
0.000000000000000000e+00 2.115890000000000167e-05 3.947428370073474024e+00
2.812500000000000069e-02 3.035899999999999797e-03 1.964838726137640990e-01
1.000000000000000056e-01 8.131460000000000077e-02 5.656455170022117729e-01
0.000000000000000000e+00 8.075070000000000164e-03 1.736347227604119858e+00
2.187499999999999861e-02 1.886400000000000099e-03 1.339737707436688297e+00
2.500000000000000139e-02 4.929659999999999771e-03 3.486083185928767758e-01
0.000000000000000000e+00 1.718400000000000081e-04 3.415978340638117228e+00
3.125000000000000173e-03 5.123070000000000401e-03 5.481469497672930569e-01
0.000000000000000000e+00 3.653700000000000177e-03 1.434910224156030756e+00
2.500000000000000139e-02 2.925950000000000079e-03 1.823419889804932525e+00
0.000000000000000000e+00 4.973440000000000413e-04 5.332487070480396163e-01
0.000000000000000000e+00 5.512959999999999475e-04 4.610467978502875042e+00
1.874999999999999931e-02 9.096220000000000694e-02 2.713237987523072103e+00
0.000000000000000000e+00 6.317210000000000186e-03 1.386362242347780160e+00
0.000000000000000000e+00 1.649789999999999937e-03 7.263639974704061419e-01
1.562500000000000000e-02 2.482750000000000148e-03 2.667349795419607261e+00
0.000000000000000000e+00 9.694080000000000535e-04 4.388217928626142239e+00
0.000000000000000000e+00 1.851839999999999996e-03 3.649516195952164477e+00
0.000000000000000000e+00 4.262390000000000232e-04 1.553077584339837447e+00
0.000000000000000000e+00 1.513059999999999926e-02 4.799781855737798253e+00
0.000000000000000000e+00 4.219420000000000202e-04 3.516755696472183779e+00
0.000000000000000000e+00 1.240379999999999911e-03 1.517421824009897335e+00
3.125000000000000173e-03 4.291330000000000318e-03 4.518633002981698787e+00
1.562500000000000000e-02 4.609410000000000417e-03 2.466094505638749101e+00
1.250000000000000069e-02 4.514940000000000273e-03 4.809584504934928617e+00
0.000000000000000000e+00 1.444289999999999984e-03 4.652958086837789331e+00
2.812500000000000069e-02 6.230050000000000171e-02 1.666872067156512927e+00
3.125000000000000173e-03 2.059849999999999876e-02 6.720380509894130494e-01
0.000000000000000000e+00 1.061759999999999917e-03 2.263253571842127165e+00
0.000000000000000000e+00 1.140860000000000051e-03 1.425076807384519917e+00
3.125000000000000173e-03 9.649430000000000507e-02 4.039533311173723718e+00
0.000000000000000000e+00 1.920320000000000100e-03 9.286814887997030254e-01
1.874999999999999931e-02 2.072319999999999891e-03 2.148833193229240379e+00
0.000000000000000000e+00 3.161999999999999880e-04 2.797509022357991260e+00
6.250000000000000347e-03 1.829949999999999893e-03 4.811511851809794571e+00
1.874999999999999931e-02 4.713880000000000153e-02 8.018432869649078087e-01
0.000000000000000000e+00 1.094209999999999974e-03 2.379815588889966360e+00
0.000000000000000000e+00 2.905730000000000032e-03 2.798658394962979301e+00
9.374999999999999653e-03 1.863360000000000103e-03 1.948699600927168429e+00
3.125000000000000173e-03 3.331259999999999950e-03 1.669555297015423712e-01
0.000000000000000000e+00 1.543359999999999914e-03 3.083355477300907310e+00
0.000000000000000000e+00 4.120959999999999793e-04 1.084454676052587496e-01
3.125000000000000173e-03 1.494399999999999895e-03 2.780023352280469595e-01
0.000000000000000000e+00 3.079040000000000119e-04 1.351959148938253641e+00
0.000000000000000000e+00 1.093650000000000047e-03 1.559016601322496420e+00
0.000000000000000000e+00 1.238909999999999968e-03 2.416746898237758234e+00
1.874999999999999931e-02 2.635259999999999946e-03 4.406700193563326096e+00
0.000000000000000000e+00 4.220289999999999805e-03 3.510866871650353271e+00
1.250000000000000069e-02 2.249620000000000092e-02 4.440354704098152361e+00
3.125000000000000173e-03 4.522370000000000383e-03 3.389304556823742320e+00
9.374999999999999653e-03 2.265919999999999827e-03 4.709362992401696424e+00
4.687500000000000000e-02 9.074440000000000284e-02 7.032310827812865428e-01
0.000000000000000000e+00 4.305350000000000106e-04 2.631203097322885043e+00
1.250000000000000069e-02 3.711680000000000187e-03 4.449369317318910610e+00
2.187499999999999861e-02 1.775869999999999923e-03 4.309494202103244298e+00
0.000000000000000000e+00 2.288260000000000009e-05 1.720683516044667627e+00
6.250000000000000347e-03 1.588100000000000058e-03 1.283002532869575996e+00
1.250000000000000069e-02 4.437439999999999961e-03 2.786265045516991279e+00
1.874999999999999931e-02 2.748930000000000123e-03 1.818288639003393214e+00
0.000000000000000000e+00 1.588479999999999970e-03 4.122577355866322790e+00
0.000000000000000000e+00 1.036419999999999919e-03 4.437561894433813769e+00
0.000000000000000000e+00 1.169500000000000053e-02 1.155420485559690125e+00
0.000000000000000000e+00 7.038360000000000016e-04 4.269121334215664199e-01
0.000000000000000000e+00 2.076160000000000126e-04 4.413588052506184356e-01
0.000000000000000000e+00 7.293580000000000462e-04 3.476545273741947994e+00
0.000000000000000000e+00 9.191680000000000466e-04 3.726876446241575991e+00
0.000000000000000000e+00 1.769790000000000035e-03 1.149271001070282683e+00
1.562500000000000000e-02 2.776450000000000185e-03 2.297564197392095942e+00
3.125000000000000173e-03 1.919720000000000107e-02 3.203329117109656288e+00
0.000000000000000000e+00 7.792469999999999475e-04 3.119964648723833278e+00
2.500000000000000139e-02 3.561790000000000008e-03 2.281520922935426299e+00
0.000000000000000000e+00 5.491839999999999786e-04 9.935085590439918235e-01
3.125000000000000173e-03 1.005530000000000035e-01 2.458139856031444914e+00
3.125000000000000173e-03 2.147070000000000055e-03 2.883706632896268829e+00
0.000000000000000000e+00 1.721659999999999857e-02 3.331255155693439107e+00
3.125000000000000173e-03 9.822659999999999725e-02 4.035515358891137438e+00
0.000000000000000000e+00 1.047479999999999939e-03 2.408908805047405899e+00
0.000000000000000000e+00 3.555739999999999942e-04 3.625526864472635502e+00
2.187499999999999861e-02 3.319420000000000009e-03 3.975156434268423133e-01
0.000000000000000000e+00 1.108800000000000063e-03 7.020385435481496517e-01
1.250000000000000069e-02 3.587009999999999851e-03 3.717867515535994816e+00
0.000000000000000000e+00 1.131459999999999931e-03 3.165666659037499997e+00
9.374999999999999653e-03 2.119300000000000177e-03 2.838756345926510605e+00
0.000000000000000000e+00 1.837429999999999966e-02 2.170111018396381208e+00
0.000000000000000000e+00 1.150020000000000079e-03 2.997420755193236364e+00
1.562500000000000000e-02 1.729089999999999967e-03 1.466859638863036608e+00
2.500000000000000139e-02 2.470529999999999862e-03 2.952019297654167929e+00
0.000000000000000000e+00 3.806460000000000008e-04 1.795605290412692900e+00
0.000000000000000000e+00 1.105599999999999986e-03 4.301334693759033101e+00
0.000000000000000000e+00 3.927420000000000043e-03 6.519018965249062658e-01
1.250000000000000069e-02 2.089859999999999808e-03 2.360884536914825027e+00
3.125000000000000173e-03 1.296609999999999950e-02 2.720240452224270689e-01
2.500000000000000139e-02 3.861949999999999845e-03 1.042890673734584883e+00
6.250000000000000347e-03 9.732430000000000248e-02 6.943185121857126108e-01
0.000000000000000000e+00 1.244349999999999970e-03 5.144292439015485385e-02
2.500000000000000139e-02 2.983679999999999839e-03 2.360031082429019822e+00
0.000000000000000000e+00 6.808100000000000263e-02 2.975329932186430160e+00
0.000000000000000000e+00 2.206349999999999975e-05 4.585386191138788092e+00
1.874999999999999931e-02 3.474819999999999992e-02 1.834741754877486919e+00
0.000000000000000000e+00 3.768959999999999910e-04 2.345155265100978825e-01
