4.374999999999999722e-02 7.818620000000000084e-03 4.633629544014265633e+00
0.000000000000000000e+00 2.334720000000000198e-03 3.981405138464952920e+00
2.187499999999999861e-02 1.686460000000000086e-03 2.932061977592446578e+00
1.874999999999999931e-02 2.011900000000000060e-03 4.656600312172670897e+00
3.125000000000000173e-03 4.644650000000000167e-02 2.200505903963186238e+00
0.000000000000000000e+00 9.842559999999999764e-04 2.351353156363606534e+00
2.500000000000000139e-02 3.271099999999999876e-03 4.274649399061410726e+00
9.374999999999999653e-03 9.991040000000000077e-04 4.422086976080568554e+00
0.000000000000000000e+00 5.425919999999999875e-03 4.801596310913217813e+00
2.500000000000000139e-02 1.258430000000000052e-03 3.460952679816554856e+00
9.374999999999999653e-03 9.788199999999999679e-02 4.779078899372548150e+00
0.000000000000000000e+00 4.601599999999999853e-04 2.872446327180680381e+00
6.250000000000000347e-03 1.579010000000000049e-03 1.952194210977753475e-01
1.562500000000000000e-02 8.679039999999999628e-04 3.724071125523928938e+00
6.250000000000000347e-03 5.435070000000000179e-03 3.822280014016083971e+00
3.125000000000000173e-03 4.330500000000000148e-03 4.523896509098066510e+00
0.000000000000000000e+00 1.628800000000000126e-04 8.899395570893903207e-01
2.500000000000000139e-02 3.418749999999999914e-03 4.856214899084698722e-01
3.125000000000000173e-03 1.433809999999999946e-02 2.892994436650770940e+00
0.000000000000000000e+00 4.874429999999999909e-03 4.304496156819940467e+00
0.000000000000000000e+00 5.684480000000000435e-04 2.394748175809155999e+00
2.500000000000000139e-02 2.538750000000000208e-03 6.917366463556190448e-01
0.000000000000000000e+00 0.000000000000000000e+00 2.013124999336796783e+00
0.000000000000000000e+00 1.138539999999999951e-03 2.418523734134016223e+00
0.000000000000000000e+00 1.174550000000000073e-02 4.824410434518612512e+00
6.250000000000000347e-03 9.632699999999999596e-02 8.264656247651569476e-01
0.000000000000000000e+00 1.399169999999999928e-03 3.796969567000744838e+00
3.125000000000000173e-03 4.087040000000000117e-03 4.253708101635202077e+00
1.250000000000000069e-02 2.098109999999999819e-03 1.518756355541129199e+00
4.687500000000000000e-02 6.524330000000000060e-03 4.374410144063558548e+00
0.000000000000000000e+00 1.086909999999999960e-03 1.298764522107957564e+00
0.000000000000000000e+00 6.208640000000000513e-04 4.627980141140627168e+00
0.000000000000000000e+00 4.816639999999999745e-04 2.326316189401580470e+00
0.000000000000000000e+00 3.112960000000000033e-02 4.076789329371700354e+00
3.125000000000000173e-03 2.481049999999999922e-02 4.784212505266044246e+00
1.562500000000000000e-02 1.977280000000000097e-03 3.649779714168382760e+00
0.000000000000000000e+00 3.758370000000000135e-04 1.744385077679885265e+00
1.562500000000000000e-02 2.024320000000000026e-03 1.192455404046102618e+00
2.500000000000000139e-02 9.499269999999999936e-02 1.833338783017263163e-01
0.000000000000000000e+00 7.373730000000000432e-04 2.666967263868690985e+00
3.125000000000000173e-03 7.809279999999999607e-04 1.957480203185050893e+00
4.687500000000000000e-02 2.665139999999999870e-02 4.237091749870644186e+00
9.374999999999999653e-03 2.687300000000000105e-03 2.557155442857812488e+00
3.125000000000000173e-03 3.887419999999999938e-03 1.366081781914990634e-01
0.000000000000000000e+00 4.255330000000000202e-04 4.564726744466955033e+00
2.187499999999999861e-02 5.170690000000000355e-03 4.694382070220054493e-01
0.000000000000000000e+00 5.609599999999999960e-04 3.139331516215412066e+00
3.125000000000000173e-03 3.450819999999999842e-03 4.998308931220601714e+00
0.000000000000000000e+00 3.695939999999999989e-03 4.073274085598376892e+00
0.000000000000000000e+00 2.003839999999999788e-03 2.897062760807699977e+00
6.250000000000000347e-03 2.069950000000000088e-03 2.840433198978762341e+00
0.000000000000000000e+00 3.082749999999999987e-03 3.300941290587895427e+00
3.125000000000000173e-03 4.084540000000000219e-03 3.545064648495770410e+00
1.874999999999999931e-02 2.968699999999999898e-03 4.081255036743099751e+00
0.000000000000000000e+00 6.243839999999999633e-04 1.118835833625760889e+00
0.000000000000000000e+00 9.811839999999999624e-04 8.380494108867514447e-01
6.250000000000000347e-03 1.025930000000000071e-02 1.840178549761150695e+00
0.000000000000000000e+00 3.879679999999999826e-04 2.491666903627125507e+00
0.000000000000000000e+00 7.358339999999999890e-04 8.853049937442958317e-01
0.000000000000000000e+00 4.450920000000000137e-04 3.388522275611578483e+00
1.874999999999999931e-02 5.659140000000000004e-03 1.837352046763784941e-01
3.125000000000000173e-03 1.558350000000000013e-01 6.091139237833859132e-01
0.000000000000000000e+00 8.626089999999999669e-04 6.683353312802881030e-01
6.250000000000000347e-03 1.140470000000000025e-02 1.878522822958872407e-01
0.000000000000000000e+00 6.886379999999999888e-04 3.459982575663085314e+00
0.000000000000000000e+00 0.000000000000000000e+00 7.096370306284482954e-01
9.374999999999999653e-03 9.417459999999999720e-02 2.839255019513091227e+00
0.000000000000000000e+00 4.794840000000000213e-02 1.989852399525140481e+00
0.000000000000000000e+00 9.932800000000000309e-04 4.723515049171283842e+00
3.125000000000000173e-03 2.973280000000000020e-03 2.767960583928700480e+00
2.500000000000000139e-02 2.350459999999999963e-03 2.072971847595530548e+00
0.000000000000000000e+00 9.464220000000000401e-04 3.424728644590611992e+00
0.000000000000000000e+00 3.273249999999999771e-02 1.374148714690408113e+00
0.000000000000000000e+00 8.547840000000000342e-04 3.231076229196939487e+00
0.000000000000000000e+00 3.347970000000000026e-03 4.976802102053955679e+00
4.062500000000000139e-02 9.119839999999999891e-02 1.994852585036914316e+00
3.125000000000000173e-03 4.775299999999999684e-03 3.437917662812398412e+00
9.374999999999999653e-03 1.547259999999999955e-03 2.261249143631314684e+00
0.000000000000000000e+00 7.705120000000000025e-02 2.334289357584817814e-01
1.562500000000000000e-02 3.009539999999999785e-03 1.131159327632708766e+00
0.000000000000000000e+00 6.412800000000000401e-04 4.418475555310045877e+00
0.000000000000000000e+00 2.674939999999999783e-03 3.275800934451959634e+00
3.125000000000000173e-03 4.243580000000000269e-03 4.715209635898290230e+00
1.562500000000000000e-02 9.412260000000000071e-02 5.555936187127258341e-01
0.000000000000000000e+00 9.853439999999999768e-04 4.199875158922180773e+00
0.000000000000000000e+00 1.589700000000000097e-03 3.954874341613144217e+00
2.187499999999999861e-02 2.061309999999999792e-03 3.058324851882714412e+00
0.000000000000000000e+00 9.651199999999999753e-04 4.606462303068762587e+00
0.000000000000000000e+00 8.620960000000000211e-04 2.957100525004111802e+00
0.000000000000000000e+00 4.248469999999999851e-03 2.295797307413036670e+00
1.250000000000000069e-02 1.290670000000000012e-02 3.397548722899799589e+00
0.000000000000000000e+00 1.272829999999999968e-03 8.015726040668341712e-01
0.000000000000000000e+00 1.001539999999999982e-03 9.504077199703631074e-01
0.000000000000000000e+00 6.024319999999999675e-04 2.104487922542752631e-02
6.250000000000000347e-03 3.639990000000000066e-03 2.360419264105445558e-01
1.562500000000000000e-02 2.731009999999999861e-03 1.118835073576585515e+00
6.250000000000000347e-03 4.440129999999999598e-03 3.488622240042714040e+00
3.125000000000000173e-03 4.142719999999999909e-03 2.198458683069696384e+00
1.562500000000000000e-02 8.324099999999999208e-03 2.236351904382699374e+00
0.000000000000000000e+00 4.337920000000000101e-04 6.402340459816358020e-01
1.874999999999999931e-02 5.097540000000000231e-03 3.198903383020650804e+00
9.374999999999999653e-03 1.465340000000000089e-03 1.641695844591697373e+00
0.000000000000000000e+00 9.462399999999999934e-04 2.208977161035762915e+00
6.250000000000000347e-03 1.182000000000000065e-02 4.498059349550233676e+00
1.250000000000000069e-02 1.384830000000000089e-03 7.902327749400395174e-01
3.125000000000000173e-03 2.625390000000000015e-02 2.819780554915853887e+00
3.125000000000000173e-03 2.559490000000000202e-03 3.121170471557869419e+00
0.000000000000000000e+00 2.171900000000000046e-03 1.585105358304880196e+00
1.562500000000000000e-02 2.692350000000000038e-03 1.985498795848050335e+00
0.000000000000000000e+00 9.438720000000000053e-04 2.219028496490262459e+00
6.250000000000000347e-03 8.388609999999999470e-03 4.606501540569626130e+00
0.000000000000000000e+00 1.280380000000000016e-03 2.928336016554209831e+00
1.250000000000000069e-02 2.809659999999999849e-03 6.647597635403595939e-01
3.125000000000000173e-03 1.787329999999999952e-03 2.628578406281500079e+00
3.125000000000000173e-03 1.060510000000000064e-01 3.435813532272502080e+00
2.500000000000000139e-02 3.233859999999999860e-03 1.655496289500139051e+00
0.000000000000000000e+00 6.154720000000000460e-04 1.469322970140506390e+00
0.000000000000000000e+00 1.077679999999999914e-03 1.996641556744627177e+00
0.000000000000000000e+00 7.332690000000000432e-04 3.049219823292458109e+00
0.000000000000000000e+00 1.172400000000000005e-02 1.252467215216784169e+00
0.000000000000000000e+00 2.177539999999999944e-03 1.129215341355940261e+00
0.000000000000000000e+00 9.280640000000000374e-04 2.007136538056502495e+00
9.374999999999999653e-03 1.630270000000000070e-03 3.623512166042135441e+00
0.000000000000000000e+00 5.731840000000000199e-04 2.981093098487158422e+00
0.000000000000000000e+00 7.258310000000000239e-04 1.711074339148484391e+00
3.125000000000000173e-03 4.308669999999999688e-03 3.415522804672512347e+00
2.812500000000000069e-02 3.100990000000000083e-03 3.441911728094675826e+00
0.000000000000000000e+00 2.124159999999999937e-04 2.959996082486171964e+00
1.562500000000000000e-02 1.510080000000000016e-03 4.566237056321301502e+00
0.000000000000000000e+00 3.838079999999999790e-03 2.713294179443978216e+00
0.000000000000000000e+00 4.631680000000000215e-04 2.223140737420331803e+00
0.000000000000000000e+00 2.225219999999999976e-03 1.088677662332898644e-01
0.000000000000000000e+00 8.147729999999999730e-04 4.864374541786222750e+00
0.000000000000000000e+00 4.314330000000000010e-04 1.298787219952983740e+00
3.125000000000000173e-03 4.035259999999999715e-03 4.182891380030806516e-01
2.500000000000000139e-02 2.974019999999999962e-03 3.356310635335263193e+00
0.000000000000000000e+00 1.554370000000000014e-03 2.793735351812935086e+00
3.125000000000000173e-03 2.352809999999999884e-03 8.097767249677256807e-01
1.874999999999999931e-02 2.126810000000000089e-01 2.781243333553082842e+00
2.187499999999999861e-02 6.214870000000000116e-02 3.430581897791446622e+00
2.187499999999999861e-02 1.850180000000000097e-03 2.227714263142157147e+00
0.000000000000000000e+00 2.975300000000000167e-03 1.632961663581012246e+00
1.562500000000000000e-02 2.516579999999999859e-02 2.248092391789247912e+00
1.000000000000000056e-01 2.230789999999999856e-02 3.606492065282672854e+00
0.000000000000000000e+00 5.922559999999999891e-04 2.173939193607110631e-01
2.500000000000000139e-02 2.049150000000000017e-03 2.460811995396128271e+00
0.000000000000000000e+00 3.455870000000000209e-03 1.646301981326388386e+00
1.874999999999999931e-02 2.126679999999999959e-01 2.038594203963441487e+00
0.000000000000000000e+00 1.834939999999999965e-03 3.944969295040086976e+00
0.000000000000000000e+00 4.085119999999999810e-04 2.086605576794156924e+00
3.125000000000000173e-03 3.989249999999999741e-03 4.715611335281557182e+00
0.000000000000000000e+00 9.336319999999999949e-04 3.716033002704517418e+00
6.250000000000000347e-03 2.053060000000000215e-03 1.367536880472034477e+00
3.125000000000000000e-02 9.340850000000000541e-02 3.524843911104598160e+00
1.562500000000000000e-02 2.586689999999999996e-03 1.517152803284805174e+00
2.500000000000000139e-02 2.266939999999999841e-03 3.571586241378482462e+00
0.000000000000000000e+00 7.333119999999999613e-04 1.239523169096503175e+00
0.000000000000000000e+00 4.449250000000000080e-03 1.226637839544214570e+00
0.000000000000000000e+00 1.136639999999999959e-03 2.678477701004538858e+00
1.874999999999999931e-02 2.736699999999999897e-03 4.932631288098116684e+00
0.000000000000000000e+00 1.135909999999999958e-03 4.194558301227166552e+00
3.125000000000000173e-03 1.008709999999999989e-02 3.401458198982798997e+00
0.000000000000000000e+00 3.768189999999999821e-03 1.010409171755533020e+00
0.000000000000000000e+00 5.623040000000000156e-04 6.287602388324620151e-01
0.000000000000000000e+00 6.836159999999999980e-03 2.966171305365485011e+00
2.500000000000000139e-02 5.271490000000000203e-03 2.511889955907709027e+00
0.000000000000000000e+00 4.690739999999999884e-04 8.465603763133178195e-01
1.250000000000000069e-02 3.677699999999999893e-03 3.337714940152561205e+00
3.125000000000000173e-03 2.104379999999999879e-03 2.369008889342016033e+00
0.000000000000000000e+00 1.658240000000000061e-03 4.267255750291786498e+00
2.500000000000000139e-02 2.464959999999999981e-03 4.782016647964909772e+00
0.000000000000000000e+00 4.286760000000000136e-04 2.941169480310048101e+00
0.000000000000000000e+00 5.712640000000000383e-04 1.545276243901270607e+00
2.187499999999999861e-02 1.386499999999999929e-03 3.551153722214498210e+00
6.250000000000000347e-03 1.822140000000000088e-03 3.729951028125884083e+00
0.000000000000000000e+00 1.148420000000000040e-03 3.516978093289726548e+00
1.562500000000000000e-02 1.752379999999999997e-03 7.861347730319034888e-01
0.000000000000000000e+00 4.072319999999999933e-04 4.043324656543464179e+00
1.250000000000000069e-02 1.670269999999999958e-03 1.971330033606681464e+00
2.187499999999999861e-02 3.303099999999999786e-03 4.208373137192447544e+00
0.000000000000000000e+00 3.247419999999999994e-03 4.987164947333548426e+00
3.125000000000000173e-03 3.985790000000000340e-03 3.339474934047235166e+00
0.000000000000000000e+00 3.008640000000000251e-04 4.733350655480938585e+00
0.000000000000000000e+00 6.038400000000000191e-04 4.619281458156273779e+00
4.374999999999999722e-02 9.227779999999999316e-02 1.417469049562311012e+00
0.000000000000000000e+00 7.214059999999999570e-04 3.583865967811078690e+00
2.187499999999999861e-02 2.324609999999999958e-03 2.073142804770069514e+00
2.812500000000000069e-02 3.191100000000000100e-03 4.274097683874179765e+00
6.250000000000000347e-03 5.733819999999999716e-03 3.341460040868309278e+00
0.000000000000000000e+00 3.640000000000000006e-03 3.323989096231009022e+00
0.000000000000000000e+00 8.863360000000000466e-04 4.811390052849244370e+00
0.000000000000000000e+00 1.789439999999999998e-04 1.185188692042657532e+00
2.812500000000000069e-02 2.065860000000000092e-03 4.359966527292821858e+00
0.000000000000000000e+00 2.967490000000000145e-03 1.882259199429497265e+00
0.000000000000000000e+00 4.230330000000000136e-04 2.755710218079361784e+00
3.125000000000000173e-03 9.794869999999999965e-02 2.830467936907916648e+00
0.000000000000000000e+00 2.142719999999999868e-03 1.545405989657264278e+00
0.000000000000000000e+00 1.770729999999999874e-02 2.703692144764596961e+00
0.000000000000000000e+00 4.794840000000000213e-02 2.138299315865198835e+00
3.437500000000000278e-02 1.987780000000000102e-02 2.626956433569727078e-01
3.125000000000000173e-03 8.877720000000000403e-03 5.151604711942714410e-01
0.000000000000000000e+00 3.995259999999999610e-03 8.185477670470603373e-01
1.250000000000000069e-02 1.066209999999999944e-03 1.373733967644394927e+00
0.000000000000000000e+00 3.616660000000000165e-04 2.248533489381819184e+00
0.000000000000000000e+00 7.282039999999999824e-04 4.090268807052622080e+00
0.000000000000000000e+00 1.685700000000000046e-03 3.367319762853894005e+00
2.187499999999999861e-02 9.273539999999999561e-02 3.039465150337497867e+00
2.187499999999999861e-02 9.333529999999999605e-02 2.799479066607142297e+00
0.000000000000000000e+00 1.151239999999999989e-03 9.575654954982282252e-01
3.125000000000000173e-03 4.425980000000000365e-03 3.786060407943880435e+00
0.000000000000000000e+00 2.294810000000000141e-05 2.223536896568139909e+00
0.000000000000000000e+00 7.041569999999999600e-04 1.092124600157359904e+00
3.125000000000000173e-03 4.303130000000000149e-02 3.274453036265806416e-01
0.000000000000000000e+00 9.169889999999999985e-04 1.839829373751193931e+00
0.000000000000000000e+00 3.782910000000000005e-03 1.420382596057522262e+00
3.125000000000000173e-03 1.270850000000000018e-03 2.151707603994291063e+00
0.000000000000000000e+00 6.061089999999999664e-04 1.217711639201424223e-01
0.000000000000000000e+00 6.260479999999999691e-03 3.462265674812475158e+00
1.562500000000000000e-02 2.784899999999999876e-03 1.393555735639730564e+00
1.874999999999999931e-02 4.075259999999999820e-03 4.051440088170305209e+00
0.000000000000000000e+00 4.195059999999999913e-04 3.712494926131795214e+00
0.000000000000000000e+00 4.504199999999999871e-03 7.654777057908013216e-01
0.000000000000000000e+00 1.120129999999999997e-03 1.220905554880165500e+00
0.000000000000000000e+00 3.685760000000000165e-04 4.380235218529861640e+00
0.000000000000000000e+00 1.068989999999999914e-03 2.590151518564015376e+00
0.000000000000000000e+00 4.089890000000000105e-04 1.202462870762122105e-01
0.000000000000000000e+00 4.349920000000000175e-03 3.671850244819106379e+00
0.000000000000000000e+00 5.318400000000000037e-04 4.939416270302551482e+00
0.000000000000000000e+00 1.118209999999999907e-03 4.189453620407051382e+00
0.000000000000000000e+00 9.186560000000000082e-04 4.078477687178817312e+00
0.000000000000000000e+00 4.037760000000000047e-04 4.440861220917086349e+00
2.187499999999999861e-02 4.745920000000000000e-02 1.134615897877013335e+00
0.000000000000000000e+00 2.700740000000000085e-03 3.957229776593758075e+00
6.250000000000000347e-03 1.459840000000000009e-03 4.281787605966298926e+00
0.000000000000000000e+00 1.502459999999999950e-03 1.694858483783456382e+00
0.000000000000000000e+00 3.563519999999999925e-04 4.238671629692621678e+00
2.500000000000000139e-02 3.418500000000000098e-03 3.582774111010650353e-01
0.000000000000000000e+00 1.863040000000000106e-04 4.574831167828367740e+00
0.000000000000000000e+00 6.042499999999999694e-04 1.297618013064650855e+00
0.000000000000000000e+00 6.294180000000000608e-02 1.637273598595376800e+00
9.374999999999999653e-03 2.402689999999999861e-03 2.860246758352400054e+00
3.125000000000000173e-03 9.842249999999999610e-02 5.335545182415574184e-01
0.000000000000000000e+00 3.889920000000000053e-04 2.992506810662623806e+00
0.000000000000000000e+00 6.630910000000000276e-03 6.332837400138346950e-02
6.875000000000000555e-02 9.176719999999999322e-02 6.262058363717337706e-01
2.812500000000000069e-02 2.409660000000000100e-03 4.134139936936374937e+00
0.000000000000000000e+00 3.196159999999999973e-03 4.838981286680580141e+00
0.000000000000000000e+00 2.293840000000000047e-05 2.268433088752221938e+00
1.874999999999999931e-02 9.119349999999999679e-02 3.188427514789495820e+00
0.000000000000000000e+00 3.511680000000000097e-04 3.710428641350643097e+00
3.125000000000000173e-03 9.509090000000000598e-02 2.487617404874945315e+00
0.000000000000000000e+00 9.256439999999999894e-04 2.968604553466535734e+00
0.000000000000000000e+00 9.507199999999999505e-04 2.723263977646692258e+00
3.125000000000000173e-03 9.610870000000000524e-02 9.327415748749728897e-01
2.500000000000000139e-02 2.663360000000000033e-03 9.881118248922227121e-01
6.250000000000000347e-03 9.212629999999999431e-02 3.515927671253730402e+00
3.749999999999999861e-02 4.164790000000000159e-02 3.905802556646165158e-01
0.000000000000000000e+00 1.086460000000000030e-03 1.046006767100438495e+00
0.000000000000000000e+00 1.054269999999999947e-03 3.577253117617449796e+00
0.000000000000000000e+00 4.420389999999999736e-03 4.717903519888216657e+00
0.000000000000000000e+00 8.429239999999999953e-04 4.982575367492963814e+00
1.562500000000000000e-02 1.402370000000000005e-03 2.210871610499614004e+00
0.000000000000000000e+00 3.920640000000000193e-04 4.296519114445607190e-01
1.250000000000000069e-02 7.911679999999999711e-04 4.048542856379500954e+00
1.250000000000000069e-02 1.933819999999999940e-03 1.503826398902868844e+00
0.000000000000000000e+00 2.287020000000000001e-05 1.660305483692916528e+00
0.000000000000000000e+00 9.388800000000000097e-04 9.389904808397281366e-01
1.250000000000000069e-02 9.600989999999999525e-02 3.182098457467872787e+00
3.125000000000000173e-03 2.365700000000000094e-03 4.011905480398879398e+00
0.000000000000000000e+00 8.689149999999999652e-03 3.962826099638748545e+00
0.000000000000000000e+00 1.018180000000000040e-03 1.672725419943327241e-01
0.000000000000000000e+00 3.979519999999999737e-04 1.043273254031235053e-01
0.000000000000000000e+00 0.000000000000000000e+00 4.937463450027250289e+00
1.562500000000000000e-02 1.875839999999999929e-03 2.502532380731126604e+00
1.250000000000000069e-02 2.370300000000000098e-03 8.318771040305811271e-01
3.437500000000000278e-02 9.276170000000000249e-02 9.948682635440675437e-01
0.000000000000000000e+00 4.177100000000000105e-04 2.347598918514994359e+00
6.250000000000000347e-03 1.577419999999999864e-02 2.704380608867840596e+00
3.125000000000000173e-03 5.140610000000000318e-03 3.524016718175726481e-01
0.000000000000000000e+00 6.530110000000000428e-03 1.733461441766227518e+00
1.562500000000000000e-02 2.089919999999999885e-03 3.949420219792947773e+00
0.000000000000000000e+00 4.111049999999999882e-04 4.417548899763565906e+00
9.374999999999999653e-03 1.318780000000000082e-03 4.332182287352171812e+00
0.000000000000000000e+00 4.122239999999999889e-04 4.838372523141140746e+00
0.000000000000000000e+00 1.179389999999999996e-03 9.110873923821954934e-01
3.125000000000000173e-03 1.764610000000000137e-02 1.697441835076515249e+00
0.000000000000000000e+00 1.989120000000000092e-04 2.030042700147499879e+00
0.000000000000000000e+00 7.029379999999999570e-04 4.075263781452443723e+00
0.000000000000000000e+00 6.920369999999999473e-04 2.725124438919481307e+00
2.187499999999999861e-02 1.837569999999999959e-03 2.190620111172031592e+00
0.000000000000000000e+00 1.866880000000000015e-03 2.517911349715851177e-02
0.000000000000000000e+00 8.753279999999999785e-04 3.207766018891328841e+00
2.187499999999999861e-02 2.665149999999999811e-03 1.376996769003653753e+00
1.250000000000000069e-02 1.379840000000000016e-03 4.633855284975337163e+00
3.125000000000000000e-02 2.579070000000000147e-03 1.857450033095897624e-03
0.000000000000000000e+00 2.285860000000000168e-05 2.594859943422789250e+00
0.000000000000000000e+00 1.447740000000000095e-03 3.105280645086248903e+00
3.125000000000000173e-03 9.305660000000000320e-03 3.722328454229067329e+00
0.000000000000000000e+00 1.767039999999999941e-04 4.952579532289719921e+00
6.250000000000000347e-03 9.708029999999999438e-02 1.426666398460751939e-01
4.374999999999999722e-02 2.847380000000000050e-02 2.130738084506689223e+00
9.374999999999999653e-03 1.700029999999999944e-03 7.671471490321823961e-02
0.000000000000000000e+00 2.803009999999999877e-03 2.857470694068726225e+00
1.562500000000000000e-02 2.286139999999999874e-03 2.587742619346184547e+00
0.000000000000000000e+00 1.739709999999999998e-03 4.556060042403792920e+00
3.125000000000000173e-03 3.839809999999999925e-03 5.484943869127451022e-01
0.000000000000000000e+00 1.250180000000000041e-03 4.442232344542888178e+00
0.000000000000000000e+00 1.200380000000000023e-03 4.197401136223039231e+00
3.749999999999999861e-02 9.369450000000000001e-02 4.831092043946016545e+00
0.000000000000000000e+00 1.969339999999999979e-03 3.436424111400051107e+00
1.250000000000000069e-02 9.819710000000000591e-03 8.353169286854861264e-01
2.812500000000000069e-02 1.237100000000000005e-02 9.094041751437037524e-01
0.000000000000000000e+00 1.079620000000000102e-03 3.337225459552710660e+00
0.000000000000000000e+00 4.047570000000000009e-04 3.360500802055402136e+00
6.250000000000000347e-03 1.700799999999999925e-03 1.356933617345481569e+00
3.125000000000000173e-03 4.010370000000000081e-03 2.232328002787196120e+00
0.000000000000000000e+00 7.157629999999999895e-03 3.079643153453999638e+00
0.000000000000000000e+00 6.677980000000000461e-04 3.425920369852527791e+00
0.000000000000000000e+00 4.966480000000000330e-04 3.789523535639413687e+00
3.437500000000000278e-02 9.237220000000000153e-02 2.744975164838834303e+00
2.500000000000000139e-02 2.140539999999999804e-03 4.811402585113010666e+00
3.125000000000000173e-03 4.673219999999999631e-03 2.087654618617257318e-01
0.000000000000000000e+00 1.068720000000000087e-02 3.216624023135666866e-01
0.000000000000000000e+00 6.496000000000000038e-03 7.905815926466441823e-02
0.000000000000000000e+00 6.013439999999999671e-04 3.665045146815541166e+00
0.000000000000000000e+00 9.040639999999999961e-04 1.222211547486098393e+00
0.000000000000000000e+00 9.644799999999999814e-04 7.952152279478319485e-02
0.000000000000000000e+00 4.926719999999999884e-04 1.619879891656903492e+00
2.187499999999999861e-02 2.679550000000000161e-03 2.444374222665652407e+00
0.000000000000000000e+00 8.982079999999999925e-03 3.959708634976100594e+00
2.187499999999999861e-02 2.225019999999999862e-03 1.367796983952307421e+00
2.812500000000000069e-02 9.347110000000000141e-02 3.785086465940820766e+00
7.812500000000000000e-02 9.237109999999999765e-02 2.341550954282517472e-01
2.812500000000000069e-02 2.109340000000000104e-01 4.204590600203897743e+00
6.562500000000000278e-02 2.614179999999999976e-02 4.413273895072435948e+00
5.937499999999999722e-02 9.410250000000000559e-02 8.942609026921966020e-01
2.187499999999999861e-02 1.678119999999999959e-02 1.441487947765801581e+00
2.500000000000000139e-02 3.564739999999999836e-03 7.792927481306161086e-01
0.000000000000000000e+00 2.003519999999999954e-03 9.982187102625716957e-01
0.000000000000000000e+00 9.349119999999999826e-04 2.898044298388690709e+00
0.000000000000000000e+00 3.879560000000000105e-04 4.840055406359314638e+00
3.125000000000000173e-03 9.545750000000000068e-02 1.435534317889497480e+00
0.000000000000000000e+00 1.206019999999999922e-03 1.726896278604424406e+00
0.000000000000000000e+00 3.824000000000000250e-04 4.721715852071778352e-01
0.000000000000000000e+00 1.822610000000000063e-01 2.568747687256128565e+00
2.187499999999999861e-02 1.412800000000000080e-03 1.414677411017364772e+00
0.000000000000000000e+00 2.363300000000000123e-02 5.975282853700519814e-01
1.250000000000000069e-02 1.950530000000000016e-03 1.054034409417242024e+00
0.000000000000000000e+00 7.265999999999999889e-04 3.043818807914586699e+00
0.000000000000000000e+00 2.097789999999999985e-03 4.113132400499087460e+00
9.374999999999999653e-03 4.929089999999999687e-03 2.009213958749461737e-01
0.000000000000000000e+00 1.922499999999999947e-03 3.868928910571125090e+00
0.000000000000000000e+00 3.734000000000000231e-04 6.934047441697677172e-02
0.000000000000000000e+00 5.720960000000000194e-04 2.957563719400807534e-01
3.125000000000000173e-03 3.924099999999999810e-03 2.544070497061408531e+00
0.000000000000000000e+00 7.285240000000000335e-04 2.645272171654405868e-01
0.000000000000000000e+00 1.098819999999999918e-03 1.685100098509423994e+00
3.125000000000000173e-03 4.140989999999999775e-03 1.823525456644630616e+00
0.000000000000000000e+00 1.162880000000000033e-03 2.515137332291613959e+00
2.500000000000000139e-02 3.161020000000000062e-03 1.123131202427724684e+00
0.000000000000000000e+00 3.654460000000000000e-03 6.594031734887151330e-02
0.000000000000000000e+00 4.003860000000000058e-02 2.347534765116575883e+00
0.000000000000000000e+00 4.121309999999999882e-04 1.790334226279158836e+00
0.000000000000000000e+00 4.257919999999999782e-04 4.696803882346358705e+00
0.000000000000000000e+00 5.556290000000000187e-03 1.261375596641663321e+00
1.250000000000000069e-02 1.827840000000000064e-03 3.003976117093374754e+00
2.812500000000000069e-02 1.885439999999999946e-03 2.250890982701981180e+00
2.500000000000000139e-02 9.499269999999999936e-02 3.530276053555149840e+00
1.250000000000000069e-02 9.542309999999999681e-02 3.674600394867439501e+00
3.125000000000000173e-03 4.462589999999999786e-03 4.928764152811893062e-01
6.250000000000000347e-03 5.454589999999999612e-03 3.940451859440761595e+00
0.000000000000000000e+00 5.949440000000000284e-04 3.723594802446225316e+00
0.000000000000000000e+00 0.000000000000000000e+00 4.642142978228439354e+00
9.374999999999999653e-03 2.843710000000000161e-03 4.522894030050801817e+00
2.500000000000000139e-02 2.117769999999999930e-01 7.274462754623239880e-01
1.874999999999999931e-02 2.456260000000000041e-03 3.089174697674001102e+00
3.125000000000000173e-03 4.232379999999999996e-03 2.987969347017773281e+00
0.000000000000000000e+00 5.508979999999999693e-04 1.926988010363607229e+00
2.500000000000000139e-02 2.557890000000000164e-03 6.029568459502926414e-01
0.000000000000000000e+00 1.727620000000000024e-03 4.029441218253694501e+00
3.125000000000000173e-03 4.523010000000000051e-03 3.169682524439246141e+00
2.500000000000000139e-02 3.276349999999999922e-03 1.758754749887880386e+00
0.000000000000000000e+00 9.123840000000000248e-04 6.791570022123311068e-01
0.000000000000000000e+00 3.595070000000000123e-03 1.644019034891863740e-01
0.000000000000000000e+00 3.108329999999999860e-03 3.900786985404234297e+00
3.437500000000000278e-02 9.402570000000000372e-02 3.506550195251710633e+00
0.000000000000000000e+00 9.320699999999999472e-03 1.898468768492819203e+00
0.000000000000000000e+00 3.992959999999999934e-04 3.097520788986289908e+00
0.000000000000000000e+00 2.310570000000000139e-05 1.746494722124664056e-01
2.187499999999999861e-02 2.183360000000000075e-03 2.242602258944530025e+00
2.187499999999999861e-02 3.189889999999999913e-03 1.561838277335633185e+00
5.312499999999999861e-02 9.248520000000000352e-02 7.160620144261575781e-01
2.187499999999999861e-02 7.934139999999999249e-03 1.028956480762061032e-01
6.250000000000000347e-03 5.007359999999999763e-03 6.801506101364213075e-01
0.000000000000000000e+00 6.857979999999999632e-03 1.617596404349749939e+00
0.000000000000000000e+00 9.583359999999999535e-04 4.809264537867711020e+00
0.000000000000000000e+00 0.000000000000000000e+00 1.778179013364905581e-01
6.250000000000000347e-03 1.760510000000000070e-03 1.584685505066016908e+00
2.187499999999999861e-02 2.858650000000000080e-02 3.783381409005906360e+00
3.437500000000000278e-02 9.218439999999999968e-02 1.389370503763518894e+00
2.187499999999999861e-02 2.052290000000000017e-03 6.010162475611313670e-01
0.000000000000000000e+00 5.761279999999999700e-04 4.865289645012926822e-02
0.000000000000000000e+00 1.559040000000000035e-04 2.955959538338836623e+00
1.874999999999999931e-02 9.495800000000000074e-02 4.430199640025975327e+00
0.000000000000000000e+00 1.713279999999999968e-03 2.075465567277082535e+00
1.156250000000000056e-01 9.231970000000000454e-02 3.199138254628353106e-01
3.125000000000000173e-03 9.361369999999999414e-02 2.930707380750187774e+00
3.125000000000000173e-03 4.055229999999999946e-03 4.384929240369951131e+00
2.812500000000000069e-02 2.877629999999999945e-03 9.025694272934775553e-01
0.000000000000000000e+00 3.930430000000000382e-03 5.756462783971572073e-01
0.000000000000000000e+00 3.753219999999999820e-03 2.102291102297296987e+00
0.000000000000000000e+00 9.346400000000000541e-02 3.696857101935064893e+00
3.125000000000000173e-03 4.136579999999999945e-03 2.654208649995509539e+00
6.250000000000000347e-03 1.711239999999999940e-03 1.440421660161267381e-01
3.125000000000000173e-03 3.741700000000000147e-03 4.167620980695466493e+00
0.000000000000000000e+00 3.495620000000000064e-03 3.236643644891620042e+00
9.374999999999999653e-03 5.637569999999999734e-03 1.059973291964863007e+00
1.562500000000000000e-02 1.853250000000000080e-03 3.797839855247805652e+00
1.874999999999999931e-02 2.232019999999999837e-02 1.064243063582461790e+00
2.500000000000000139e-02 1.850560000000000009e-03 2.570299679454379316e+00
0.000000000000000000e+00 3.912340000000000262e-02 2.430223748345528012e-01
0.000000000000000000e+00 1.006460000000000037e-03 1.529894905035454222e+00
0.000000000000000000e+00 7.590399999999999968e-04 1.144571263374029035e+00
3.125000000000000173e-03 1.939180000000000070e-02 5.670690324505561764e-01
0.000000000000000000e+00 7.331409999999999793e-04 1.533051414303934656e+00
0.000000000000000000e+00 7.350650000000000239e-04 4.501079679643779308e+00
0.000000000000000000e+00 4.826240000000000196e-04 4.916713398845669047e+00
4.062500000000000139e-02 9.270359999999999712e-02 1.328858954879217347e+00
0.000000000000000000e+00 1.234690000000000093e-03 2.122433223082968556e+00
0.000000000000000000e+00 5.592960000000000336e-04 4.366837356168935536e+00
0.000000000000000000e+00 3.609789999999999874e-03 1.104980159586914645e+00
2.187499999999999861e-02 2.420670000000000200e-03 1.578542630796136326e+00
3.125000000000000173e-03 1.054530000000000051e-01 2.645729917401089981e+00
0.000000000000000000e+00 2.174210000000000205e-03 2.045558560982549956e+00
9.374999999999999653e-03 7.709889999999999625e-03 3.219094311846365741e+00
6.250000000000000347e-03 9.888879999999999892e-02 1.431890595761593055e+00
0.000000000000000000e+00 1.253180000000000006e-03 3.512176302838628139e+00
0.000000000000000000e+00 6.052029999999999910e-03 4.851734743218637291e+00
2.500000000000000139e-02 1.791870000000000095e-03 3.665404962050513582e+00
1.250000000000000069e-02 1.620799999999999932e-03 4.176858908711783558e-01
0.000000000000000000e+00 6.120319999999999840e-04 1.881785671284350148e+00
0.000000000000000000e+00 6.704119999999999524e-02 1.601460562492169615e+00
1.874999999999999931e-02 2.505090000000000181e-03 2.665907593751566829e+00
3.125000000000000173e-03 4.020860000000000233e-03 2.804566664462975201e+00
3.125000000000000173e-03 1.697659999999999924e-03 1.139060060448507938e+00
0.000000000000000000e+00 1.202939999999999999e-03 3.525795746853408907e+00
0.000000000000000000e+00 1.681020000000000084e-03 1.676347353979323440e+00
0.000000000000000000e+00 1.084420000000000002e-03 2.231235097971691506e+00
0.000000000000000000e+00 1.405879999999999977e-03 4.435349227557030538e+00
3.125000000000000173e-03 4.833979999999999874e-03 2.113338195387433949e+00
0.000000000000000000e+00 2.332869999999999909e-04 1.283676577729841561e+00
3.125000000000000173e-03 1.593470000000000043e-03 1.388827783866057430e+00
2.187499999999999861e-02 1.815549999999999976e-03 2.571097393188843672e+00
0.000000000000000000e+00 1.672380000000000004e-03 2.029431487785177790e+00
3.125000000000000173e-03 2.477570000000000119e-03 1.322799467345309177e-01
0.000000000000000000e+00 2.310659999999999971e-03 1.682995110056424881e+00
3.125000000000000173e-03 3.765060000000000195e-03 2.831354762597740216e+00
1.250000000000000069e-02 7.967999999999999606e-04 4.851551451984335905e+00
6.250000000000000347e-03 1.068350000000000029e-03 2.206856902744086746e+00
1.250000000000000069e-02 2.582720000000000155e-03 2.544056162781064501e+00
3.125000000000000173e-03 4.964419999999999771e-03 2.559634659268312795e+00
3.125000000000000173e-03 1.944509999999999988e-03 1.894950171279495832e+00
6.250000000000000347e-03 1.919169999999999991e-03 6.857234042855325784e-01
0.000000000000000000e+00 7.326919999999999570e-04 9.453277044346586333e-01
0.000000000000000000e+00 9.841279999999999126e-04 6.090422435564601944e-01
9.374999999999999653e-03 1.069790000000000046e-01 4.200964587796940819e+00
0.000000000000000000e+00 7.212780000000000016e-04 3.677930235284279092e+00
1.562500000000000000e-02 1.867900000000000029e-03 4.833937341578028679e+00
0.000000000000000000e+00 3.678020000000000161e-03 2.503538488934312412e+00
0.000000000000000000e+00 8.960320000000000784e-03 4.238573375442156177e-01
0.000000000000000000e+00 1.052159999999999901e-03 4.455656126798157146e+00
0.000000000000000000e+00 3.803519999999999796e-04 9.264902623819271099e-01
3.125000000000000173e-03 4.867329999999999574e-03 4.741587160443681448e+00
0.000000000000000000e+00 6.416990000000000237e-04 2.298063548192584626e+00
6.250000000000000347e-03 1.792449999999999903e-03 1.652790454058236769e+00
3.125000000000000173e-03 2.630139999999999995e-03 8.284358370602484811e-01
2.812500000000000069e-02 2.774019999999999871e-03 4.384956683333706806e+00
1.874999999999999931e-02 2.492480000000000043e-03 2.413080546831041673e+00
0.000000000000000000e+00 1.135530000000000046e-03 6.157785057697073849e-01
0.000000000000000000e+00 9.280640000000000374e-04 1.305940562188805387e+00
0.000000000000000000e+00 3.501870000000000135e-04 3.005049590676211579e+00
0.000000000000000000e+00 1.123139999999999902e-03 2.686888912418097242e+00
1.031249999999999944e-01 8.047669999999999824e-02 1.374658660217773054e+00
0.000000000000000000e+00 1.033470000000000092e-03 4.470671618485082988e+00
3.125000000000000173e-03 9.757860000000000145e-02 1.174401214239730873e+00
0.000000000000000000e+00 1.130300000000000098e-03 4.137204837623063902e+00
0.000000000000000000e+00 3.754050000000000095e-03 4.102980275848283398e+00
6.250000000000000347e-03 9.843250000000000610e-02 1.413024941028797166e+00
2.500000000000000139e-02 9.585280000000000493e-04 3.497336179785017318e+00
5.000000000000000278e-02 2.727140000000000120e-02 1.068818358557650505e+00
3.125000000000000173e-03 1.050630000000000036e-01 2.361862600088456166e+00
1.250000000000000069e-02 2.329279999999999979e-03 4.779809183318949550e+00
0.000000000000000000e+00 0.000000000000000000e+00 1.081573593331881966e+00
3.125000000000000173e-03 1.057120000000000004e-01 3.602822996352042395e+00
3.125000000000000173e-03 2.173889999999999937e-03 2.882634886535109242e+00
1.874999999999999931e-02 2.477700000000000215e-03 4.240679298162835842e+00
0.000000000000000000e+00 3.660930000000000174e-03 4.842004784592663036e+00
0.000000000000000000e+00 3.017599999999999840e-04 3.805547086838619197e+00
0.000000000000000000e+00 9.716870000000000498e-04 1.657432707404932204e-01
6.250000000000000347e-03 1.054980000000000067e-03 4.636176575687700474e-01
5.000000000000000278e-02 1.051969999999999988e-01 1.492932459632924758e+00
0.000000000000000000e+00 5.778560000000000293e-03 2.751678564832067408e+00
3.437500000000000278e-02 9.510369999999999935e-02 9.451285057726516170e-01
0.000000000000000000e+00 7.700129999999999475e-04 2.537069803139351265e+00
0.000000000000000000e+00 1.002660000000000053e-03 1.869666146256063310e+00
0.000000000000000000e+00 1.172499999999999931e-02 2.976116716187269695e+00
0.000000000000000000e+00 8.690619999999999595e-03 1.363862854538023139e+00
9.374999999999999653e-03 9.434259999999999868e-02 7.289911835400708640e-01
2.187499999999999861e-02 9.221659999999999580e-02 1.083677894461943403e+00
1.250000000000000069e-02 2.522560000000000080e-03 2.992679513898877985e+00
2.187499999999999861e-02 2.767869999999999966e-03 4.916775754867993342e+00
0.000000000000000000e+00 7.635359999999999890e-04 6.345452613567081901e-01
0.000000000000000000e+00 7.690880000000000199e-04 1.940089475333232727e+00
3.437500000000000278e-02 9.145290000000000363e-02 2.232538554162577515e+00
6.250000000000000347e-03 1.874240000000000107e-03 3.853793481235774809e+00
0.000000000000000000e+00 1.427969999999999977e-03 4.553678989314748016e+00
0.000000000000000000e+00 1.190529999999999974e-03 2.323417634642074070e+00
0.000000000000000000e+00 1.647559999999999953e-03 8.991217043092009087e-01
0.000000000000000000e+00 1.299840000000000023e-03 4.590427103540322129e+00
0.000000000000000000e+00 5.195409999999999915e-04 4.645153802370066920e+00
3.125000000000000173e-03 1.349570000000000023e-03 3.485881794709549952e-01
0.000000000000000000e+00 4.155939999999999786e-04 2.626196540863710016e+00
3.125000000000000173e-03 2.742779999999999784e-03 1.614326765158619059e+00
9.374999999999999653e-03 1.081580000000000041e-01 2.410357302783221467e+00
6.250000000000000347e-03 8.929279999999999509e-03 2.199267949744446060e+00
3.125000000000000173e-03 2.132540000000000043e-03 1.839658629598914796e+00
0.000000000000000000e+00 9.413120000000000298e-04 2.171760453012953285e+00
9.374999999999999653e-03 7.849600000000000197e-04 3.712169607187354448e+00
9.374999999999999653e-03 2.020160000000000011e-03 3.393856065996078364e+00
0.000000000000000000e+00 3.770369999999999885e-03 2.209131572546757738e+00
0.000000000000000000e+00 9.895039999999999912e-04 1.054036892187290020e+00
0.000000000000000000e+00 0.000000000000000000e+00 4.949945967081185394e+00
0.000000000000000000e+00 3.020609999999999962e-03 4.125756878495237423e+00
0.000000000000000000e+00 3.640449999999999936e-03 4.876619669001221347e+00
3.125000000000000173e-03 2.902979999999999883e-03 4.220231462045725968e-01
0.000000000000000000e+00 4.154660000000000232e-04 2.070518316314587270e+00
0.000000000000000000e+00 5.979840000000000155e-03 2.587693179096719476e+00
0.000000000000000000e+00 1.706370000000000022e-03 2.968473453069638168e+00
2.500000000000000139e-02 1.387870000000000076e-02 3.543240719994842802e+00
3.749999999999999861e-02 9.307089999999999808e-02 2.003614451277089259e+00
0.000000000000000000e+00 1.705789999999999997e-03 1.149842778935308729e+00
0.000000000000000000e+00 6.189989999999999598e-04 1.820794158025006437e+00
1.250000000000000069e-02 1.790080000000000100e-03 9.560515087732807116e-01
0.000000000000000000e+00 5.276159999999999574e-04 4.870219119201552260e+00
1.562500000000000000e-02 2.300350000000000051e-03 4.663816290370285778e+00
6.250000000000000347e-03 1.441220000000000001e-03 2.220834560291962134e+00
1.562500000000000000e-02 1.859200000000000089e-03 3.787483370328637022e-01
1.250000000000000069e-02 1.008380000000000040e-02 1.564011853224855919e-01
0.000000000000000000e+00 1.511039999999999953e-04 1.790700999247690772e+00
0.000000000000000000e+00 1.074239999999999961e-03 1.843650707085854989e+00
3.125000000000000173e-03 4.561469999999999761e-03 7.159598649921727898e-01
4.374999999999999722e-02 9.231759999999999966e-02 8.818452384319386272e-01
6.250000000000000347e-03 1.972350000000000145e-02 3.126993339688827866e+00
0.000000000000000000e+00 4.130289999999999786e-04 1.616931487327309291e+00
1.250000000000000069e-02 1.083329999999999970e-03 6.289966371681032786e-01
0.000000000000000000e+00 1.565719999999999959e-02 4.808584552817784186e+00
0.000000000000000000e+00 7.119360000000000358e-04 4.494191106551851611e+00
0.000000000000000000e+00 3.786239999999999853e-04 2.874858328394243490e+00
0.000000000000000000e+00 6.584349999999999665e-04 4.155873778861797874e+00
9.374999999999999653e-03 2.078720000000000047e-03 1.385931604045820276e-01
1.874999999999999931e-02 9.171600000000000585e-02 1.662733802104480851e+00
0.000000000000000000e+00 2.457600000000000062e-02 5.261090050927397233e-02
3.125000000000000173e-03 1.001569999999999960e-01 2.851185192923361145e-01
0.000000000000000000e+00 6.551680000000000264e-04 4.899111003703744416e+00
0.000000000000000000e+00 1.028180000000000066e-03 3.697389322335453699e-01
0.000000000000000000e+00 1.108480000000000012e-03 1.557967148297659143e+00
3.125000000000000173e-03 3.338820000000000156e-03 4.695552792644074103e+00
0.000000000000000000e+00 1.183040000000000003e-03 1.796660864519552092e+00
0.000000000000000000e+00 1.923040000000000166e-02 9.972405570277897979e-01
0.000000000000000000e+00 2.252260000000000015e-05 8.658233900496781210e-01
0.000000000000000000e+00 1.617539999999999993e-03 7.908443203778087183e-01
0.000000000000000000e+00 2.159729999999999896e-03 1.967934996839574291e+00
4.374999999999999722e-02 9.309270000000000045e-02 2.650220089858335015e-01
1.250000000000000069e-02 7.470719999999999921e-04 2.453203037431875622e+00
0.000000000000000000e+00 4.180950000000000009e-04 9.737737783705541217e-01
0.000000000000000000e+00 3.856829999999999894e-03 2.371890240944609651e+00
3.125000000000000173e-03 9.931879999999999875e-02 6.422825521389141645e-01
0.000000000000000000e+00 9.348479999999999507e-04 3.403615937681050863e+00
0.000000000000000000e+00 5.177450000000000108e-04 1.466996670380887213e+00
3.125000000000000173e-03 1.719620000000000046e-03 3.142667920572756124e+00
9.374999999999999653e-03 9.498209999999999986e-02 2.000240725121869012e+00
0.000000000000000000e+00 1.800960000000000050e-04 1.660984648957029464e+00
2.187499999999999861e-02 2.429569999999999820e-03 1.477435314823938306e+00
6.250000000000000000e-02 9.176149999999999585e-02 4.597363511074698650e+00
0.000000000000000000e+00 9.940479999999999802e-04 3.931008726535416109e+00
0.000000000000000000e+00 5.232000000000000322e-04 4.362529255206543333e+00
0.000000000000000000e+00 7.519360000000000323e-04 2.098719749693969572e+00
0.000000000000000000e+00 5.508480000000000494e-04 4.675323043904045406e+00
9.374999999999999653e-03 1.639229999999999984e-03 3.869138303617561281e+00
6.250000000000000347e-03 1.776129999999999896e-03 1.576066711552021049e+00
0.000000000000000000e+00 2.891710000000000027e-03 4.961184849164848920e+00
1.250000000000000069e-02 5.800259999999999791e-03 3.886860988031572983e+00
0.000000000000000000e+00 6.582429999999999792e-04 9.578917147689025580e-01
0.000000000000000000e+00 9.772159999999999354e-04 1.383009911146175330e+00
0.000000000000000000e+00 1.605380000000000001e-03 2.976192655821165545e+00
6.250000000000000347e-03 1.053489999999999982e-01 1.397940504129896455e-01
0.000000000000000000e+00 2.305780000000000140e-05 7.483970070321055434e-01
3.125000000000000173e-03 1.220610000000000011e-03 1.625327991248242565e+00
2.500000000000000139e-02 9.245499999999999552e-02 4.591405256813230196e-01
0.000000000000000000e+00 1.224449999999999974e-03 4.908429082358376050e+00
0.000000000000000000e+00 4.291890000000000136e-04 4.121206886885747656e-01
0.000000000000000000e+00 3.936640000000000039e-04 2.250551332022045603e+00
2.500000000000000139e-02 1.894019999999999948e-03 4.020165613062484766e+00
0.000000000000000000e+00 1.356420000000000108e-03 4.514715024006220823e+00
3.125000000000000173e-03 1.948619999999999866e-02 4.210974857225005863e+00
2.187499999999999861e-02 1.054630000000000012e-01 3.674173939545713363e+00
0.000000000000000000e+00 8.835839999999999753e-04 1.427693732295400419e+00
1.562500000000000000e-02 9.535449999999999135e-03 1.561978251231129766e+00
3.125000000000000173e-03 2.079870000000000156e-03 2.794643989369648196e+00
0.000000000000000000e+00 3.747390000000000183e-03 1.548797240961337085e+00
0.000000000000000000e+00 4.000119999999999913e-04 4.517081071073874909e+00
3.125000000000000173e-03 4.139780000000000022e-03 1.320264264512531760e+00
0.000000000000000000e+00 1.143680000000000000e-04 2.897373572630370209e+00
0.000000000000000000e+00 1.631360000000000047e-04 4.816850378312852676e+00
0.000000000000000000e+00 4.317440000000000188e-04 2.124616852394724198e+00
6.250000000000000347e-03 1.614460000000000070e-03 2.550303862780961550e-01
0.000000000000000000e+00 6.300159999999999528e-04 3.041777898860636986e-01
0.000000000000000000e+00 1.960879999999999915e-02 4.282969410734577487e+00
0.000000000000000000e+00 1.626180000000000073e-03 3.898251995196134079e+00
9.374999999999999653e-03 1.108290000000000056e-03 4.422510666545913516e+00
2.500000000000000139e-02 3.713789999999999800e-03 6.526551652659756675e-01
0.000000000000000000e+00 1.138209999999999916e-02 2.277897568841591447e+00
0.000000000000000000e+00 3.671680000000000191e-04 3.584454692400779185e-01
0.000000000000000000e+00 1.334080000000000075e-03 2.437484678564540541e+00
1.562500000000000000e-02 3.443199999999999993e-03 2.563875335580037884e+00
0.000000000000000000e+00 6.209920000000000067e-04 2.803408887070851563e+00
6.250000000000000347e-03 1.730030000000000023e-03 5.377509802212265821e-01
0.000000000000000000e+00 5.155649999999999469e-04 1.793494355648007632e+00
9.374999999999999653e-03 9.393479999999999885e-02 4.941226524703175471e+00
2.812500000000000069e-02 5.708930000000000081e-03 2.053303433115344134e+00
0.000000000000000000e+00 3.402470000000000104e-04 1.446260543484645389e-01
0.000000000000000000e+00 2.194690000000000009e-03 5.119541276150052500e-01
2.500000000000000139e-02 2.563650000000000217e-03 7.167052298758502804e-01
1.250000000000000069e-02 1.261699999999999931e-03 3.037781843651410352e-01
0.000000000000000000e+00 4.147199999999999867e-04 4.887372266552512556e+00
3.125000000000000173e-03 1.113560000000000071e-02 3.665981138899667258e+00
0.000000000000000000e+00 6.316810000000000480e-02 2.831873965030793805e+00
1.562500000000000000e-02 1.189310000000000020e-02 1.536575983516939026e+00
3.125000000000000173e-03 5.298109999999999972e-03 2.654480461769143318e+00
0.000000000000000000e+00 4.329720000000000010e-04 3.684833208519268766e+00
