1.562500000000000000e-02 9.675960000000000116e-02 3.562394428272251723e+00
2.500000000000000139e-02 7.865860000000000560e-03 4.850636715885808803e-01
0.000000000000000000e+00 8.287359999999999475e-04 1.284348364371449280e+00
0.000000000000000000e+00 5.032959999999999734e-04 1.982316966813322257e+00
0.000000000000000000e+00 4.540689999999999787e-04 1.485171780367777306e+00
2.500000000000000139e-02 1.578730000000000064e-02 1.837211633215819484e+00
0.000000000000000000e+00 6.986710000000000143e-02 3.311355393788599333e+00
0.000000000000000000e+00 1.950719999999999917e-04 1.956193520579011524e+00
0.000000000000000000e+00 4.547199999999999832e-04 2.546687670072476539e+00
0.000000000000000000e+00 2.636770000000000086e-02 3.783802219227398567e+00
2.187499999999999861e-02 2.336770000000000166e-03 4.795164135757946866e+00
0.000000000000000000e+00 1.653179999999999971e-03 4.954188936951425148e+00
0.000000000000000000e+00 3.797760000000000176e-04 4.290435314648243015e+00
2.500000000000000139e-02 2.656579999999999966e-03 4.182239850803246561e+00
1.562500000000000000e-02 2.305090000000000090e-03 3.625914371095037225e+00
0.000000000000000000e+00 7.335900000000000016e-04 1.251900559501231580e+00
3.125000000000000173e-03 1.056430000000000008e-01 4.213432269014770526e+00
0.000000000000000000e+00 3.774399999999999912e-04 2.381295992359747871e+00
2.812500000000000069e-02 2.404930000000000002e-03 3.969777869954560501e-01
0.000000000000000000e+00 3.953919999999999982e-04 1.768282839027847109e+00
9.374999999999999653e-03 4.873149999999999704e-03 4.112828900921889463e+00
6.875000000000000555e-02 9.304379999999999595e-02 1.569449590172484754e+00
3.125000000000000173e-03 2.046590000000000041e-03 3.719875128686808807e+00
0.000000000000000000e+00 1.897789999999999894e-02 1.757540472630046313e+00
1.874999999999999931e-02 1.733380000000000077e-03 1.775089232755033830e-01
0.000000000000000000e+00 1.327169999999999912e-03 2.194052193603390766e+00
0.000000000000000000e+00 3.806079999999999988e-04 2.426393260110744521e+00
0.000000000000000000e+00 2.022789999999999991e-05 3.356413573319171562e+00
1.874999999999999931e-02 1.658689999999999991e-03 3.524479569727012152e+00
9.374999999999999653e-03 1.199549999999999965e-03 2.110323633350291495e+00
3.125000000000000173e-03 4.915199999999999778e-03 4.592745286709143393e+00
3.125000000000000000e-02 7.705980000000000295e-03 3.726204719882657557e+00
9.374999999999999653e-03 2.466050000000000013e-03 3.570272428281370480e+00
0.000000000000000000e+00 8.330879999999999492e-04 4.033421583030464497e+00
0.000000000000000000e+00 2.267870000000000023e-05 3.652032720136136668e+00
6.250000000000000347e-03 5.622979999999999645e-03 2.987844430428960418e+00
0.000000000000000000e+00 7.957979999999999915e-03 4.568574539547122448e+00
0.000000000000000000e+00 1.885130000000000139e-02 2.135767433223223044e+00
0.000000000000000000e+00 1.761280000000000050e-04 2.455325996015141676e+00
0.000000000000000000e+00 1.333350000000000073e-03 3.121435265037164619e-03
0.000000000000000000e+00 6.585640000000000461e-04 1.089160423489901497e+00
0.000000000000000000e+00 8.331760000000000338e-04 3.257821876678554496e+00
0.000000000000000000e+00 1.127680000000000045e-03 2.319905816865268200e+00
6.250000000000000347e-03 9.789889999999999703e-02 1.429653276048159505e-01
0.000000000000000000e+00 9.737390000000000498e-04 2.443868120549983480e+00
3.125000000000000173e-03 1.021990000000000051e-02 2.140818219954543800e+00
0.000000000000000000e+00 5.427840000000000399e-04 3.018098215025311060e+00
9.374999999999999653e-03 9.610920000000000574e-02 3.977105616776715813e+00
0.000000000000000000e+00 1.332030000000000106e-03 5.798973577707977611e-01
2.500000000000000139e-02 1.746050000000000076e-03 2.901494392069937867e+00
0.000000000000000000e+00 5.077420000000000457e-04 1.017067675387392622e+00
0.000000000000000000e+00 7.902719999999999580e-04 4.527311314924467922e+00
2.500000000000000139e-02 9.227470000000000117e-02 1.656422579732703237e+00
2.500000000000000139e-02 1.958529999999999993e-03 4.887216490405023706e+00
3.437500000000000278e-02 1.040789999999999944e-02 2.877995715732996729e+00
9.374999999999999653e-03 1.838720000000000068e-03 3.866329201019482742e+00
9.374999999999999653e-03 1.990019999999999897e-03 2.913819288261372709e+00
2.500000000000000139e-02 9.213960000000000206e-02 4.940711494896755873e+00
0.000000000000000000e+00 7.123000000000000208e-04 1.004087021633374821e+00
1.562500000000000000e-02 9.317860000000000031e-02 2.907019683462959581e+00
3.125000000000000173e-03 3.207549999999999985e-02 1.526875704264871736e+00
0.000000000000000000e+00 9.872049999999998968e-04 3.483302742098679516e+00
1.562500000000000000e-02 2.739140000000000151e-03 2.550372812334932071e+00
0.000000000000000000e+00 5.132459999999999800e-02 4.979647404977399106e+00
0.000000000000000000e+00 9.894400000000000677e-04 3.469907099269684991e+00
6.250000000000000347e-03 1.543169999999999958e-03 2.284260927017008669e+00
2.187499999999999861e-02 1.064000000000000015e-02 1.880439450051343719e+00
0.000000000000000000e+00 2.216819999999999902e-02 2.346682721757238355e+00
3.125000000000000173e-03 1.311550000000000086e-03 4.738679280460814880e+00
0.000000000000000000e+00 3.774720000000000072e-04 3.635690417735305324e+00
0.000000000000000000e+00 3.941120000000000105e-04 1.765192117328589383e+00
0.000000000000000000e+00 1.508280000000000037e-02 4.249247629764401957e+00
9.374999999999999653e-03 1.728130000000000031e-03 4.171176687937018457e+00
6.250000000000000347e-03 1.783710000000000157e-02 3.996362638296538705e+00
0.000000000000000000e+00 2.279899999999999974e-05 4.621168680010497631e+00
0.000000000000000000e+00 5.601960000000000012e-04 6.984461091696214652e-01
0.000000000000000000e+00 5.586299999999999773e-03 1.865546914810478185e+00
0.000000000000000000e+00 6.959489999999999600e-04 3.607436370119048608e+00
0.000000000000000000e+00 7.771310000000000240e-04 2.409388795994525267e+00
0.000000000000000000e+00 9.786239999999999870e-04 1.135891620103586686e+00
0.000000000000000000e+00 2.280730000000000100e-05 3.643512882256639163e+00
3.125000000000000173e-03 2.765060000000000087e-02 1.363755578207065389e+00
2.812500000000000069e-02 8.278280000000000707e-03 1.933532460170643397e+00
4.062500000000000139e-02 3.633399999999999824e-02 7.250957301125288135e-01
0.000000000000000000e+00 1.113789999999999919e-03 1.752700213111350713e+00
3.125000000000000173e-03 1.027469999999999946e-02 1.675469063495888644e+00
1.250000000000000069e-02 9.317079999999999806e-02 1.400821594244028301e+00
0.000000000000000000e+00 6.104059999999999694e-04 9.914287277358679873e-01
0.000000000000000000e+00 1.180290000000000072e-03 1.835793725070877347e+00
0.000000000000000000e+00 2.705609999999999959e-02 3.092104124046295865e+00
1.562500000000000000e-02 9.791489999999999916e-02 4.383613012197932868e+00
6.250000000000000347e-03 2.777219999999999949e-03 3.973421637746131552e+00
2.187499999999999861e-02 3.139069999999999881e-03 3.227928833733574976e+00
1.874999999999999931e-02 2.780669999999999843e-03 2.401325020258575194e+00
0.000000000000000000e+00 4.793089999999999851e-03 6.907431521923912410e-02
1.874999999999999931e-02 3.274369999999999972e-03 1.416363497565514828e-01
0.000000000000000000e+00 9.604480000000000309e-04 1.314477727684379538e+00
2.812500000000000069e-02 1.031379999999999970e-02 1.736952498103901954e+00
2.500000000000000139e-02 2.630459999999999830e-03 4.790650191436840899e+00
3.125000000000000173e-03 1.045929999999999950e-02 2.740205307105755939e+00
2.500000000000000139e-02 2.178820000000000149e-03 1.380090981304958220e+00
0.000000000000000000e+00 8.148629999999999806e-04 2.469448943087452886e+00
0.000000000000000000e+00 0.000000000000000000e+00 1.804870374973877034e+00
0.000000000000000000e+00 1.063230000000000078e-03 2.431041223876567514e+00
0.000000000000000000e+00 1.153090000000000061e-03 4.025840352092123986e+00
0.000000000000000000e+00 4.177100000000000105e-04 4.585029926793973587e+00
3.125000000000000173e-03 1.763260000000000001e-03 4.159032804043404141e+00
1.562500000000000000e-02 1.375740000000000079e-03 9.818297024106281690e-01
1.874999999999999931e-02 1.588290000000000014e-03 2.943860732810696490e+00
2.187499999999999861e-02 1.239709999999999944e-02 4.267854819359812035e-01
3.125000000000000173e-03 7.116800000000000166e-04 3.087925925528293369e+00
0.000000000000000000e+00 7.471199999999999890e-04 3.180164675757004122e+00
0.000000000000000000e+00 1.107970000000000005e-03 1.380208229341170600e+00
0.000000000000000000e+00 1.187520000000000069e-03 3.541092856466407035e+00
0.000000000000000000e+00 8.780160000000000178e-04 1.578952875532467104e+00
0.000000000000000000e+00 1.195780000000000020e-03 4.595123017464891824e+00
2.500000000000000139e-02 2.370179999999999943e-03 2.917538418067926020e+00
2.812500000000000069e-02 9.322940000000000393e-02 1.860294139929319357e+00
0.000000000000000000e+00 9.069440000000000227e-04 1.738515682120511663e+00
0.000000000000000000e+00 1.508739999999999951e-03 4.235698399361697675e+00
9.374999999999999653e-03 4.951099999999999945e-03 3.397144823508221556e+00
3.125000000000000173e-03 1.695359999999999923e-03 3.854380057616564326e+00
3.125000000000000173e-03 1.329660000000000087e-03 4.825692081706702830e+00
0.000000000000000000e+00 2.641469999999999929e-03 2.435013839975310734e+00
0.000000000000000000e+00 3.052480000000000211e-03 1.728262717618803679e+00
6.250000000000000347e-03 9.442159999999999442e-02 2.950943189763281627e+00
0.000000000000000000e+00 0.000000000000000000e+00 4.176651061096363193e+00
0.000000000000000000e+00 8.299520000000000118e-04 3.941748139058718792e+00
1.874999999999999931e-02 1.256900000000000031e-03 1.587445351244516800e+00
0.000000000000000000e+00 1.017340000000000041e-03 1.468248192001138541e+00
0.000000000000000000e+00 2.275199999999999900e-04 1.627318420938146382e+00
3.125000000000000173e-03 2.699329999999999785e-03 1.935989448773217658e+00
1.250000000000000069e-02 2.359620000000000207e-03 6.124101963900974166e-01
6.250000000000000347e-03 1.002220000000000055e-01 3.676488303157435134e+00
0.000000000000000000e+00 2.014530000000000053e-03 1.497941345367488797e+00
0.000000000000000000e+00 2.345600000000000202e-03 3.246778987390036342e+00
0.000000000000000000e+00 0.000000000000000000e+00 4.719705608053514467e+00
0.000000000000000000e+00 1.850110000000000079e-03 4.379801032405977956e+00
1.562500000000000000e-02 9.945429999999999549e-02 4.374256453900223995e+00
2.812500000000000069e-02 1.658689999999999991e-03 3.893428705216669172e+00
0.000000000000000000e+00 9.617280000000000186e-04 3.126102434799435059e+00
0.000000000000000000e+00 1.730820000000000101e-03 1.502593201293422887e+00
0.000000000000000000e+00 4.466949999999999914e-04 2.163798521294546529e+00
0.000000000000000000e+00 0.000000000000000000e+00 2.393391304911964390e+00
1.562500000000000000e-02 2.546430000000000134e-03 3.372245754930283113e+00
2.187499999999999861e-02 2.978109999999999959e-03 4.330737100618757829e+00
6.250000000000000347e-03 1.033169999999999922e-02 9.266413993231331636e-01
3.125000000000000173e-03 1.843650000000000063e-03 2.947780300796777553e+00
0.000000000000000000e+00 2.294810000000000141e-05 2.793384216091630012e+00
2.812500000000000069e-02 2.054269999999999968e-03 1.262431060144863615e+00
0.000000000000000000e+00 1.677150000000000168e-02 4.417024847890674621e+00
0.000000000000000000e+00 2.662659999999999853e-03 2.253346768456871096e+00
0.000000000000000000e+00 6.815900000000000387e-04 1.941376272723691176e+00
0.000000000000000000e+00 4.288639999999999922e-04 4.906680357532366088e+00
0.000000000000000000e+00 4.211069999999999917e-03 3.037466926825254543e+00
3.125000000000000173e-03 9.642449999999999632e-02 2.675936243706011020e+00
1.562500000000000000e-02 1.974820000000000048e-02 2.710121455457321638e+00
0.000000000000000000e+00 4.287459999999999882e-02 1.295184521577335435e+00
0.000000000000000000e+00 1.183299999999999977e-03 3.649835389812372544e+00
0.000000000000000000e+00 1.095620000000000057e-03 2.522246096355640343e+00
1.562500000000000000e-02 2.516579999999999859e-02 3.372655108093616239e+00
3.125000000000000173e-03 2.114179999999999792e-03 4.771032457975578289e+00
0.000000000000000000e+00 1.639040000000000082e-04 3.854630157033270166e+00
0.000000000000000000e+00 3.928320000000000227e-04 3.390935445276219262e+00
1.250000000000000069e-02 7.873920000000000398e-04 1.044886378572905006e+00
2.187499999999999861e-02 2.701760000000000099e-03 4.905255352068939700e+00
0.000000000000000000e+00 5.201179999999999692e-04 3.617119983841796227e+00
1.250000000000000069e-02 1.454720000000000058e-03 6.823186291188854113e-01
1.562500000000000000e-02 2.402619999999999843e-03 7.005584532648712059e-02
6.250000000000000347e-03 1.295170000000000002e-03 3.636465566614339728e+00
0.000000000000000000e+00 8.440960000000000173e-04 1.415037582820160011e+00
0.000000000000000000e+00 1.288829999999999924e-03 2.347413419915885147e+00
1.874999999999999931e-02 2.355139999999999924e-03 2.274934854828077668e+00
2.187499999999999861e-02 1.165039999999999999e-02 4.254627891935548689e+00
2.187499999999999861e-02 2.820029999999999846e-03 2.770353585776420324e+00
2.812500000000000069e-02 9.499070000000000083e-03 3.310875444859454397e+00
1.874999999999999931e-02 1.877570000000000064e-03 2.190268942065643376e+00
1.874999999999999931e-02 1.733380000000000077e-03 1.175417554912699947e-01
0.000000000000000000e+00 1.195889999999999997e-05 2.748004447912311132e+00
0.000000000000000000e+00 4.004480000000000257e-04 3.541204080082380301e+00
9.374999999999999653e-03 1.588219999999999996e-03 3.944659504656816473e+00
0.000000000000000000e+00 9.240830000000000224e-03 4.595079768428692368e+00
9.374999999999999653e-03 1.638979999999999951e-03 1.163653774650236894e+00
0.000000000000000000e+00 1.066370000000000078e-03 3.872917510687090115e+00
3.125000000000000173e-03 1.858430000000000108e-03 6.156599297659731684e-01
0.000000000000000000e+00 1.724099999999999895e-03 3.902254936625348058e+00
0.000000000000000000e+00 0.000000000000000000e+00 1.260160439413177791e+00
6.250000000000000347e-03 6.553599999999999703e-03 4.597784436719057233e+00
0.000000000000000000e+00 9.811780000000000848e-04 4.209431958207926483e-01
0.000000000000000000e+00 5.287749999999999916e-03 4.363267735641088940e+00
0.000000000000000000e+00 1.825229999999999908e-02 7.104661378565541030e-01
0.000000000000000000e+00 1.054529999999999921e-03 4.160397498660087123e+00
0.000000000000000000e+00 3.921279999999999970e-04 3.204251117163260609e+00
0.000000000000000000e+00 9.263360000000000431e-04 4.981521862328028405e+00
0.000000000000000000e+00 4.831999999999999815e-04 3.776211263212613467e+00
0.000000000000000000e+00 1.310820000000000041e-02 4.800392773121903156e-01
3.437500000000000278e-02 9.377820000000000600e-02 3.806769995999777834e+00
0.000000000000000000e+00 1.120899999999999978e-03 4.519243391438213742e+00
0.000000000000000000e+00 0.000000000000000000e+00 1.059783416757603680e-01
6.250000000000000347e-03 9.592599999999999738e-02 1.147064585908019740e-01
0.000000000000000000e+00 1.170299999999999986e-03 1.037483473576653603e+00
3.125000000000000173e-03 1.913219999999999981e-03 3.298410986496357999e+00
0.000000000000000000e+00 7.630869999999999667e-04 3.468843228258033484e+00
0.000000000000000000e+00 4.312210000000000348e-03 3.703944297175032485e-01
9.374999999999999653e-03 2.155649999999999841e-03 2.796717289465821210e+00
0.000000000000000000e+00 1.021889999999999908e-03 3.375660638178461515e+00
0.000000000000000000e+00 1.057199999999999980e-02 8.923589922663516250e-01
0.000000000000000000e+00 4.128620000000000380e-03 3.243446935429244782e+00
1.250000000000000069e-02 2.315390000000000070e-03 2.782315085103453267e+00
2.187499999999999861e-02 3.075459999999999913e-03 1.178599303587130054e+00
1.874999999999999931e-02 2.291520000000000015e-03 3.316683525647845521e-01
0.000000000000000000e+00 1.972479999999999926e-04 1.052106549327143536e+00
1.562500000000000000e-02 3.122329999999999897e-02 1.517959977865835919e+00
0.000000000000000000e+00 1.100580000000000091e-03 1.496447381945305466e+00
0.000000000000000000e+00 9.742519999999999956e-04 4.625098880007271873e+00
2.187499999999999861e-02 1.895999999999999899e-03 3.524866166945143764e+00
0.000000000000000000e+00 5.222399999999999872e-04 4.595272375703833845e+00
0.000000000000000000e+00 1.916800000000000079e-04 2.572216067614377266e+00
0.000000000000000000e+00 3.961600000000000017e-04 1.104883317266080578e+00
6.250000000000000347e-03 9.493269999999999487e-02 4.382943280173019041e+00
6.250000000000000347e-03 1.089479999999999962e-02 4.866116143744601885e+00
6.250000000000000347e-03 5.318909999999999610e-03 2.019009302583599563e+00
0.000000000000000000e+00 1.118080000000000029e-03 2.346010771383583160e-01
0.000000000000000000e+00 1.039940000000000048e-03 1.640273860077193779e+00
0.000000000000000000e+00 0.000000000000000000e+00 4.948941394717364162e+00
0.000000000000000000e+00 8.702719999999999510e-04 3.908212484718187163e+00
6.250000000000000347e-03 1.045869999999999994e-01 6.840182805108341313e-02
6.250000000000000347e-03 4.161540000000000031e-03 3.773090361227461109e+00
2.187499999999999861e-02 2.189700000000000153e-03 5.856440438198096121e-01
1.874999999999999931e-02 1.060040000000000010e-01 5.456093112093662878e-01
0.000000000000000000e+00 7.124289999999999920e-04 4.583843412783583204e+00
0.000000000000000000e+00 3.818240000000000089e-04 3.422043231920013362e+00
0.000000000000000000e+00 1.530689999999999915e-03 4.154083477612929620e+00
0.000000000000000000e+00 1.651249999999999940e-02 4.294747132427909619e+00
6.250000000000000347e-03 6.553599999999999703e-03 6.456174058176233910e-01
0.000000000000000000e+00 4.297659999999999913e-04 3.695432241192142531e+00
0.000000000000000000e+00 4.231610000000000232e-04 4.942977100303757254e+00
0.000000000000000000e+00 5.880959999999999747e-04 1.407491028620886819e+00
0.000000000000000000e+00 2.479550000000000070e-03 3.890853396629648131e+00
0.000000000000000000e+00 9.598719999999999605e-04 4.675590086940260903e+00
0.000000000000000000e+00 2.261439999999999978e-03 2.617323105778347703e+00
3.125000000000000173e-03 1.186440000000000064e-02 4.246595899475961389e+00
0.000000000000000000e+00 1.483780000000000081e-03 2.692266169754103933e-01
2.812500000000000069e-02 8.003839999999999913e-03 2.791795427142812258e+00
3.749999999999999861e-02 9.090099999999999569e-02 2.240501726017875228e+00
9.374999999999999653e-03 9.186660000000000659e-02 3.372233269063538152e+00
0.000000000000000000e+00 1.297339999999999908e-03 1.272607414548445171e+00
3.125000000000000173e-03 8.388610000000000511e-02 1.193311464285733425e+00
0.000000000000000000e+00 5.350589999999999470e-04 2.409117672024267520e+00
0.000000000000000000e+00 1.050750000000000035e-03 3.709690131914173516e+00
0.000000000000000000e+00 4.212369999999999786e-04 3.084489220152528688e+00
9.374999999999999653e-03 1.281329999999999969e-02 2.623513940137809808e+00
1.250000000000000069e-02 1.772420000000000028e-03 5.541263688936970411e-01
0.000000000000000000e+00 1.258430000000000052e-03 3.580377073491761486e+00
3.125000000000000173e-03 5.737469999999999723e-03 3.101421925331189211e+00
0.000000000000000000e+00 1.552000000000000048e-04 3.881683407662330776e+00
0.000000000000000000e+00 4.358189999999999634e-03 2.231665674887902018e+00
0.000000000000000000e+00 1.068900000000000015e-03 4.882092794977038075e+00
2.187499999999999861e-02 3.168380000000000155e-03 7.197416917974336359e-01
0.000000000000000000e+00 0.000000000000000000e+00 1.671002548963756329e+00
1.562500000000000000e-02 2.394299999999999814e-03 2.845925834777240926e-01
1.250000000000000069e-02 3.301310000000000008e-03 1.511892528047514839e+00
1.250000000000000069e-02 9.105539999999999468e-02 1.887683553264620340e+00
0.000000000000000000e+00 3.795560000000000231e-04 3.220263498308861383e+00
0.000000000000000000e+00 4.214290000000000202e-04 3.919951055042508070e+00
3.125000000000000173e-03 1.905339999999999942e-03 4.420752250456990495e+00
0.000000000000000000e+00 8.983349999999999669e-02 3.882692621322315851e+00
3.125000000000000173e-03 1.779519999999999930e-03 3.362023095603817069e+00
0.000000000000000000e+00 3.537279999999999851e-04 2.674663633933648921e+00
0.000000000000000000e+00 4.391599999999999844e-03 4.011575955819528971e+00
1.250000000000000069e-02 1.978359999999999841e-02 2.132589856313151788e+00
0.000000000000000000e+00 2.729799999999999783e-04 2.373577878248506190e-01
9.374999999999999653e-03 3.004479999999999911e-03 2.012084463552217706e+00
0.000000000000000000e+00 6.846780000000000227e-03 1.877687186904431371e+00
0.000000000000000000e+00 7.471199999999999890e-04 3.203334046151563363e+00
0.000000000000000000e+00 7.316020000000000335e-04 4.341234632338713872e+00
0.000000000000000000e+00 4.328439999999999913e-04 2.008717941960076470e+00
9.374999999999999653e-03 1.834240000000000002e-03 3.812310236984122636e+00
3.125000000000000173e-03 9.735420000000000185e-02 1.147430702215028298e+00
2.187499999999999861e-02 1.772480000000000106e-03 2.930214049626699957e+00
0.000000000000000000e+00 0.000000000000000000e+00 9.265168527859118930e-01
0.000000000000000000e+00 1.137090000000000106e-03 4.197306255738119773e+00
0.000000000000000000e+00 3.551250000000000261e-04 1.648996543601831011e+00
0.000000000000000000e+00 2.102530000000000024e-03 1.485266387202359706e+00
0.000000000000000000e+00 7.378219999999999570e-04 4.545573295123682911e+00
6.250000000000000347e-03 9.314740000000000519e-02 4.224576914732559807e+00
1.874999999999999931e-02 2.741250000000000197e-03 3.320024285305384071e-01
2.187499999999999861e-02 2.123150000000000037e-01 2.722626729303774695e+00
0.000000000000000000e+00 1.208450000000000019e-03 4.806373853548818964e+00
1.000000000000000056e-01 9.220979999999999455e-02 2.846145675946047504e+00
0.000000000000000000e+00 0.000000000000000000e+00 2.146393968573256483e+00
0.000000000000000000e+00 6.104059999999999694e-04 1.404450006013618912e-01
0.000000000000000000e+00 5.494229999999999470e-04 1.060483821792672643e+00
9.374999999999999653e-03 1.729730000000000070e-03 5.677469317427602524e-01
1.250000000000000069e-02 1.900669999999999920e-03 4.368157812181364008e+00
6.250000000000000347e-03 1.355969999999999962e-03 4.257576762097371237e+00
0.000000000000000000e+00 1.097220000000000096e-03 4.840706102231434604e-01
3.125000000000000173e-03 1.724059999999999915e-03 2.518409863869724985e-01
2.187499999999999861e-02 1.726719999999999948e-03 4.338140680107597014e+00
2.500000000000000139e-02 1.878850000000000051e-03 2.110190794449301466e-01
1.250000000000000069e-02 9.200560000000000682e-02 4.597282314864860275e+00
2.500000000000000139e-02 1.429890000000000067e-03 4.406144607725169138e+00
0.000000000000000000e+00 1.076670000000000058e-03 4.176472197972003642e+00
4.374999999999999722e-02 9.270050000000000512e-02 2.658463987081327584e+00
0.000000000000000000e+00 4.250200000000000202e-04 3.677351287802557156e+00
0.000000000000000000e+00 5.859790000000000354e-04 1.182995596971308405e+00
0.000000000000000000e+00 6.683810000000000098e-03 6.782009544967815273e-01
2.812500000000000069e-02 2.081540000000000213e-03 2.133900748744449238e+00
3.125000000000000173e-03 1.846530000000000090e-03 2.322410189833246097e-01
0.000000000000000000e+00 2.022589999999999891e-03 4.182078632211890579e+00
0.000000000000000000e+00 9.180800000000000462e-04 3.901832404337650662e+00
1.250000000000000069e-02 2.371330000000000052e-03 4.582521799228317372e-01
0.000000000000000000e+00 2.095359999999999942e-04 6.562335602853214267e-01
1.874999999999999931e-02 3.451070000000000092e-03 9.422774437599445996e-01
0.000000000000000000e+00 9.453439999999999803e-04 3.529080129956276846e+00
1.562500000000000000e-02 3.263620000000000063e-03 1.774361697265030458e+00
2.187499999999999861e-02 2.438340000000000212e-03 1.000658578372277674e+00
0.000000000000000000e+00 2.308139999999999893e-05 4.051021543155846061e+00
0.000000000000000000e+00 1.067580000000000048e-03 2.417050090013442176e+00
2.812500000000000069e-02 3.248829999999999860e-03 7.226674443399955239e-01
1.874999999999999931e-02 2.053380000000000049e-03 2.788064564569886494e-01
0.000000000000000000e+00 3.788160000000000268e-04 3.306496963212860685e+00
0.000000000000000000e+00 7.280109999999999793e-04 1.767215259337623356e-01
1.250000000000000069e-02 2.636669999999999812e-03 8.356555397688314457e-01
0.000000000000000000e+00 2.011789999999999846e-03 5.801212809948830262e-02
0.000000000000000000e+00 4.574230000000000310e-03 9.286301625198095655e-01
0.000000000000000000e+00 4.136060000000000105e-04 4.305535036394433135e+00
0.000000000000000000e+00 1.820290000000000016e-03 3.744071328522635689e-01
3.125000000000000173e-03 2.120679999999999787e-03 2.765885265589834052e+00
0.000000000000000000e+00 1.507969999999999970e-02 1.622146506179611425e+00
0.000000000000000000e+00 1.104640000000000049e-03 3.916118624859522335e+00
3.125000000000000173e-03 9.436379999999999421e-03 4.919534744467096488e+00
2.500000000000000139e-02 2.393150000000000138e-03 1.556133042132350930e+00
0.000000000000000000e+00 1.379650000000000060e-03 3.771768648198699392e+00
0.000000000000000000e+00 2.494209999999999960e-05 2.980504499239419403e+00
0.000000000000000000e+00 3.952000000000000109e-04 2.084996921355914523e+00
0.000000000000000000e+00 1.731069999999999918e-03 4.330834246870797877e+00
0.000000000000000000e+00 5.663419999999999739e-03 1.100538064326365140e+00
2.500000000000000139e-02 3.971780000000000276e-03 3.217271052199334846e+00
6.250000000000000347e-03 6.553599999999999703e-03 4.544114080299326730e+00
6.250000000000000347e-03 1.233300000000000021e-02 3.078446617653659345e+00
2.812500000000000069e-02 2.080900000000000111e-03 3.060812149775213875e+00
1.250000000000000069e-02 3.301310000000000008e-03 1.447536335755983394e+00
0.000000000000000000e+00 1.201920000000000039e-04 2.703999419490413558e+00
1.250000000000000069e-02 2.076029999999999976e-03 1.051854434222704304e+00
1.874999999999999931e-02 1.687549999999999901e-03 2.610182312602812971e+00
2.812500000000000069e-02 3.089679999999999857e-02 3.981060715063954980e+00
0.000000000000000000e+00 4.489090000000000268e-03 3.367990543322768593e-01
4.687500000000000000e-02 2.586859999999999854e-02 1.593712646462399629e+00
0.000000000000000000e+00 7.125569999999999474e-04 3.935884895678221529e+00
3.125000000000000173e-03 1.413509999999999940e-02 6.580442779213108162e-01
0.000000000000000000e+00 5.967999999999999781e-04 1.333627890731424737e+00
1.562500000000000000e-02 3.161979999999999999e-03 9.759542575967117273e-02
0.000000000000000000e+00 1.321169999999999983e-02 4.779721516250031499e+00
0.000000000000000000e+00 9.432320000000000114e-04 1.950637505512731629e+00
0.000000000000000000e+00 8.789610000000000435e-04 9.834152684855712589e-01
2.187499999999999861e-02 3.853759999999999911e-03 4.587703333275304551e+00
0.000000000000000000e+00 1.082239999999999938e-03 4.216379762316640800e+00
0.000000000000000000e+00 9.880959999999999396e-04 2.323668851154930826e-01
0.000000000000000000e+00 7.301910000000000431e-04 3.704464942479530176e+00
6.250000000000000347e-03 1.058049999999999963e-01 3.564731209795066746e+00
1.250000000000000069e-02 2.706370000000000043e-03 3.580914586351713336e+00
6.250000000000000347e-03 2.954500000000000095e-03 2.818893707045428965e+00
0.000000000000000000e+00 5.682559999999999478e-04 2.037335653969553739e+00
1.562500000000000000e-02 2.441599999999999934e-03 4.176686937034508773e+00
0.000000000000000000e+00 1.863789999999999891e-02 2.307401324560174771e+00
0.000000000000000000e+00 6.124799999999999906e-04 3.438806485138862001e+00
2.812500000000000069e-02 2.875519999999999899e-03 4.815549508652951616e+00
0.000000000000000000e+00 1.227259999999999983e-03 2.303151600839908220e+00
3.125000000000000173e-03 1.883899999999999984e-03 4.441804295862317176e+00
2.500000000000000139e-02 1.458050000000000014e-03 3.113790927886403992e+00
0.000000000000000000e+00 5.861080000000000066e-04 9.191691183571043533e-01
0.000000000000000000e+00 3.824640000000000028e-04 1.603204064376484439e-01
0.000000000000000000e+00 2.156669999999999855e-03 2.710654335262866255e+00
0.000000000000000000e+00 5.273220000000000338e-03 4.019916399068766744e+00
2.500000000000000139e-02 1.769340000000000105e-03 2.830776606582139365e+00
0.000000000000000000e+00 8.398080000000000475e-04 4.597034295372059987e-01
0.000000000000000000e+00 6.152319999999999534e-04 8.977292574766310151e-01
0.000000000000000000e+00 2.271039999999999859e-05 2.295742977969193355e+00
0.000000000000000000e+00 1.005999999999999950e-01 2.595518499111269861e+00
0.000000000000000000e+00 7.861599999999999838e-03 1.861087513765677937e+00
6.250000000000000347e-03 1.509439999999999914e-03 4.913321755143063463e+00
9.374999999999999653e-03 9.660069999999999768e-02 6.997650323433984854e-01
0.000000000000000000e+00 2.179940000000000003e-02 4.828561626184878719e+00
1.874999999999999931e-02 2.460219999999999942e-03 2.097183065065306717e+00
0.000000000000000000e+00 1.405379999999999911e-03 4.489870886131156702e+00
3.125000000000000173e-03 2.519040000000000168e-03 2.316607266928100817e+00
0.000000000000000000e+00 3.770550000000000008e-04 1.472292631453899325e+00
0.000000000000000000e+00 4.157219999999999882e-04 4.166042285974903336e+00
6.250000000000000347e-03 5.622979999999999645e-03 2.727139920724583000e+00
0.000000000000000000e+00 4.316890000000000202e-04 2.051345479584798515e-02
0.000000000000000000e+00 3.765149999999999747e-02 3.514654115491278485e+00
1.562500000000000000e-02 1.284129999999999994e-02 1.026107762917850552e+00
3.125000000000000173e-03 1.784189999999999951e-03 1.408988549580599825e+00
2.812500000000000069e-02 6.498020000000000185e-02 4.858595915573697077e+00
0.000000000000000000e+00 2.206080000000000129e-04 4.530490099724724828e+00
1.562500000000000000e-02 9.277729999999999311e-02 3.958504768432444809e+00
0.000000000000000000e+00 1.077309999999999943e-03 5.135949221847174728e-01
3.437500000000000278e-02 9.173290000000000610e-02 1.284208066572348095e+00
3.125000000000000173e-03 1.738519999999999996e-02 4.436907602125944372e+00
0.000000000000000000e+00 3.712640000000000016e-04 8.634210834324917982e-01
0.000000000000000000e+00 1.071679999999999985e-03 2.476633254495679282e+00
0.000000000000000000e+00 7.700769999999999794e-04 4.103146782998620345e+00
0.000000000000000000e+00 8.483140000000000125e-03 5.549344035504638617e-01
6.250000000000000347e-03 6.553599999999999703e-03 6.370692981926018295e-01
0.000000000000000000e+00 1.073390000000000021e-03 2.111296266813646128e+00
0.000000000000000000e+00 3.532860000000000080e-03 2.496079783264683716e+00
0.000000000000000000e+00 1.510650000000000014e-02 8.685290943206563918e-01
0.000000000000000000e+00 1.841790000000000050e-03 3.479281113096175826e+00
1.562500000000000000e-02 1.377790000000000048e-03 1.083873277824928927e+00
2.500000000000000139e-02 2.659460000000000209e-03 1.591364266762868018e+00
0.000000000000000000e+00 1.133499999999999959e-03 3.501068245427688908e+00
0.000000000000000000e+00 2.301440000000000083e-03 4.876962923414064122e+00
9.374999999999999653e-03 7.787519999999999599e-04 2.038394915822249409e+00
2.812500000000000069e-02 2.150399999999999794e-03 4.700307891111684455e+00
2.812500000000000069e-02 2.630659999999999943e-03 3.021555803691132081e+00
3.125000000000000173e-03 1.000280000000000058e-01 4.940326483145385694e+00
6.250000000000000347e-03 9.807100000000000539e-02 1.201741110553944392e+00
0.000000000000000000e+00 1.882109999999999990e-03 1.495853518121768033e+00
0.000000000000000000e+00 2.678849999999999981e-03 4.149794637809905984e-01
0.000000000000000000e+00 6.729919999999999696e-04 4.470212364250931714e+00
0.000000000000000000e+00 2.207939999999999816e-03 1.336868526125460477e+00
0.000000000000000000e+00 2.535039999999999906e-04 4.254352982705076336e+00
1.250000000000000069e-02 1.919300000000000086e-03 2.875297845028648602e+00
0.000000000000000000e+00 2.442820000000000061e-03 4.825064099035369480e+00
3.125000000000000173e-03 2.032509999999999959e-03 1.441331403827638136e+00
3.125000000000000173e-03 1.685180000000000098e-03 2.839292121203811803e+00
9.374999999999999653e-03 9.414659999999999695e-02 1.557640896452602286e+00
0.000000000000000000e+00 1.100099999999999906e-03 3.383624891932712764e+00
0.000000000000000000e+00 2.691460000000000120e-03 2.169165219614017204e+00
0.000000000000000000e+00 5.147310000000000427e-04 1.403677503678585348e-01
6.250000000000000347e-03 2.100990000000000062e-03 3.807460333909584715e+00
2.187499999999999861e-02 1.766400000000000001e-03 1.379750098344555420e+00
6.250000000000000347e-03 1.386620000000000083e-03 2.382675359164532658e+00
0.000000000000000000e+00 1.010430000000000095e-03 1.844903793508789747e-01
0.000000000000000000e+00 9.845120000000001041e-04 1.248159942815761925e+00
0.000000000000000000e+00 2.451940000000000022e-02 2.154679824757192996e+00
0.000000000000000000e+00 1.764860000000000040e-03 4.919565468044580392e+00
2.187499999999999861e-02 2.030399999999999913e-03 1.898792384749489193e+00
0.000000000000000000e+00 8.976000000000000255e-04 2.818270945767729518e+00
0.000000000000000000e+00 0.000000000000000000e+00 1.805562442879391938e+00
0.000000000000000000e+00 8.856320000000000208e-04 2.470705258574066310e+00
4.374999999999999722e-02 1.039739999999999935e-02 4.692438312271516310e+00
0.000000000000000000e+00 6.091519999999999574e-04 2.388015706466806165e+00
0.000000000000000000e+00 3.809279999999999958e-04 1.410445874619415285e+00
2.187499999999999861e-02 2.834940000000000203e-03 7.443271950265345493e-01
3.125000000000000173e-03 2.655219999999999803e-03 4.389669491814750302e+00
3.125000000000000173e-03 1.951040000000000023e-03 3.062697149044783629e+00
3.125000000000000173e-03 1.803460000000000002e-03 5.789196117293976540e-01
0.000000000000000000e+00 1.504130000000000007e-03 3.960358161115816955e+00
0.000000000000000000e+00 1.641089999999999997e-03 3.301317216111939068e+00
0.000000000000000000e+00 3.112960000000000033e-02 2.191415224223711267e+00
0.000000000000000000e+00 3.976280000000000092e-02 1.658175640701725628e-01
6.250000000000000347e-03 1.066870000000000041e-01 6.820314461619564339e-01
0.000000000000000000e+00 5.352700000000000166e-03 3.012678672942694647e+00
0.000000000000000000e+00 1.591619999999999971e-03 2.578551465882350957e+00
3.125000000000000173e-03 1.175620000000000050e-03 4.039122504454294216e+00
3.437500000000000278e-02 9.248149999999999427e-02 1.209135719452249624e+00
0.000000000000000000e+00 1.213759999999999926e-03 2.747052442155304419e+00
0.000000000000000000e+00 7.070079999999999637e-04 1.900297455159913440e+00
9.374999999999999653e-03 1.973700000000000107e-02 3.635800616238347160e+00
0.000000000000000000e+00 1.158589999999999924e-03 4.970930454358091222e-01
0.000000000000000000e+00 3.446090000000000069e-04 1.494863885640300705e+00
3.125000000000000173e-03 1.817409999999999989e-03 1.851883008291321797e-01
0.000000000000000000e+00 1.747520000000000020e-03 2.396193843162880421e-01
0.000000000000000000e+00 4.632319999999999992e-04 2.739343846440406294e-01
0.000000000000000000e+00 6.247040000000000145e-04 3.689948812634517683e+00
6.250000000000000347e-03 6.553599999999999703e-03 3.279973417007411296e+00
2.500000000000000139e-02 9.215049999999999630e-02 4.458807711355238901e+00
1.874999999999999931e-02 3.112129999999999844e-03 3.653973496543481136e+00
0.000000000000000000e+00 1.814339999999999979e-05 4.846170417801846320e+00
3.125000000000000173e-03 4.915199999999999778e-03 4.176767109715450843e+00
8.125000000000000278e-02 1.927020000000000122e-02 4.991741785403031040e-01
3.125000000000000000e-02 9.401139999999999497e-02 4.304663684945864155e-03
0.000000000000000000e+00 7.275619999999999570e-04 2.351869402984735347e-01
3.125000000000000173e-03 9.506649999999999823e-02 2.765822249562246427e+00
0.000000000000000000e+00 3.779200000000000137e-04 4.943728540466935328e+00
0.000000000000000000e+00 1.200230000000000047e-03 1.977171229215519244e+00
0.000000000000000000e+00 1.688260000000000021e-03 3.964044344131904651e+00
1.000000000000000056e-01 8.055690000000000073e-02 8.611611811511959980e-01
0.000000000000000000e+00 1.958399999999999952e-04 1.929580556018315463e+00
3.125000000000000173e-03 1.236799999999999922e-03 8.200268150350659146e-01
1.562500000000000000e-02 1.300059999999999931e-02 9.712623553244420505e-01
0.000000000000000000e+00 4.480649999999999867e-05 9.251360419121607004e-01
0.000000000000000000e+00 1.684219999999999945e-03 2.307507916216002375e+00
9.374999999999999653e-03 1.752000000000000085e-03 4.574926375447167182e+00
2.500000000000000139e-02 7.925760000000000444e-03 4.319670852725127297e+00
2.187499999999999861e-02 4.020290000000000148e-03 5.843871647986365048e-01
2.187499999999999861e-02 9.221680000000000155e-02 1.586159729094022142e+00
0.000000000000000000e+00 1.056649999999999907e-03 4.849491247341807920e+00
0.000000000000000000e+00 2.395899999999999853e-03 9.710194722677978341e-03
0.000000000000000000e+00 2.165180000000000056e-03 2.901823260301826579e+00
6.875000000000000555e-02 5.527089999999999781e-02 3.692423809229707921e+00
0.000000000000000000e+00 2.805499999999999834e-03 2.380818469882941990e+00
0.000000000000000000e+00 1.074819999999999985e-03 3.441950628239387022e+00
0.000000000000000000e+00 3.123009999999999849e-03 2.931002521615341916e+00
0.000000000000000000e+00 0.000000000000000000e+00 3.769646972087016934e+00
9.374999999999999653e-03 7.272319999999999653e-04 3.200629544204236510e+00
1.874999999999999931e-02 2.569150000000000079e-03 2.194015075925381364e+00
6.250000000000000347e-03 1.056559999999999964e-02 4.069263769842419443e+00
6.250000000000000347e-03 4.347840000000000038e-02 3.531997554745043733e+00
5.312499999999999861e-02 9.238960000000000228e-02 1.265951372229436878e+00
2.500000000000000139e-02 8.254459999999999922e-03 4.054439807580608957e+00
0.000000000000000000e+00 3.064319999999999826e-04 1.110306223387110824e+00
0.000000000000000000e+00 1.954559999999999935e-04 2.844881623900992640e+00
2.500000000000000139e-02 9.379850000000000687e-02 1.074053941892687547e+00
1.250000000000000069e-02 1.917440000000000073e-03 2.945477749874620521e+00
0.000000000000000000e+00 2.171139999999999789e-03 3.241981365765378431e+00
0.000000000000000000e+00 7.078759999999999697e-04 1.979241918291460012e+00
0.000000000000000000e+00 9.765120000000000180e-04 2.204753915250895702e+00
2.187499999999999861e-02 1.396289999999999901e-03 1.102024172359639564e+00
0.000000000000000000e+00 2.286039999999999885e-05 4.366231753930037485e+00
0.000000000000000000e+00 7.149940000000000462e-04 3.148261834081659938e+00
0.000000000000000000e+00 1.596739999999999922e-03 2.064348601792070248e+00
0.000000000000000000e+00 1.204739999999999934e-03 4.866922128503259337e-02
0.000000000000000000e+00 8.401920000000000222e-04 3.944582653117993498e+00
2.187499999999999861e-02 2.779460000000000090e-03 2.923219272705175786e+00
6.250000000000000347e-03 1.729639999999999954e-03 3.098826242044140145e+00
0.000000000000000000e+00 2.298699999999999862e-05 2.787997098222571246e+00
0.000000000000000000e+00 2.293899999999999840e-05 3.450988848606945769e+00
2.500000000000000139e-02 9.244410000000000127e-02 3.181752559663579838e+00
3.125000000000000173e-03 1.790719999999999985e-03 4.473794356901971803e+00
2.812500000000000069e-02 3.265090000000000006e-03 1.532388361066794324e+00
1.562500000000000000e-02 1.644030000000000101e-03 3.821809194690775069e+00
0.000000000000000000e+00 4.938269999999999596e-04 4.176447261574321779e+00
0.000000000000000000e+00 1.949429999999999913e-02 2.209204010855367883e+00
0.000000000000000000e+00 8.776959999999999667e-04 1.294612084370408978e+00
0.000000000000000000e+00 1.139459999999999909e-03 3.486418450147083625e+00
0.000000000000000000e+00 3.312639999999999942e-03 4.310184453259310544e+00
0.000000000000000000e+00 1.024320000000000005e-03 1.916079925800533879e+00
0.000000000000000000e+00 1.067390000000000092e-03 1.791347118602104604e-01
3.125000000000000173e-03 1.377420000000000033e-02 1.806405604153206834e+00
3.125000000000000173e-03 9.297289999999999721e-03 2.794839612587391553e+00
0.000000000000000000e+00 1.207229999999999892e-03 1.136874973822757262e+00
1.562500000000000000e-02 2.024380000000000103e-03 1.422477755626064155e+00
3.125000000000000173e-03 2.570390000000000088e-03 1.437429563296806379e+00
0.000000000000000000e+00 1.829059999999999974e-03 3.212990059950242117e+00
0.000000000000000000e+00 1.281149999999999997e-03 2.754602417858004859e+00
0.000000000000000000e+00 1.328830000000000029e-03 4.846900354274157330e+00
6.250000000000000347e-03 3.434689999999999792e-03 4.435207341696849603e+00
3.125000000000000173e-03 2.224830000000000124e-03 4.060297923393061836e+00
3.749999999999999861e-02 1.066909999999999942e-01 4.495571579297240383e+00
0.000000000000000000e+00 5.092169999999999596e-04 1.598692139424308101e+00
1.562500000000000000e-02 3.873859999999999804e-03 3.412711565458819596e+00
0.000000000000000000e+00 1.118140000000000106e-03 1.383824158751926880e+00
0.000000000000000000e+00 3.223619999999999958e-03 4.057692502581409677e+00
3.125000000000000173e-03 9.809110000000000051e-02 3.955079793258286625e+00
0.000000000000000000e+00 1.025730000000000088e-03 4.160617625658362684e+00
0.000000000000000000e+00 6.709880000000000011e-02 2.392777603557227906e+00
0.000000000000000000e+00 9.632640000000000256e-04 3.667435971840975029e+00
1.562500000000000000e-02 1.484349999999999949e-03 2.806735985342483364e+00
1.250000000000000069e-02 7.980160000000000248e-04 2.392714402723890466e+00
0.000000000000000000e+00 3.228219999999999961e-03 2.849426460787394255e+00
3.125000000000000173e-03 1.801730000000000085e-03 4.204468628304358191e+00
3.125000000000000173e-03 1.579710000000000012e-03 4.702446611021322553e+00
0.000000000000000000e+00 9.891839999999999401e-04 3.181875947710131491e+00
1.250000000000000069e-02 3.537339999999999929e-03 1.157186903215232210e+00
3.125000000000000000e-02 9.148950000000000138e-02 8.796291225169294847e-01
2.500000000000000139e-02 3.108099999999999925e-03 3.932502433258566743e-01
0.000000000000000000e+00 9.228799999999999460e-04 3.107521359163180730e+00
0.000000000000000000e+00 2.928640000000000149e-03 4.900651635381519933e-01
1.562500000000000000e-02 2.164419999999999799e-03 2.647842907793895861e-01
0.000000000000000000e+00 1.017469999999999920e-03 3.162202378983851592e+00
2.812500000000000069e-02 2.757819999999999803e-03 1.869609426436553701e+00
2.187499999999999861e-02 9.216839999999999755e-02 3.734372127471528025e+00
4.374999999999999722e-02 9.115220000000000267e-02 3.193823194720270209e+00
0.000000000000000000e+00 1.545600000000000110e-04 2.554778420577648923e+00
0.000000000000000000e+00 1.443009999999999996e-03 3.129398518614138869e+00
2.187499999999999861e-02 2.088000000000000012e-03 2.020107453618392057e+00
3.125000000000000000e-02 1.087439999999999934e-02 3.419552232955914040e+00
0.000000000000000000e+00 3.431679999999999778e-04 6.465326764484857769e-03
3.125000000000000173e-03 2.551299999999999835e-03 3.719167394310923802e-01
3.437500000000000278e-02 7.563030000000000100e-03 4.426811700577166775e+00
0.000000000000000000e+00 1.259780000000000058e-03 4.325603577648740483e+00
2.187499999999999861e-02 2.158719999999999823e-03 4.568469321843624087e+00
0.000000000000000000e+00 4.888959999999999487e-04 1.854212098911006690e+00
0.000000000000000000e+00 9.400740000000000528e-04 3.901236816752229331e+00
0.000000000000000000e+00 3.574979999999999846e-04 2.864964282291222464e+00
0.000000000000000000e+00 7.190980000000000462e-04 4.657759030820983526e+00
1.874999999999999931e-02 2.243460000000000072e-03 3.470355935552371207e+00
9.374999999999999653e-03 2.591099999999999827e-03 2.011174955684277066e+00
0.000000000000000000e+00 1.059669999999999970e-03 1.263597386897433061e+00
0.000000000000000000e+00 4.767689999999999884e-04 1.261520536600412301e+00
3.125000000000000173e-03 3.741730000000000056e-02 4.895827128023472419e+00
3.125000000000000173e-03 9.578870000000000440e-02 1.823882385416007335e+00
6.250000000000000347e-03 3.905220000000000045e-03 1.384885655087044753e+00
0.000000000000000000e+00 1.586559999999999934e-04 1.761113995767540352e+00
0.000000000000000000e+00 1.133310000000000003e-03 3.959760593588470101e+00
3.125000000000000173e-03 5.566399999999999994e-03 2.867891966235736501e+00
0.000000000000000000e+00 0.000000000000000000e+00 2.647658721276886507e+00
3.125000000000000173e-03 1.603779999999999963e-03 1.766325120306528440e+00
0.000000000000000000e+00 1.133380000000000021e-03 3.352970103713934780e+00
0.000000000000000000e+00 4.261749999999999913e-04 2.436680668847317488e+00
0.000000000000000000e+00 1.049730000000000021e-03 2.850555208217312675e+00
2.812500000000000069e-02 3.987069999999999677e-03 3.556891246147902974e-01
2.812500000000000069e-02 1.257599999999999994e-03 2.026168158739610092e+00
0.000000000000000000e+00 1.097090000000000001e-03 2.370643337711872523e+00
0.000000000000000000e+00 3.756160000000000033e-04 1.801791769533651610e+00
0.000000000000000000e+00 2.325159999999999944e-05 8.729311655487737021e-02
0.000000000000000000e+00 5.309439999999999906e-04 6.849696832492124798e-01
0.000000000000000000e+00 2.663039999999999765e-04 8.475915186108040622e-01
3.125000000000000173e-03 1.742080000000000017e-03 1.438415974007654086e+00
0.000000000000000000e+00 8.187260000000000024e-03 1.765524010996228466e+00
0.000000000000000000e+00 4.221350000000000232e-04 2.535592996622106465e+00
9.687500000000000278e-02 9.164460000000000661e-02 3.536140775005629511e+00
2.187499999999999861e-02 2.304769999999999822e-03 2.983201244192963841e+00
0.000000000000000000e+00 1.082429999999999894e-03 5.088471445273723415e-01
3.125000000000000173e-03 7.917830000000000701e-03 3.945087709162459433e+00
0.000000000000000000e+00 7.294860000000000016e-04 3.372965977559859052e+00
0.000000000000000000e+00 9.807929999999999860e-04 2.883648709132389243e+00
9.374999999999999653e-03 9.831779999999999686e-02 3.713787664703854796e-01
0.000000000000000000e+00 4.247000000000000232e-04 3.206251829386510099e+00
3.125000000000000173e-03 1.737660000000000029e-03 7.435424127340689582e-01
1.874999999999999931e-02 1.686140000000000035e-03 1.820636132547454045e-01
1.250000000000000069e-02 3.816899999999999807e-03 1.059883897258068197e-01
0.000000000000000000e+00 4.313049999999999913e-04 2.685747880665712017e-01
2.500000000000000139e-02 7.787709999999999771e-03 4.676064047682995550e+00
0.000000000000000000e+00 3.799659999999999843e-03 4.295414514961190200e+00
3.125000000000000173e-03 1.596289999999999992e-03 3.831811511136521631e+00
0.000000000000000000e+00 1.757059999999999959e-03 2.130529548109820315e+00
9.374999999999999653e-03 9.545370000000000243e-02 1.910239897740078518e+00
0.000000000000000000e+00 5.115249999999999788e-04 4.145411317522656347e+00
0.000000000000000000e+00 1.641539999999999926e-03 1.805520855837350336e-02
0.000000000000000000e+00 1.165500000000000086e-03 1.704873164872668934e+00
9.374999999999999653e-03 2.931459999999999882e-03 3.461800629371775351e+00
0.000000000000000000e+00 1.407999999999999963e-03 3.440814315118727595e+00
9.374999999999999653e-03 7.166720000000000122e-04 4.753019013577831409e+00
3.125000000000000173e-03 2.324989999999999869e-03 8.854189958074665245e-01
1.562500000000000000e-02 2.273090000000000180e-03 1.912199376066958667e-01
0.000000000000000000e+00 1.455740000000000072e-03 2.186972899889807476e+00
2.812500000000000069e-02 9.796030000000000015e-02 4.084548973382766235e+00
6.250000000000000347e-03 6.553599999999999703e-03 2.521963379172653674e-01
1.250000000000000069e-02 1.056239999999999957e-01 3.018914649344047518e+00
1.874999999999999931e-02 1.772029999999999959e-03 2.820260250882321351e+00
0.000000000000000000e+00 4.243149999999999786e-04 4.491116455424508658e+00
0.000000000000000000e+00 1.037500000000000011e-03 2.552403831404392864e-01
0.000000000000000000e+00 0.000000000000000000e+00 4.289866178265108410e+00
5.312499999999999861e-02 9.286060000000000147e-02 1.207126934780106131e-01
0.000000000000000000e+00 1.657540000000000098e-03 3.767781918543510855e+00
3.125000000000000173e-03 1.813949999999999937e-03 3.346365699170233965e-01
