0.000000000000000000e+00 4.265599999999999817e-04 3.594891715943639543e+00
0.000000000000000000e+00 6.632320000000000359e-04 1.513434057410739664e-01
0.000000000000000000e+00 4.903680000000000322e-04 4.465589706244171175e+00
9.374999999999999653e-03 2.813819999999999863e-03 3.035378416267748847e+00
2.500000000000000139e-02 9.281359999999999610e-02 2.115898747999674256e+00
0.000000000000000000e+00 3.932799999999999751e-04 9.906416180293564633e-01
0.000000000000000000e+00 3.573119999999999834e-04 1.013421639671597152e+00
0.000000000000000000e+00 1.003140000000000021e-03 2.158109663213190643e+00
6.250000000000000347e-03 1.426430000000000016e-03 3.932319434664649505e-01
0.000000000000000000e+00 1.006120000000000105e-03 1.431767038426304151e+00
1.562500000000000000e-02 1.862720000000000001e-03 1.213247872914235526e+00
5.000000000000000278e-02 8.930940000000000059e-03 2.989646200379231233e-01
0.000000000000000000e+00 1.837440000000000080e-04 3.041594134540071437e+00
1.562500000000000000e-02 8.165379999999999860e-03 9.057506457451292015e-01
2.187499999999999861e-02 2.894659999999999855e-03 3.111208572448713294e+00
5.625000000000000139e-02 4.017960000000000281e-02 9.094002039103749047e-01
0.000000000000000000e+00 6.899849999999999473e-04 2.116017676443382900e+00
3.125000000000000173e-03 2.572290000000000080e-03 2.232227876362362196e+00
0.000000000000000000e+00 1.017729999999999893e-03 3.748854341241541377e+00
0.000000000000000000e+00 1.504890000000000047e-02 4.489264633014422579e-01
0.000000000000000000e+00 8.963200000000000377e-04 4.298331165910803442e+00
1.874999999999999931e-02 2.499330000000000128e-03 2.324804422746090893e+00
1.250000000000000069e-02 9.472170000000000589e-02 4.475741574575097026e+00
0.000000000000000000e+00 7.971840000000000436e-04 1.432673239622428429e+00
2.812500000000000069e-02 9.370249999999999413e-02 2.805423768671959639e+00
0.000000000000000000e+00 5.614080000000000025e-04 2.729377370008761350e+00
0.000000000000000000e+00 7.879039999999999698e-04 1.302416384552118611e-01
0.000000000000000000e+00 1.155980000000000028e-03 1.425056103941252372e+00
3.437500000000000278e-02 1.072189999999999949e-01 4.218487037409285323e-01
0.000000000000000000e+00 3.603200000000000196e-04 8.013743127690359236e-01
0.000000000000000000e+00 3.385130000000000083e-02 5.569360191498107238e-01
9.374999999999999653e-03 9.482480000000000075e-02 4.991879622998443899e+00
0.000000000000000000e+00 1.616260000000000006e-03 4.861164340978762155e+00
3.125000000000000173e-03 2.915899999999999916e-03 3.336053371421479952e+00
0.000000000000000000e+00 5.372799999999999625e-03 4.803268466256440661e+00
1.874999999999999931e-02 2.537980000000000010e-03 1.048948446922362443e+00
2.187499999999999861e-02 1.955970000000000018e-03 3.353868738194702104e+00
6.250000000000000347e-03 1.409599999999999916e-02 4.936614383224448233e+00
1.562500000000000000e-02 5.467579999999999663e-03 2.846436085624703960e-01
1.874999999999999931e-02 2.405379999999999931e-03 5.630629966909983519e-01
1.874999999999999931e-02 6.967619999999999890e-03 2.228845254583870616e+00
6.250000000000000347e-03 9.690849999999999465e-02 3.597560288377460225e+00
0.000000000000000000e+00 4.395460000000000339e-03 2.291098991804874085e-01
3.125000000000000000e-02 3.924219999999999792e-02 3.838230425845894356e+00
0.000000000000000000e+00 5.408190000000000219e-03 2.090792157994644906e+00
0.000000000000000000e+00 4.422589999999999681e-03 1.342165802019370968e+00
0.000000000000000000e+00 9.597440000000000051e-04 1.583281051607692280e+00
2.187499999999999861e-02 9.531470000000000220e-02 1.932658488225096338e+00
0.000000000000000000e+00 3.148610000000000037e-03 4.525710520564126149e+00
0.000000000000000000e+00 4.282269999999999913e-04 4.221559046429714357e+00
0.000000000000000000e+00 2.659200000000000019e-04 3.602001606384996002e+00
0.000000000000000000e+00 2.038719999999999942e-03 3.095926120171117901e+00
1.874999999999999931e-02 9.436150000000000093e-02 4.832550518171807141e+00
0.000000000000000000e+00 3.774399999999999912e-04 4.450000656480908034e+00
0.000000000000000000e+00 2.379710000000000159e-03 2.413463944216005075e+00
0.000000000000000000e+00 3.211649999999999922e-03 4.084171579818148601e+00
0.000000000000000000e+00 2.040380000000000058e-03 3.309283120060219296e+00
0.000000000000000000e+00 2.893010000000000026e-02 2.043688642015647261e+00
0.000000000000000000e+00 6.378879999999999750e-04 1.644812941256327266e+00
0.000000000000000000e+00 4.897659999999999861e-03 2.024636636140287216e+00
0.000000000000000000e+00 2.371709999999999964e-03 3.294184263220094167e+00
0.000000000000000000e+00 4.454979999999999878e-03 1.059501892311508486e+00
0.000000000000000000e+00 9.585420000000000528e-04 3.466916013686021536e+00
0.000000000000000000e+00 9.534079999999999899e-04 5.514654441704364141e-01
6.250000000000000347e-03 1.692959999999999951e-02 2.384303031893162839e+00
6.250000000000000347e-03 1.730800000000000047e-02 3.036241165373609885e-01
0.000000000000000000e+00 7.251840000000000282e-04 7.347342300629444711e-01
0.000000000000000000e+00 1.512320000000000049e-04 7.118283845647060959e-01
2.500000000000000139e-02 9.230040000000000466e-02 2.791042644006089368e+00
6.250000000000000347e-03 9.723959999999999548e-02 2.090757578580814791e+00
1.874999999999999931e-02 7.091140000000000117e-03 4.550866670610838050e+00
0.000000000000000000e+00 1.216580000000000092e-03 4.737079364867120113e+00
9.374999999999999653e-03 1.049500000000000016e-01 2.208134669636217406e+00
0.000000000000000000e+00 1.617920000000000122e-04 2.942257928350505702e-01
1.562500000000000000e-02 2.876290000000000097e-03 2.546525213134393617e+00
0.000000000000000000e+00 3.900800000000000057e-04 1.008188748636543730e+00
6.250000000000000347e-03 2.833830000000000029e-02 3.845752627656921607e+00
1.250000000000000069e-02 2.114050000000000130e-03 1.777985964182149825e+00
0.000000000000000000e+00 2.160580000000000053e-03 4.763735117318494972e+00
0.000000000000000000e+00 3.313340000000000122e-03 2.155007138397542210e+00
0.000000000000000000e+00 4.302850000000000424e-03 3.455510733918072841e+00
0.000000000000000000e+00 6.891519999999999504e-04 4.326851717108942452e+00
1.874999999999999931e-02 3.311189999999999967e-02 3.704814429513842988e+00
1.874999999999999931e-02 2.431870000000000039e-03 2.450742057222770054e+00
0.000000000000000000e+00 2.687940000000000208e-03 1.209365213390706240e+00
0.000000000000000000e+00 2.634050000000000193e-03 1.602539647555580871e+00
3.125000000000000173e-03 5.728770000000000216e-03 1.321621778617306786e+00
0.000000000000000000e+00 5.274560000000000186e-03 2.849926973392189922e+00
9.374999999999999653e-03 1.543169999999999958e-03 3.969904403076896848e+00
1.562500000000000000e-02 2.621439999999999881e-02 2.813206197978482592e+00
0.000000000000000000e+00 5.798590000000000168e-03 2.373246828689774990e+00
0.000000000000000000e+00 4.622979999999999624e-03 2.522419302098004135e+00
0.000000000000000000e+00 1.023180000000000053e-03 7.812454450185107868e-01
0.000000000000000000e+00 6.946660000000000335e-04 2.604932648935872841e+00
0.000000000000000000e+00 1.006399999999999960e-03 1.466717922805909069e+00
0.000000000000000000e+00 8.696380000000000082e-03 3.955413490177123181e-01
0.000000000000000000e+00 2.221870000000000125e-05 4.863771697822815376e+00
0.000000000000000000e+00 9.182080000000000016e-04 4.008324079628237335e+00
1.250000000000000069e-02 1.620629999999999987e-02 3.625496769496904470e+00
5.000000000000000278e-02 9.355520000000000849e-03 3.135395560447332031e+00
1.562500000000000000e-02 3.643489999999999923e-02 2.864705841437818368e+00
0.000000000000000000e+00 3.583360000000000061e-04 4.623712969527901784e+00
1.250000000000000069e-02 1.005029999999999951e-01 3.015816271172282015e+00
0.000000000000000000e+00 7.791189999999999921e-04 4.891355729228785698e+00
0.000000000000000000e+00 1.285709999999999978e-02 2.712775180490375249e+00
1.250000000000000069e-02 9.184420000000000084e-02 4.981213921758364194e+00
0.000000000000000000e+00 7.589120000000000414e-04 6.376010337844628673e-01
3.125000000000000173e-03 3.058749999999999837e-03 3.521275780858621918e+00
0.000000000000000000e+00 1.208899999999999949e-03 1.745238457309616908e-02
0.000000000000000000e+00 1.369090000000000107e-03 2.060898898213516350e+00
0.000000000000000000e+00 4.676930000000000150e-03 5.476652975860119010e-01
3.437500000000000278e-02 1.027540000000000051e-02 4.433861395437071806e+00
6.250000000000000347e-03 5.593599999999999788e-03 4.764911875428434751e-02
0.000000000000000000e+00 4.290599999999999883e-04 9.667152353433977607e-01
0.000000000000000000e+00 1.677759999999999928e-03 2.960257591740572458e+00
0.000000000000000000e+00 1.503620000000000000e-03 8.877720004983441493e-01
1.562500000000000000e-02 2.010300000000000021e-03 1.721456071527010412e+00
0.000000000000000000e+00 4.430210000000000398e-03 3.717100592968749506e+00
0.000000000000000000e+00 2.283160000000000007e-05 2.410529213655223213e+00
6.250000000000000347e-03 3.516600000000000281e-02 4.308848588230272725e+00
3.125000000000000173e-03 3.276799999999999852e-03 4.897258276967721535e+00
0.000000000000000000e+00 4.432959999999999678e-03 4.597385296534762134e+00
9.374999999999999653e-03 3.292859999999999884e-03 1.003261797841389358e+00
1.874999999999999931e-02 2.071359999999999955e-03 1.221941129139081372e+00
0.000000000000000000e+00 6.623360000000000228e-04 1.638979175052670101e+00
0.000000000000000000e+00 1.094719999999999981e-03 3.903081380453304661e+00
3.125000000000000173e-03 3.468899999999999761e-02 5.659915516407160174e-01
2.812500000000000069e-02 2.319419999999999989e-03 1.108127855263920658e+00
0.000000000000000000e+00 4.031360000000000108e-04 4.108741524164686076e+00
2.812500000000000069e-02 2.191040000000000001e-03 9.786916611787954690e-01
0.000000000000000000e+00 5.012480000000000364e-04 3.115110835466228245e-02
2.500000000000000139e-02 2.923579999999999842e-03 8.127560351526824656e-01
9.374999999999999653e-03 1.061919999999999947e-01 1.042768414032857471e+00
0.000000000000000000e+00 2.779579999999999811e-03 4.606841078118796950e+00
9.374999999999999653e-03 6.915100000000000413e-03 9.666416751112688610e-01
3.125000000000000173e-03 6.848639999999999806e-04 1.286931035860054973e+00
3.125000000000000173e-03 9.877700000000000369e-02 1.486747311051579423e+00
0.000000000000000000e+00 1.225090000000000076e-03 2.467265998211453759e+00
6.250000000000000347e-03 1.672960000000000029e-03 5.911775561965432191e-01
2.812500000000000069e-02 9.243600000000000427e-02 3.359943424245060761e+00
9.062499999999999722e-02 4.176760000000000195e-02 3.714863266425498356e+00
3.125000000000000173e-03 5.633860000000000083e-03 2.699342519942347529e+00
0.000000000000000000e+00 1.380219999999999928e-03 4.647392298153135703e-01
6.250000000000000347e-03 4.012770000000000226e-02 2.653416875598215263e+00
0.000000000000000000e+00 2.768130000000000156e-03 1.479070832814642911e+00
1.874999999999999931e-02 1.681919999999999943e-03 4.028602330049756652e+00
2.187499999999999861e-02 3.516930000000000143e-03 3.464170636259513270e+00
0.000000000000000000e+00 3.976319999999999768e-04 1.880737510583030403e-01
0.000000000000000000e+00 2.232319999999999932e-04 4.798345733500158694e+00
0.000000000000000000e+00 1.777259999999999951e-02 1.934199514878748305e+00
0.000000000000000000e+00 2.202050000000000033e-05 2.575380068727941119e+00
0.000000000000000000e+00 1.133569999999999977e-03 3.523115243598196500e+00
0.000000000000000000e+00 7.335259999999999697e-04 4.970829634112094997e-01
0.000000000000000000e+00 2.669700000000000111e-03 4.429760490384509808e+00
3.125000000000000173e-03 3.571300000000000169e-02 4.813233024125075588e+00
2.500000000000000139e-02 2.840000000000000076e-03 8.548319845117602345e-01
0.000000000000000000e+00 4.489410000000000102e-03 4.513973127976109723e+00
2.812500000000000069e-02 6.914240000000000316e-03 2.216546304679035018e+00
0.000000000000000000e+00 3.843839999999999844e-04 4.231084656894580576e+00
4.062500000000000139e-02 9.099519999999999831e-03 4.854358012661379007e+00
0.000000000000000000e+00 4.193919999999999853e-04 6.813162765444313873e-01
0.000000000000000000e+00 1.026049999999999922e-03 1.085626898478510682e+00
0.000000000000000000e+00 1.133630000000000054e-03 3.989365488442999652e+00
0.000000000000000000e+00 1.347200000000000003e-03 4.287060798404613848e+00
1.874999999999999931e-02 3.023230000000000015e-03 3.993775956607390043e+00
0.000000000000000000e+00 4.523779999999999815e-03 2.148208337611419605e+00
3.125000000000000173e-03 8.141440000000000439e-04 6.384253032443759635e-01
3.125000000000000173e-03 1.455749999999999926e-02 1.812806974100500845e+00
0.000000000000000000e+00 1.897539999999999991e-02 3.860338122630286861e+00
5.937499999999999722e-02 9.317469999999999919e-02 1.032398625428684991e+00
1.562500000000000000e-02 2.290180000000000167e-03 3.568653279497992603e+00
0.000000000000000000e+00 1.350140000000000107e-03 4.757167952916327103e+00
0.000000000000000000e+00 4.731070000000000414e-03 1.047434866151297772e-01
0.000000000000000000e+00 6.323209999999999942e-02 4.901022474457985112e+00
0.000000000000000000e+00 1.184319999999999991e-03 3.584731569118731365e+00
0.000000000000000000e+00 2.030530000000000009e-03 4.824869414070777296e+00
0.000000000000000000e+00 4.436810000000000233e-04 1.580364252326109220e+00
0.000000000000000000e+00 9.627099999999999764e-04 2.064631516918591370e-01
0.000000000000000000e+00 4.505340000000000039e-03 5.781066626424885557e-01
0.000000000000000000e+00 4.712260000000000233e-03 7.670292534126227357e-01
0.000000000000000000e+00 1.663380000000000067e-02 3.566502695843154491e-01
3.125000000000000173e-03 9.981360000000000232e-02 1.159193996454668696e+00
0.000000000000000000e+00 3.919999999999999873e-04 2.342033416567279147e+00
0.000000000000000000e+00 1.779669999999999852e-05 3.375314047601152279e+00
6.250000000000000347e-03 1.298400000000000075e-02 2.874995216175455948e+00
3.437500000000000278e-02 9.198240000000000582e-02 1.007981803170657109e+00
6.250000000000000347e-03 1.348929999999999921e-03 3.578342112825105392e+00
0.000000000000000000e+00 1.984060000000000164e-03 2.074668026151165190e+00
3.125000000000000173e-03 1.039230000000000015e-02 2.934701052372421515e+00
3.125000000000000173e-03 1.021279999999999931e-02 3.588997279954758923e+00
0.000000000000000000e+00 1.127189999999999919e-03 6.084957635300980439e-01
6.250000000000000347e-03 6.595140000000000204e-03 1.081430674401288705e+00
0.000000000000000000e+00 9.932160000000001075e-04 3.888723197960080036e+00
0.000000000000000000e+00 2.253680000000000079e-05 1.512190926017588755e+00
0.000000000000000000e+00 1.073020000000000050e-03 4.677058327422933814e+00
2.187499999999999861e-02 2.252420000000000203e-03 2.243223292151117043e+00
0.000000000000000000e+00 1.174780000000000052e-03 1.413807420291413486e+00
6.250000000000000347e-03 2.562050000000000178e-03 2.170243605621892335e+00
0.000000000000000000e+00 4.348539999999999697e-03 2.546745689772817567e+00
4.374999999999999722e-02 9.606530000000000624e-02 3.865997880351945692e+00
0.000000000000000000e+00 1.054589999999999998e-03 4.638626837416837567e+00
6.250000000000000347e-03 9.679300000000000057e-03 1.595866408929712543e+00
0.000000000000000000e+00 2.630079999999999918e-03 4.861810409396910337e+00
0.000000000000000000e+00 2.377470000000000017e-03 1.660181347096933990e+00
2.187499999999999861e-02 1.054630000000000012e-01 1.841716209767901846e-01
6.875000000000000555e-02 4.231030000000000207e-02 1.163882213340283744e-01
0.000000000000000000e+00 7.272420000000000143e-04 3.535739034826407279e-01
1.562500000000000000e-02 6.885119999999999565e-04 3.093977268544162662e+00
3.125000000000000173e-03 1.743490000000000100e-03 3.429377410201768228e+00
0.000000000000000000e+00 9.955840000000000956e-04 3.619412653659521251e+00
0.000000000000000000e+00 4.729340000000000280e-03 1.549672287590542208e+00
0.000000000000000000e+00 3.014849999999999908e-03 2.393226500078582397e-01
0.000000000000000000e+00 2.167039999999999852e-03 3.647904196169202251e+00
0.000000000000000000e+00 4.617920000000000184e-03 3.619459856319036994e+00
0.000000000000000000e+00 1.458689999999999900e-03 3.778061759011108300e+00
0.000000000000000000e+00 1.095040000000000032e-03 2.136810314354659068e-01
3.125000000000000173e-03 1.732849999999999972e-03 1.210286809436372790e-01
9.374999999999999653e-03 1.122619999999999955e-03 2.720441210376335128e+00
0.000000000000000000e+00 7.083249999999999920e-04 8.476544191656265603e-01
0.000000000000000000e+00 1.081850000000000086e-03 1.650011123071849495e+00
2.187499999999999861e-02 2.946369999999999805e-03 3.106719313705887497e+00
0.000000000000000000e+00 5.454780000000000219e-03 4.814344082994065133e+00
3.125000000000000173e-03 1.717779999999999915e-03 3.427224307677298576e+00
3.125000000000000173e-03 6.516480000000000059e-04 3.903465106428898324e+00
0.000000000000000000e+00 1.307519999999999950e-03 6.309656451662770671e-01
1.250000000000000069e-02 3.269569999999999855e-03 4.215487253548266366e+00
4.062500000000000139e-02 3.094569999999999960e-02 2.780967446687994560e+00
0.000000000000000000e+00 3.816320000000000216e-04 3.249698541957208420e+00
3.125000000000000173e-03 2.886339999999999826e-03 4.507734218292280826e-01
0.000000000000000000e+00 3.182079999999999891e-03 2.535550064529505931e+00
2.500000000000000139e-02 2.685379999999999798e-03 3.429609083464112196e+00
0.000000000000000000e+00 4.391679999999999803e-04 2.163813401235406442e+00
3.125000000000000173e-03 9.736279999999999935e-02 3.867244542189930634e+00
0.000000000000000000e+00 1.947569999999999857e-02 3.497299323024462669e+00
3.125000000000000173e-03 6.346239999999999737e-04 1.747618315012772205e+00
0.000000000000000000e+00 6.439679999999999710e-04 1.747084373159760728e+00
5.625000000000000139e-02 1.003700000000000078e-02 3.841778543388713052e-01
0.000000000000000000e+00 7.691520000000000518e-04 3.755363039782767309e+00
0.000000000000000000e+00 8.012989999999999349e-03 5.471666377469230902e-01
1.562500000000000000e-02 2.516579999999999859e-02 3.177204789953130826e-01
0.000000000000000000e+00 1.214019999999999900e-03 3.152382388302332750e+00
3.749999999999999861e-02 9.172660000000000535e-02 4.298092493974311701e+00
4.374999999999999722e-02 1.048059999999999964e-01 4.264416775382493086e+00
0.000000000000000000e+00 1.827819999999999966e-03 4.730319627384188763e+00
6.250000000000000347e-03 1.026269999999999960e-02 4.412772346032562076e+00
3.437500000000000278e-02 9.277860000000000273e-02 3.310574320262478665e+00
2.500000000000000139e-02 2.081920000000000125e-03 4.083576378410057828e+00
0.000000000000000000e+00 1.153380000000000030e-02 4.136641852290806831e+00
0.000000000000000000e+00 1.040149999999999929e-02 3.644672908070308637e+00
0.000000000000000000e+00 4.626179999999999702e-03 1.504256824783712254e+00
0.000000000000000000e+00 2.206140000000000097e-03 2.171968836867650854e+00
2.812500000000000069e-02 7.408129999999999750e-03 3.757615060394267736e+00
0.000000000000000000e+00 3.911160000000000331e-02 4.832069864784338087e+00
2.187499999999999861e-02 2.057600000000000141e-03 3.395892986709331929e+00
0.000000000000000000e+00 4.576059999999999850e-03 1.497376506977221577e-01
9.374999999999999653e-03 3.653769999999999935e-02 4.588415195785609413e+00
0.000000000000000000e+00 1.026369999999999973e-03 1.865271036270374605e+00
2.500000000000000139e-02 2.113609999999999933e-01 4.791625553521248193e+00
0.000000000000000000e+00 5.185020000000000254e-03 2.923050603910505529e+00
1.562500000000000000e-02 2.172289999999999898e-03 3.505784629649181028e+00
1.562500000000000000e-02 5.764409999999999673e-02 1.836103581547363195e+00
1.250000000000000069e-02 2.072510000000000064e-03 3.250428596003068105e+00
0.000000000000000000e+00 1.724159999999999972e-04 1.041605731749062791e+00
0.000000000000000000e+00 3.621119999999999916e-04 2.910278744233903758e+00
8.125000000000000278e-02 9.302860000000000296e-02 3.959307203872160841e+00
2.500000000000000139e-02 2.281730000000000043e-03 4.965449047071073707e+00
3.125000000000000173e-03 3.276799999999999852e-03 1.105889497841122671e-01
3.125000000000000173e-03 1.050869999999999929e-02 4.348996278070443644e+00
0.000000000000000000e+00 2.886399999999999903e-03 1.655528677382196889e+00
1.250000000000000069e-02 2.237700000000000019e-03 1.616758474934638645e+00
3.125000000000000173e-03 4.759359999999999806e-03 3.042275301628915685e+00
0.000000000000000000e+00 5.141889999999999655e-03 1.595905322743571997e+00
1.562500000000000000e-02 4.267649999999999569e-03 7.239531629553369596e-01
0.000000000000000000e+00 6.042499999999999694e-04 5.763821702619154053e-01
0.000000000000000000e+00 9.317120000000000133e-04 1.070836051891882468e+00
0.000000000000000000e+00 1.169150000000000094e-03 1.381254291625193531e+00
9.374999999999999653e-03 4.947009999999999949e-03 9.135013285968074381e-01
0.000000000000000000e+00 5.132439999999999919e-02 2.199973978910234607e+00
0.000000000000000000e+00 3.405040000000000150e-02 5.542344093694206997e-01
0.000000000000000000e+00 2.300350000000000092e-05 1.002472220381049883e+00
0.000000000000000000e+00 1.215809999999999894e-03 4.369109062495260432e+00
2.500000000000000139e-02 1.064240000000000047e-01 3.527659467288180029e-01
0.000000000000000000e+00 7.005660000000000142e-04 3.687328714531518781e+00
0.000000000000000000e+00 2.237539999999999926e-05 2.681601377030279565e+00
1.250000000000000069e-02 2.243139999999999804e-03 2.988607755846145464e-01
0.000000000000000000e+00 5.559640000000000458e-04 7.776724147599073378e-01
3.125000000000000173e-03 1.352929999999999931e-02 3.125677225297973649e+00
0.000000000000000000e+00 4.273929999999999787e-04 2.081184290539103365e+00
0.000000000000000000e+00 1.989759999999999869e-04 2.675705031745337692e+00
0.000000000000000000e+00 4.934339999999999733e-03 4.337531471821604034e-01
3.749999999999999861e-02 1.069360000000000033e-01 2.779082684385627999e+00
2.500000000000000139e-02 2.526700000000000126e-02 3.398076111763929763e+00
5.312499999999999861e-02 3.809579999999999911e-02 2.403135789469041050e+00
3.749999999999999861e-02 3.888980000000000214e-02 3.360700275076262233e+00
0.000000000000000000e+00 6.436480000000000283e-04 4.379384502033351723e+00
0.000000000000000000e+00 3.433279999999999926e-03 2.514030901780726079e+00
0.000000000000000000e+00 6.698550000000000337e-02 2.777420247217471383e-01
0.000000000000000000e+00 4.056549999999999913e-04 1.178376270394444481e+00
0.000000000000000000e+00 1.143619999999999923e-03 1.679252484759449882e+00
6.250000000000000347e-03 2.740189999999999987e-02 2.620716886382798538e+00
0.000000000000000000e+00 5.468989999999999962e-03 3.106704625223322580e+00
1.874999999999999931e-02 1.058879999999999960e-01 4.993059458410917806e+00
0.000000000000000000e+00 5.700069999999999790e-04 1.862900621380667587e+00
0.000000000000000000e+00 3.544840000000000165e-04 1.058063465186370067e+00
0.000000000000000000e+00 9.856000000000001045e-04 2.130789778365382858e-01
0.000000000000000000e+00 3.423489999999999953e-03 4.613547527702487550e+00
0.000000000000000000e+00 2.815810000000000188e-03 5.780355114346968914e-01
2.500000000000000139e-02 3.235519999999999976e-03 4.163498100708079575e-01
2.500000000000000139e-02 2.028030000000000110e-03 9.280997438480864670e-01
3.125000000000000173e-03 4.474239999999999988e-03 2.193804345086328489e+00
2.500000000000000139e-02 2.121609999999999885e-01 4.049643810501628138e+00
1.874999999999999931e-02 9.149540000000000450e-02 1.924913463541221281e+00
0.000000000000000000e+00 1.806660000000000080e-03 1.297024281508801113e+00
0.000000000000000000e+00 2.418819999999999911e-03 2.236317843129235428e+00
3.125000000000000173e-03 6.980480000000000495e-04 1.862982453650753989e+00
0.000000000000000000e+00 6.060800000000000519e-04 3.773215430799771841e+00
3.125000000000000173e-03 6.971520000000000364e-04 4.242690329373689728e+00
8.125000000000000278e-02 4.023329999999999962e-02 3.327187021683014834e+00
9.374999999999999653e-03 1.847169999999999975e-03 3.364936214140028969e+00
1.562500000000000000e-02 1.492030000000000092e-03 3.725178554468361547e+00
3.125000000000000173e-03 2.539669999999999948e-03 2.921230517954745309e+00
0.000000000000000000e+00 2.272789999999999969e-05 2.487982319932995345e+00
4.374999999999999722e-02 9.020159999999999290e-03 1.784224574010135900e+00
0.000000000000000000e+00 1.809280000000000133e-04 4.794073907255949507e+00
0.000000000000000000e+00 7.950719999999999663e-04 4.906313849976734254e+00
0.000000000000000000e+00 6.594559999999999962e-04 8.211987313016144707e-01
1.874999999999999931e-02 1.792959999999999910e-03 2.954355292113420184e+00
0.000000000000000000e+00 2.278949999999999924e-05 2.931423656849391435e+00
0.000000000000000000e+00 2.184300000000000076e-05 3.950108266298377302e+00
6.250000000000000347e-03 2.250690000000000069e-03 2.448837454747851972e+00
1.874999999999999931e-02 2.132929999999999895e-03 2.025775237359328962e+00
0.000000000000000000e+00 6.817280000000000431e-04 4.069233998833859944e-01
0.000000000000000000e+00 6.832640000000000501e-04 4.551971740762569496e+00
0.000000000000000000e+00 7.956480000000000366e-04 1.114079002819740705e+00
0.000000000000000000e+00 1.479150000000000083e-02 2.214657800769681550e-02
0.000000000000000000e+00 2.766080000000000188e-04 2.149623550117567561e+00
0.000000000000000000e+00 0.000000000000000000e+00 3.131724352408882250e-02
0.000000000000000000e+00 1.511490000000000056e-02 1.608316837467693272e+00
0.000000000000000000e+00 1.183550000000000010e-03 4.084887098961086593e+00
0.000000000000000000e+00 2.350850000000000032e-05 1.370191785896336389e+00
6.250000000000000347e-03 4.962880000000000243e-03 5.939651314331689802e-01
1.250000000000000069e-02 9.304379999999999595e-02 3.925561208597362572e+00
2.812500000000000069e-02 9.558020000000000405e-03 1.610797927486006254e+00
3.125000000000000173e-03 1.515090000000000013e-02 1.662858993526237228e+00
1.562500000000000000e-02 9.350210000000000465e-02 4.021846524009199619e+00
3.125000000000000173e-03 6.784640000000000419e-04 1.306663499426301556e+00
1.874999999999999931e-02 2.171900000000000046e-03 1.321793829861901415e+00
0.000000000000000000e+00 6.753920000000000279e-04 4.491227105481176984e-01
1.874999999999999931e-02 1.745339999999999956e-03 3.513307116783830786e+00
9.374999999999999653e-03 1.612160000000000069e-03 4.210900176836852360e+00
3.125000000000000173e-03 9.221580000000000055e-02 4.049630330483518392e+00
0.000000000000000000e+00 9.626879999999999552e-04 3.248425401536420232e+00
6.250000000000000347e-03 1.003440000000000026e-01 4.053963544861881374e+00
9.374999999999999653e-03 1.442179999999999938e-03 4.779918663139398616e-01
1.874999999999999931e-02 1.858049999999999979e-03 4.445689248112580039e+00
0.000000000000000000e+00 9.151359999999999877e-04 2.660686762355296553e-01
0.000000000000000000e+00 1.035710000000000016e-03 3.558837293383513511e+00
2.187499999999999861e-02 2.105919999999999841e-03 4.363054629087692593e-01
0.000000000000000000e+00 1.638780000000000054e-03 4.198200318206183113e+00
0.000000000000000000e+00 1.095620000000000057e-03 1.613774705118895536e+00
0.000000000000000000e+00 3.128259999999999895e-03 1.210403911030042412e+00
0.000000000000000000e+00 9.323520000000000071e-04 7.571135800509332103e-02
2.500000000000000139e-02 2.075519999999999969e-03 4.562142598846728347e+00
0.000000000000000000e+00 3.494939999999999852e-02 3.096137860995024305e+00
0.000000000000000000e+00 4.423869999999999886e-03 2.666454016064956356e+00
0.000000000000000000e+00 5.294659999999999644e-03 2.292615095854288576e+00
0.000000000000000000e+00 2.850559999999999813e-03 7.197470876600320366e-01
0.000000000000000000e+00 9.594879999999999859e-04 3.419269037731039074e+00
1.562500000000000000e-02 1.067059999999999953e-01 4.985581096804808432e+00
1.874999999999999931e-02 1.996609999999999791e-03 1.640286631107714221e+00
0.000000000000000000e+00 5.122749999999999700e-03 5.721200441392959579e-02
0.000000000000000000e+00 3.301249999999999931e-03 4.200717044671948841e+00
6.250000000000000347e-03 9.438570000000000293e-02 1.563791589543260807e+00
1.874999999999999931e-02 1.489920000000000046e-03 4.149397341502400138e+00
6.250000000000000347e-03 1.712769999999999918e-02 4.059125786088059407e+00
0.000000000000000000e+00 3.325890000000000183e-03 4.196516789718213403e+00
0.000000000000000000e+00 1.348989999999999998e-03 7.497536501747104065e-01
3.125000000000000173e-03 4.357439999999999751e-03 4.113115193949770543e+00
4.687500000000000000e-02 4.042910000000000253e-02 3.500557675492804499e+00
0.000000000000000000e+00 4.342799999999999959e-03 2.736177393756537235e+00
1.562500000000000000e-02 2.121230000000000060e-01 2.665118662876610145e+00
0.000000000000000000e+00 4.301500000000000202e-04 2.948889963326322139e+00
0.000000000000000000e+00 5.143939999999999624e-03 1.704400664311235936e+00
0.000000000000000000e+00 8.170879999999999940e-04 3.564516892592806130e+00
9.374999999999999653e-03 1.612219999999999929e-03 1.352206861956791073e+00
0.000000000000000000e+00 3.077120000000000246e-04 7.808124021583906504e-01
1.250000000000000069e-02 2.132479999999999966e-03 1.300492663686223960e+00
0.000000000000000000e+00 5.857410000000000394e-03 4.789295438571578245e+00
0.000000000000000000e+00 1.767679999999999989e-04 1.079095664935773025e+00
0.000000000000000000e+00 4.401409999999999698e-03 8.048149923570435682e-01
3.125000000000000173e-03 1.573249999999999996e-03 3.220791420892452628e+00
0.000000000000000000e+00 4.234810000000000202e-04 4.591328831699564184e+00
3.125000000000000173e-03 2.080770000000000015e-03 7.147290844238629592e-01
0.000000000000000000e+00 1.515629999999999929e-02 3.004783563416507874e+00
2.500000000000000139e-02 3.725529999999999814e-02 2.912652427087211837e+00
6.875000000000000555e-02 3.985500000000000154e-02 1.506620550558006144e+00
0.000000000000000000e+00 6.787199999999999527e-04 4.177866448542261857e+00
1.562500000000000000e-02 2.117279999999999995e-01 4.095557211535160391e+00
3.125000000000000173e-03 6.083329999999999640e-03 2.617224614129203264e+00
3.125000000000000173e-03 2.501699999999999931e-03 2.945501123566654389e+00
0.000000000000000000e+00 5.242240000000000007e-04 2.142868434706708403e+00
0.000000000000000000e+00 8.728050000000000435e-04 1.175320934631010505e+00
2.500000000000000139e-02 3.068099999999999820e-03 2.820933380408364055e+00
0.000000000000000000e+00 4.154660000000000232e-04 4.599784099737847853e+00
9.374999999999999653e-03 2.527489999999999858e-03 2.210556991729645260e-01
9.374999999999999653e-03 1.427199999999999996e-03 2.350668718484556496e+00
0.000000000000000000e+00 4.581090000000000010e-04 1.106006833485999596e+00
1.250000000000000069e-02 2.140219999999999970e-03 2.143790966155114219e+00
2.812500000000000069e-02 2.859519999999999944e-03 4.500265313180946691e+00
1.874999999999999931e-02 1.766140000000000028e-03 3.683556388450446306e+00
0.000000000000000000e+00 1.414209999999999946e-03 3.929794038557207880e+00
0.000000000000000000e+00 4.183680000000000168e-04 4.458890984027386040e-01
2.812500000000000069e-02 5.384319999999999731e-03 4.462942639622069052e+00
0.000000000000000000e+00 2.914180000000000156e-03 4.264177494260071200e+00
1.562500000000000000e-02 2.263100000000000094e-03 3.648049380261201513e+00
1.874999999999999931e-02 2.182659999999999895e-03 4.102260235135502420e+00
0.000000000000000000e+00 1.073600000000000075e-03 6.835586911839780511e-01
0.000000000000000000e+00 8.528640000000000526e-04 4.720882854669940620e+00
9.374999999999999653e-03 2.008509999999999809e-03 1.501459967071671731e+00
0.000000000000000000e+00 4.815230000000000204e-03 4.155536827239633801e+00
3.125000000000000173e-03 4.181500000000000321e-03 1.068995481363081979e+00
6.875000000000000555e-02 4.024289999999999812e-02 3.209653251455937717e+00
9.374999999999999653e-03 2.900610000000000081e-03 1.043163273432895499e-01
0.000000000000000000e+00 3.479420000000000104e-04 2.141195537776435565e+00
0.000000000000000000e+00 4.367300000000000175e-03 3.128125481137746799e+00
9.374999999999999653e-03 2.117120000000000113e-03 9.785862528414590589e-01
0.000000000000000000e+00 9.200639999999999513e-04 4.289892456681483779e+00
0.000000000000000000e+00 1.371140000000000076e-03 2.809626867195204269e+00
6.250000000000000347e-03 1.058710000000000068e-01 2.010154896548676628e+00
0.000000000000000000e+00 2.280700000000000034e-05 1.453320617183714969e+00
1.250000000000000069e-02 1.402559999999999961e-03 4.929466690994766864e+00
0.000000000000000000e+00 3.773439999999999976e-04 4.878803365406751524e+00
0.000000000000000000e+00 9.958619999999999192e-04 3.452642823716350895e-01
1.562500000000000000e-02 1.420990000000000014e-03 1.870819353535806862e+00
4.062500000000000139e-02 9.238699999999999690e-02 1.386935436533985877e+00
1.250000000000000069e-02 1.407870000000000085e-03 2.464410954194391490e+00
3.125000000000000173e-03 9.511000000000000010e-02 1.121827683982115520e+00
2.812500000000000069e-02 5.754880000000000412e-03 4.179962829599120688e+00
3.125000000000000173e-03 1.766699999999999868e-02 3.898482884224818257e+00
0.000000000000000000e+00 9.537760000000000682e-02 3.314573637677327156e+00
2.812500000000000069e-02 5.696960000000000045e-03 5.619848596745563585e-01
9.374999999999999653e-03 2.050689999999999978e-03 2.891332574704051694e+00
1.562500000000000000e-02 2.144379999999999984e-03 1.330197757906844691e+00
0.000000000000000000e+00 1.058130000000000008e-03 1.136602129112474380e+00
0.000000000000000000e+00 3.133440000000000140e-04 2.145160444827278745e+00
0.000000000000000000e+00 6.493440000000000496e-04 1.805792094240199486e+00
0.000000000000000000e+00 4.313599999999999900e-04 5.902837396724663899e-01
0.000000000000000000e+00 4.477499999999999709e-03 1.730749690098225546e+00
5.312499999999999861e-02 3.967489999999999906e-02 2.940767405207522778e+00
2.187499999999999861e-02 3.077310000000000201e-03 4.683788663108252592e+00
5.312499999999999861e-02 4.100469999999999809e-02 3.375032176095395187e+00
3.125000000000000173e-03 1.171439999999999981e-02 6.955806166214495434e-01
0.000000000000000000e+00 6.092159999999999893e-04 3.897250728698412381e+00
0.000000000000000000e+00 1.502639999999999965e-03 3.200893061398954575e+00
3.437500000000000278e-02 9.471559999999999702e-02 2.255437707231930489e+00
0.000000000000000000e+00 2.297499999999999941e-05 3.125065050556976587e+00
3.125000000000000173e-03 1.564180000000000084e-02 1.875754198057879574e+00
5.937499999999999722e-02 9.454609999999999403e-02 1.948859187870981113e+00
0.000000000000000000e+00 1.968639999999999908e-04 1.263960986079470938e-01
0.000000000000000000e+00 7.441060000000000209e-04 1.906594227400551400e+00
0.000000000000000000e+00 6.422399999999999767e-04 1.218494709918116481e+00
0.000000000000000000e+00 4.371139999999999921e-03 4.314127266093849222e+00
5.000000000000000278e-02 9.334459999999999286e-03 3.435146673725102850e+00
2.500000000000000139e-02 2.683899999999999914e-03 4.042377817324023681e+00
2.187499999999999861e-02 3.879740000000000012e-03 4.993313867021981878e+00
0.000000000000000000e+00 5.050239999999999677e-04 4.818797851588819903e+00
0.000000000000000000e+00 4.733629999999999956e-03 1.392396144428800664e+00
0.000000000000000000e+00 8.005760000000000003e-04 2.841366573173431664e+00
1.874999999999999931e-02 1.982910000000000054e-03 4.273167746907494013e+00
0.000000000000000000e+00 1.108669999999999968e-03 1.566725248207199161e+00
0.000000000000000000e+00 2.117819999999999859e-03 1.697421833875245589e-01
3.125000000000000173e-03 1.766699999999999868e-02 5.855946352207891392e-01
3.125000000000000173e-03 2.609310000000000102e-03 3.961734775583571899e+00
0.000000000000000000e+00 2.916419999999999972e-04 2.358079632964099615e-01
2.500000000000000139e-02 1.077349999999999974e-01 6.791599048122753945e-01
6.250000000000000347e-03 2.332419999999999979e-03 4.871612034719871254e+00
0.000000000000000000e+00 1.704320000000000054e-03 3.932325647890663411e+00
0.000000000000000000e+00 4.134780000000000009e-04 7.957637491000491003e-01
0.000000000000000000e+00 1.281220000000000015e-03 1.881567756035465333e+00
2.812500000000000069e-02 2.872770000000000185e-03 7.622379631452830262e-01
0.000000000000000000e+00 1.606619999999999874e-05 3.114667276859539591e-01
0.000000000000000000e+00 3.866739999999999912e-04 4.038829270535057248e+00
0.000000000000000000e+00 8.209919999999999891e-04 4.953931753175940145e+00
0.000000000000000000e+00 4.284030000000000303e-03 1.928446934804806112e+00
1.250000000000000069e-02 2.808900000000000025e-03 2.664978839758882057e+00
0.000000000000000000e+00 5.722880000000000068e-04 7.814476060246683398e-01
3.125000000000000173e-03 1.943620000000000070e-03 1.828720875333105678e+00
0.000000000000000000e+00 1.994080000000000125e-04 3.718893277941918818e+00
0.000000000000000000e+00 6.044159999999999811e-04 1.322780722760393823e+00
0.000000000000000000e+00 5.093440000000000294e-03 4.883879109093435034e+00
0.000000000000000000e+00 3.003379999999999939e-02 1.612961349474361761e+00
0.000000000000000000e+00 4.183680000000000168e-04 3.216569257159329176e+00
1.562500000000000000e-02 9.477220000000000089e-02 4.580918951154399288e+00
0.000000000000000000e+00 4.720640000000000122e-04 4.193161469885041903e+00
9.374999999999999653e-03 9.449209999999999554e-02 3.524520321202340600e+00
2.500000000000000139e-02 2.471870000000000143e-03 9.501093385493825094e-01
0.000000000000000000e+00 1.085629999999999972e-03 1.986643221485258071e+00
0.000000000000000000e+00 1.084099999999999951e-03 4.282354941669417769e+00
0.000000000000000000e+00 2.097860000000000003e-03 4.332460524472692143e-01
0.000000000000000000e+00 1.154499999999999927e-03 2.359236916965780750e+00
0.000000000000000000e+00 5.240320000000000134e-04 3.030688694342459577e+00
5.000000000000000278e-02 9.064060000000000519e-03 4.704301903669561469e+00
3.125000000000000173e-03 6.605439999999999966e-04 1.955699752921639778e+00
1.874999999999999931e-02 3.269890000000000123e-03 2.114698006801314367e+00
0.000000000000000000e+00 1.186430000000000037e-03 1.895202288899111576e+00
0.000000000000000000e+00 9.080959999999999466e-04 2.099070407484452616e+00
1.874999999999999931e-02 2.031040000000000015e-03 4.599170086586616080e+00
0.000000000000000000e+00 4.961920000000000089e-04 2.343989142081061683e+00
0.000000000000000000e+00 4.158510000000000136e-04 7.651552481443241183e-01
4.687500000000000000e-02 9.262960000000000638e-02 3.398212277989785868e+00
6.250000000000000347e-03 9.747830000000000383e-02 2.998827888346162318e+00
1.562500000000000000e-02 1.948740000000000021e-03 4.467113775702868939e-01
6.250000000000000347e-03 1.035909999999999956e-02 1.201103069477426066e+00
9.374999999999999653e-03 2.264959999999999890e-03 3.627189512272073646e+00
0.000000000000000000e+00 9.012480000000000014e-04 3.255340636273214017e+00
0.000000000000000000e+00 1.402390000000000060e-02 2.497993697455851869e+00
0.000000000000000000e+00 8.944639999999999796e-04 3.892600095790729853e+00
0.000000000000000000e+00 4.770049999999999638e-03 2.363843892761374743e-01
0.000000000000000000e+00 0.000000000000000000e+00 2.649936869274971407e-01
0.000000000000000000e+00 3.649089999999999799e-03 3.665077590530319007e-01
0.000000000000000000e+00 2.605439999999999774e-04 5.990228520759671715e-01
0.000000000000000000e+00 1.393439999999999913e-03 4.149194232757690060e+00
0.000000000000000000e+00 2.035649999999999959e-03 2.439373077051111949e+00
0.000000000000000000e+00 1.928550000000000026e-05 1.664088214253000020e+00
0.000000000000000000e+00 1.491460000000000008e-03 1.784119019537071527e+00
0.000000000000000000e+00 2.379710000000000159e-03 2.532200160810449407e-01
2.187499999999999861e-02 3.173770000000000063e-02 3.689559722522978813e+00
0.000000000000000000e+00 3.343360000000000190e-04 3.353990465346921468e+00
0.000000000000000000e+00 6.654719999999999603e-04 4.998195384500707661e+00
1.250000000000000069e-02 1.995709999999999932e-03 3.521044819023429362e+00
6.250000000000000347e-03 1.039299999999999946e-02 2.116245842146100564e+00
0.000000000000000000e+00 1.116989999999999997e-03 4.103995065436075507e+00
6.250000000000000347e-03 6.572159999999999634e-04 3.255544016461880297e+00
6.250000000000000347e-03 9.654569999999999819e-02 2.231267964407599003e+00
0.000000000000000000e+00 5.678719999999999732e-04 7.246099197805921932e-01
3.125000000000000173e-03 9.328400000000000580e-02 3.314544777163512368e+00
3.125000000000000173e-03 4.602560000000000331e-03 1.799376563676033491e+00
0.000000000000000000e+00 1.075650000000000044e-03 1.423045050223236130e+00
0.000000000000000000e+00 9.869440000000000157e-04 3.540135130706841160e+00
6.250000000000000347e-03 2.146050000000000041e-03 3.118294287304530954e+00
0.000000000000000000e+00 6.664559999999999929e-02 4.714610921162334378e+00
2.187499999999999861e-02 2.268739999999999993e-03 1.954059356750291077e+00
0.000000000000000000e+00 2.287139999999999925e-05 3.928313906651347942e+00
0.000000000000000000e+00 2.414850000000000069e-03 1.793595534762683075e+00
2.187499999999999861e-02 5.262400000000000411e-03 3.823641809370860845e+00
3.125000000000000173e-03 1.677719999999999906e-02 1.941798887160036013e+00
0.000000000000000000e+00 7.316659999999999570e-04 4.116366934067281491e+00
2.500000000000000139e-02 3.001470000000000006e-03 4.814512248318211007e+00
1.250000000000000069e-02 8.048829999999999874e-03 2.427601628020874092e+00
2.187499999999999861e-02 2.084669999999999839e-03 4.819079242438922828e-01
3.125000000000000173e-03 1.169049999999999950e-02 2.081150532066443404e+00
0.000000000000000000e+00 1.155329999999999985e-03 2.880969705003357362e+00
0.000000000000000000e+00 3.111679999999999915e-03 3.828680242552793267e+00
1.562500000000000000e-02 1.966850000000000022e-03 2.116334430861383176e+00
0.000000000000000000e+00 2.987070000000000090e-03 9.563976017107467253e-01
0.000000000000000000e+00 4.892989999999999839e-03 2.469157811075817222e-02
0.000000000000000000e+00 5.605169999999999597e-04 2.471120049870976221e+00
1.874999999999999931e-02 1.420669999999999962e-03 2.473965176381080600e+00
0.000000000000000000e+00 1.237999999999999951e-03 4.457724877707358146e+00
0.000000000000000000e+00 3.616019999999999846e-04 4.081682028402559226e+00
0.000000000000000000e+00 5.226879999999999721e-03 7.255276897082957310e-01
1.250000000000000069e-02 1.373950000000000084e-03 2.485132403518108379e+00
3.749999999999999861e-02 7.393150000000000242e-03 2.287581041588965469e+00
0.000000000000000000e+00 8.647670000000000357e-02 3.556639229035105654e+00
3.125000000000000173e-03 1.026619999999999963e-02 4.859628315873644411e+00
9.374999999999999653e-03 3.118979999999999930e-03 8.859195360623439708e-01
0.000000000000000000e+00 3.955879999999999943e-04 2.234368737635550328e+00
0.000000000000000000e+00 4.340420000000000215e-03 4.304502731663699677e+00
9.687500000000000278e-02 3.992520000000000097e-02 3.636387387562930229e+00
1.562500000000000000e-02 1.070139999999999980e-01 4.562155111287363063e+00
0.000000000000000000e+00 3.968819999999999640e-03 2.385698775302067531e+00
0.000000000000000000e+00 4.843520000000000139e-04 3.873009757081395943e+00
1.874999999999999931e-02 1.587649999999999912e-03 2.893743299082805365e+00
3.125000000000000173e-03 1.895420000000000091e-03 3.061628723635404725e+00
0.000000000000000000e+00 6.618239999999999843e-04 1.747258438602925512e+00
0.000000000000000000e+00 4.430019999999999791e-03 9.832909899828984335e-01
9.374999999999999653e-03 1.735549999999999983e-03 2.282931152088552018e+00
0.000000000000000000e+00 1.245250000000000046e-03 3.229048626559402280e+00
0.000000000000000000e+00 1.420220000000000033e-03 2.758174935836830599e+00
6.250000000000000347e-03 5.047489999999999963e-03 3.747145355661957389e+00
1.562500000000000000e-02 2.233150000000000152e-03 3.574368556689186960e+00
3.125000000000000000e-02 1.064329999999999998e-01 3.207437893735931134e+00
1.874999999999999931e-02 2.326139999999999979e-03 1.327273759403189146e+00
2.500000000000000139e-02 2.290180000000000167e-03 3.229205278718869199e+00
3.125000000000000173e-03 2.305980000000000009e-03 3.892470939757464166e-01
0.000000000000000000e+00 3.688470000000000008e-04 1.836321830635225361e+00
9.374999999999999653e-03 1.681659999999999969e-03 1.783281668939817877e+00
0.000000000000000000e+00 2.579130000000000224e-04 3.156829800965055721e+00
3.125000000000000173e-03 4.571650000000000019e-03 1.061035633720665006e+00
3.125000000000000173e-03 9.850100000000000522e-02 1.263745330852939386e+00
9.374999999999999653e-03 1.052580000000000009e-02 3.481395110640239654e-01
0.000000000000000000e+00 2.079360000000000095e-04 8.540690048609400620e-01
1.250000000000000069e-02 2.973819999999999849e-03 2.954213947570501375e+00
0.000000000000000000e+00 7.294860000000000016e-04 1.549900856867156840e+00
0.000000000000000000e+00 1.034940000000000035e-03 3.240163477711414330e+00
0.000000000000000000e+00 1.104189999999999902e-03 1.616582625123402783e+00
0.000000000000000000e+00 0.000000000000000000e+00 5.690940440786657062e-01
0.000000000000000000e+00 8.820479999999999684e-04 3.234284566877377642e+00
0.000000000000000000e+00 4.390340000000000388e-03 1.196523154230341168e+00
0.000000000000000000e+00 3.447370000000000165e-04 2.103109724166014605e+00
0.000000000000000000e+00 4.245969999999999953e-03 3.706561991432760106e+00
0.000000000000000000e+00 4.373700000000000331e-03 2.725718944718980907e+00
0.000000000000000000e+00 1.019010000000000098e-03 3.455793583327334773e+00
0.000000000000000000e+00 1.950999999999999956e-02 4.901197604830167975e+00
0.000000000000000000e+00 6.711679999999999816e-04 2.714397668099685745e+00
0.000000000000000000e+00 6.275840000000000411e-04 1.492589440706978410e+00
0.000000000000000000e+00 3.490330000000000038e-04 4.491747832354686665e-01
3.125000000000000173e-03 8.327039999999999746e-04 1.103326876607471529e+00
1.125000000000000028e-01 8.042810000000000237e-02 1.514131623103784463e+00
2.500000000000000139e-02 2.697730000000000180e-03 5.837900874183349353e-01
6.250000000000000347e-03 9.486290000000000000e-02 4.971876661804154551e+00
0.000000000000000000e+00 3.896959999999999769e-04 2.056050915878814500e+00
0.000000000000000000e+00 8.030720000000000523e-04 8.229159895043819395e-01
0.000000000000000000e+00 4.159149999999999913e-04 1.261866814986829066e+00
0.000000000000000000e+00 1.685379999999999994e-03 3.522962794749033844e+00
2.500000000000000139e-02 2.505149999999999825e-03 3.328561932110662980e+00
0.000000000000000000e+00 7.202520000000000016e-04 1.604626181692214271e+00
3.125000000000000173e-03 9.634919999999999596e-02 5.837081204680960589e-02
0.000000000000000000e+00 6.749760000000000482e-02 4.100064917819903343e+00
1.562500000000000000e-02 2.240900000000000097e-03 2.140106487644625854e+00
0.000000000000000000e+00 4.510020000000000001e-03 4.752621924732709502e+00
0.000000000000000000e+00 7.789439999999999472e-04 9.525704195876327773e-01
1.874999999999999931e-02 9.363580000000000514e-02 3.805189906370674890e+00
2.500000000000000139e-02 3.311940000000000196e-03 4.329548449060544257e+00
1.562500000000000000e-02 2.263359999999999851e-03 4.673950814929844100e+00
6.250000000000000347e-03 2.314300000000000038e-03 4.759556804691072784e+00
2.812500000000000069e-02 1.351680000000000069e-03 4.625682978313903071e+00
0.000000000000000000e+00 7.351929999999999793e-04 3.261356834971898433e+00
1.250000000000000069e-02 1.913409999999999937e-03 1.992971218022532298e+00
0.000000000000000000e+00 2.471289999999999945e-02 2.414560830305181760e+00
1.874999999999999931e-02 9.207940000000000569e-02 1.625277015427689653e-01
0.000000000000000000e+00 5.297859999999999722e-03 2.806843377743004186e+00
2.812500000000000069e-02 9.113549999999999429e-02 1.483469259673519502e+00
0.000000000000000000e+00 5.640320000000000099e-04 3.928187705055513845e+00
0.000000000000000000e+00 2.815999999999999927e-03 1.368879859671550570e+00
1.562500000000000000e-02 9.256830000000000613e-02 2.077119676662748660e+00
0.000000000000000000e+00 1.190019999999999967e-03 1.947904550084329944e+00
0.000000000000000000e+00 1.112319999999999975e-03 4.509567476865583124e+00
1.562500000000000000e-02 3.316420000000000045e-03 3.494399558812077533e+00
1.562500000000000000e-02 1.862720000000000001e-03 1.661803920808925250e+00
