2.187499999999999861e-02 1.925440000000000051e-03 2.931969356885027800e+00
0.000000000000000000e+00 1.370289999999999920e-03 2.482779754106120951e+00
2.187499999999999861e-02 2.246719999999999794e-03 4.960718894962431236e+00
0.000000000000000000e+00 9.941119999999999037e-04 3.719315722556665094e+00
3.125000000000000173e-03 9.646230000000000082e-02 1.686113093693379472e+00
1.250000000000000069e-02 1.485060000000000069e-03 1.197514820023213744e+00
0.000000000000000000e+00 1.994870000000000096e-05 2.878628564705426607e-01
0.000000000000000000e+00 3.240319999999999767e-04 2.110760611479953752e+00
0.000000000000000000e+00 2.609919999999999840e-04 4.143829719810393719e+00
0.000000000000000000e+00 1.434240000000000037e-03 4.530566380830048701e+00
6.250000000000000347e-03 1.844539999999999982e-03 3.623558280127641584e+00
0.000000000000000000e+00 3.954619999999999837e-03 6.795719620670920280e-01
0.000000000000000000e+00 1.712639999999999920e-04 3.287780783828162967e+00
0.000000000000000000e+00 3.112960000000000033e-02 1.173523127644600539e+00
0.000000000000000000e+00 5.680830000000000428e-04 4.759700345209049388e+00
3.125000000000000000e-02 1.079379999999999923e-02 1.414773738117532265e+00
3.125000000000000173e-03 9.745800000000000296e-02 5.791624297751818418e-04
1.562500000000000000e-02 3.032319999999999807e-03 1.275571535184411687e+00
0.000000000000000000e+00 4.266240000000000136e-04 3.373098748124689461e+00
0.000000000000000000e+00 1.901700000000000092e-03 4.883613987040514637e+00
2.500000000000000139e-02 2.993920000000000175e-03 3.573662142391553775e-01
4.062500000000000139e-02 9.147990000000000288e-02 3.677445763473237594e+00
0.000000000000000000e+00 2.296190000000000037e-03 2.859482029721929663e+00
0.000000000000000000e+00 4.901070000000000426e-04 2.086740584960896427e+00
0.000000000000000000e+00 6.004350000000000312e-03 3.199758521816769008e+00
3.125000000000000173e-03 2.372879999999999955e-03 1.653912146113619031e+00
0.000000000000000000e+00 2.809470000000000110e-03 2.591049529049388456e-01
6.250000000000000347e-03 3.191999999999999959e-03 7.442550175671780455e-01
0.000000000000000000e+00 2.359039999999999965e-04 2.587763831851928042e+00
9.374999999999999653e-03 9.805930000000000202e-02 4.663080340742721042e+00
0.000000000000000000e+00 1.035310000000000050e-02 1.523199626113805882e+00
2.812500000000000069e-02 9.156380000000000075e-02 3.309200904298719603e+00
0.000000000000000000e+00 1.132420000000000085e-03 2.277929543485005759e+00
0.000000000000000000e+00 1.062460000000000097e-03 6.414856969320675839e-01
0.000000000000000000e+00 9.651199999999999753e-04 2.499238480869185430e+00
0.000000000000000000e+00 1.022209999999999959e-03 4.652324432182429526e+00
9.374999999999999653e-03 1.664579999999999923e-03 3.827072842534695596e-01
0.000000000000000000e+00 1.341119999999999899e-03 2.689273471513383029e+00
0.000000000000000000e+00 1.013599999999999918e-02 3.723876499286480790e+00
0.000000000000000000e+00 2.405329999999999795e-03 3.246129623488950955e+00
0.000000000000000000e+00 2.280219999999999998e-05 2.241943242171939410e+00
0.000000000000000000e+00 9.493760000000000393e-04 4.568019210226869298e+00
1.250000000000000069e-02 1.239260000000000014e-02 2.865947877382336806e+00
0.000000000000000000e+00 1.425339999999999984e-03 4.285925348527884537e+00
3.125000000000000173e-03 2.736279999999999789e-03 1.241792539334460432e+00
0.000000000000000000e+00 1.573869999999999891e-05 4.203296567965832509e+00
0.000000000000000000e+00 0.000000000000000000e+00 4.453985310676236153e+00
0.000000000000000000e+00 1.101629999999999927e-03 9.368347102336505028e-01
0.000000000000000000e+00 0.000000000000000000e+00 4.905870692575185821e+00
3.125000000000000173e-03 1.770750000000000102e-02 8.691293566000873883e-01
1.562500000000000000e-02 3.445950000000000141e-03 2.494411472257973550e+00
9.374999999999999653e-03 1.576380000000000055e-03 2.559042506585812227e+00
2.500000000000000139e-02 2.162429999999999908e-03 3.667975580913652500e+00
0.000000000000000000e+00 5.584640000000000524e-04 1.296492497231942931e+00
0.000000000000000000e+00 1.073280000000000024e-03 2.435266542980099480e+00
2.187499999999999861e-02 2.496829999999999796e-03 4.241161686809642895e+00
0.000000000000000000e+00 3.251899999999999843e-03 4.469680922374706711e+00
1.874999999999999931e-02 1.478209999999999984e-03 3.792116651989872800e+00
0.000000000000000000e+00 1.276790000000000086e-03 4.229523746320008826e+00
0.000000000000000000e+00 1.792449999999999903e-03 2.734943707849264438e+00
3.125000000000000173e-03 1.312289999999999984e-02 1.295512821872188969e+00
0.000000000000000000e+00 1.052420000000000092e-03 2.310316035120727030e+00
0.000000000000000000e+00 1.598720000000000089e-03 4.889766220116990247e+00
1.874999999999999931e-02 2.504580000000000174e-03 3.554755609115887172e+00
1.874999999999999931e-02 2.283900000000000166e-03 2.231378917307291321e+00
0.000000000000000000e+00 2.001279999999999921e-04 9.098347578723381401e-01
0.000000000000000000e+00 1.659519999999999995e-04 3.201031466493045041e+00
0.000000000000000000e+00 3.417920000000000073e-03 4.561881547622226307e+00
0.000000000000000000e+00 9.927679999999999925e-04 3.116755632102062190e+00
0.000000000000000000e+00 7.094840000000000261e-04 1.527300468857736293e+00
3.125000000000000173e-03 2.254400000000000154e-03 6.533348375218400728e-01
0.000000000000000000e+00 1.569539999999999911e-03 3.695022651211017806e+00
1.156250000000000056e-01 4.794659999999999894e-02 1.266881139009187862e+00
1.874999999999999931e-02 2.918850000000000177e-03 1.392547693979224732e+00
3.125000000000000173e-03 2.080770000000000015e-03 1.817465479683515017e+00
2.187499999999999861e-02 2.276419999999999919e-03 5.074634026255353536e-02
0.000000000000000000e+00 2.741120000000000210e-04 2.993660228152463798e+00
2.500000000000000139e-02 8.814459999999999656e-03 1.982550925653758345e+00
0.000000000000000000e+00 2.128960000000000054e-03 2.957015218061929573e+00
0.000000000000000000e+00 9.265919999999999539e-04 2.985694110491896147e+00
0.000000000000000000e+00 1.994879999999999982e-04 1.581873844369730442e+00
0.000000000000000000e+00 0.000000000000000000e+00 4.683272843005074293e+00
0.000000000000000000e+00 1.699200000000000103e-03 1.826609348516713416e+00
9.374999999999999653e-03 3.535420000000000056e-03 4.177345391611287262e+00
0.000000000000000000e+00 1.813759999999999927e-04 4.457607573846928517e+00
0.000000000000000000e+00 3.874559999999999983e-04 2.950978119603537397e+00
0.000000000000000000e+00 5.963519999999999715e-04 3.174134617231796351e+00
2.500000000000000139e-02 2.868990000000000082e-03 2.647854070583297137e+00
1.250000000000000069e-02 1.779140000000000018e-03 4.731615109868574365e+00
0.000000000000000000e+00 5.857279999999999865e-04 3.309914744142179455e+00
4.687500000000000000e-02 9.748060000000000058e-02 3.609971941141203011e+00
0.000000000000000000e+00 1.031940000000000071e-03 1.277329133258435334e+00
0.000000000000000000e+00 1.243780000000000103e-03 1.316811912516522742e+00
0.000000000000000000e+00 0.000000000000000000e+00 3.893188805533221331e+00
0.000000000000000000e+00 1.161410000000000090e-03 1.047038731762881536e+00
3.125000000000000173e-03 6.457599999999999972e-04 3.215770203818921757e+00
2.500000000000000139e-02 1.342450000000000067e-02 2.007149728755259765e+00
0.000000000000000000e+00 1.518459999999999905e-03 4.749162994881622524e+00
2.500000000000000139e-02 2.839739999999999886e-03 1.525292673091637186e+00
0.000000000000000000e+00 9.996160000000000462e-04 1.106661965398446634e+00
2.187499999999999861e-02 2.279100000000000049e-03 2.224982719765320471e+00
0.000000000000000000e+00 3.349250000000000230e-04 2.380240893387491896e-01
1.874999999999999931e-02 9.953920000000001083e-04 3.178955211676415704e+00
3.125000000000000173e-03 1.506019999999999928e-02 1.801553963366037792e+00
1.250000000000000069e-02 2.515199999999999988e-03 1.808888430294590677e+00
3.125000000000000173e-03 2.018240000000000138e-03 4.649472321491949778e+00
0.000000000000000000e+00 1.335999999999999948e-03 3.600029339126638028e+00
0.000000000000000000e+00 1.225729999999999962e-03 4.927646155205764877e+00
0.000000000000000000e+00 0.000000000000000000e+00 4.539538034169322778e+00
0.000000000000000000e+00 9.487299999999999510e-04 1.063088348040508446e-01
1.250000000000000069e-02 2.974590000000000047e-03 4.133994287288366820e+00
0.000000000000000000e+00 9.573859999999999575e-04 3.714209841038356164e+00
1.250000000000000069e-02 1.991230000000000083e-03 2.083073471007809818e+00
0.000000000000000000e+00 6.289279999999999524e-04 4.334291072585140014e+00
0.000000000000000000e+00 1.070199999999999971e-02 1.267205383389288231e+00
9.374999999999999653e-03 1.911170000000000013e-03 1.186652366099918865e+00
0.000000000000000000e+00 1.870449999999999890e-02 1.132165976193811208e+00
0.000000000000000000e+00 3.554459999999999846e-04 3.939819230360052771e+00
0.000000000000000000e+00 4.077710000000000232e-04 2.938404706173601610e+00
0.000000000000000000e+00 0.000000000000000000e+00 3.847562436195039570e+00
0.000000000000000000e+00 3.799680000000000050e-04 2.266826779747388887e+00
2.187499999999999861e-02 9.251660000000000439e-02 4.429768462068056856e+00
6.250000000000000347e-03 1.062209999999999960e-01 6.433120913407391894e-01
0.000000000000000000e+00 3.027840000000000067e-04 2.702204737652930788e+00
3.125000000000000173e-03 1.660739999999999959e-03 4.956961988575882216e+00
2.812500000000000069e-02 3.526590000000000280e-02 5.216710938259566666e-01
3.125000000000000173e-03 9.890759999999999830e-02 6.989711349780547422e-02
0.000000000000000000e+00 3.392699999999999796e-03 1.689858480879882219e+00
0.000000000000000000e+00 5.801340000000000316e-03 3.286811060733363821e+00
6.250000000000000347e-03 2.466180000000000108e-03 1.385913076671019262e-01
1.874999999999999931e-02 1.469699999999999999e-03 3.398433084285618300e+00
0.000000000000000000e+00 4.817919999999999842e-04 3.955920013857195272e+00
0.000000000000000000e+00 1.004099999999999958e-03 2.084046328691824268e-01
1.250000000000000069e-02 1.959740000000000180e-03 4.373504398822609218e+00
0.000000000000000000e+00 1.267649999999999940e-03 2.571759398830515408e+00
6.250000000000000347e-03 3.230020000000000113e-03 2.425626622588489267e-01
0.000000000000000000e+00 1.080830000000000072e-03 3.660533545811461398e+00
0.000000000000000000e+00 9.822719999999999629e-04 3.113746508901322319e+00
0.000000000000000000e+00 1.251900000000000018e-03 4.735295485776477520e+00
0.000000000000000000e+00 1.899659999999999890e-02 2.007415742360296740e-01
0.000000000000000000e+00 8.631220000000000211e-04 3.552420257011457139e+00
9.374999999999999653e-03 2.299139999999999864e-03 1.886371741776471378e+00
0.000000000000000000e+00 5.456000000000000346e-04 4.882239995457847925e+00
0.000000000000000000e+00 1.093379999999999916e-03 4.366404316312078926e+00
1.562500000000000000e-02 1.638399999999999926e-03 8.628737594940094624e-01
0.000000000000000000e+00 0.000000000000000000e+00 2.887116881090693532e+00
0.000000000000000000e+00 1.160060000000000084e-03 3.487459579757403727e+00
3.125000000000000173e-03 2.691970000000000127e-03 2.453393251910978012e+00
3.125000000000000173e-03 2.694779999999999918e-03 4.443951013498608660e+00
0.000000000000000000e+00 1.602429999999999957e-03 1.447082820750874577e+00
0.000000000000000000e+00 3.271870000000000073e-03 3.679342537854930928e+00
1.562500000000000000e-02 9.048539999999999361e-02 4.175798932245266215e+00
4.687500000000000000e-02 9.341539999999999566e-02 2.439657637950228164e+00
6.250000000000000347e-03 3.276799999999999852e-03 2.867338690567462489e+00
0.000000000000000000e+00 7.502719999999999615e-04 4.846414061602615675e+00
0.000000000000000000e+00 7.932899999999999891e-04 4.102660325454691836e+00
0.000000000000000000e+00 1.166750000000000035e-03 8.572454579465649260e-01
1.874999999999999931e-02 3.082820000000000005e-03 3.127278479022776558e+00
0.000000000000000000e+00 1.754179999999999932e-03 2.081956820361105187e+00
0.000000000000000000e+00 3.507010000000000075e-03 1.357166279689831612e+00
0.000000000000000000e+00 7.258310000000000239e-04 4.486959421852271257e-01
0.000000000000000000e+00 2.421249999999999791e-03 1.474123561825619433e+00
0.000000000000000000e+00 1.881599999999999874e-04 4.409387623636346731e+00
0.000000000000000000e+00 1.552769999999999975e-03 2.073302472874724245e+00
0.000000000000000000e+00 0.000000000000000000e+00 4.530026421889763455e+00
0.000000000000000000e+00 1.751490000000000078e-03 1.119158517597529379e+00
0.000000000000000000e+00 0.000000000000000000e+00 3.935768852917612470e+00
3.125000000000000173e-03 1.655279999999999946e-02 4.827715693300488553e+00
0.000000000000000000e+00 2.174550000000000042e-05 2.300835314752248451e+00
0.000000000000000000e+00 1.333760000000000024e-03 2.654657221730789551e+00
0.000000000000000000e+00 1.867069999999999971e-03 4.335087408078105220e+00
0.000000000000000000e+00 5.470720000000000097e-04 2.561825123912939706e+00
0.000000000000000000e+00 0.000000000000000000e+00 2.813763335081258088e+00
1.562500000000000000e-02 2.577149999999999840e-03 1.740762790788880743e+00
3.437500000000000278e-02 9.111310000000000242e-02 4.109679124682223517e+00
0.000000000000000000e+00 1.635390000000000021e-03 2.866657924158611870e+00
1.562500000000000000e-02 3.844419999999999869e-03 4.974946343603875221e+00
0.000000000000000000e+00 8.714600000000000081e-04 3.010034008760994695e+00
9.375000000000000000e-02 9.387260000000000049e-02 1.818783084962737995e+00
0.000000000000000000e+00 3.509819999999999867e-03 9.699702308988655819e-01
0.000000000000000000e+00 8.475410000000000495e-04 4.796496579826885487e+00
0.000000000000000000e+00 8.329599999999999938e-04 3.708054201709995557e+00
2.812500000000000069e-02 4.775879999999999709e-02 1.851071883306855792e+00
1.250000000000000069e-02 1.817919999999999996e-03 4.997197760675512690e+00
0.000000000000000000e+00 0.000000000000000000e+00 2.458460022355274388e-01
9.374999999999999653e-03 2.291780000000000206e-03 2.455685467413885270e+00
2.187499999999999861e-02 2.130749999999999832e-03 2.961548525498231221e+00
0.000000000000000000e+00 2.281800000000000074e-05 2.548378832287376827e+00
0.000000000000000000e+00 5.308910000000000235e-04 2.159579032101736296e+00
0.000000000000000000e+00 2.320000000000000014e-04 1.196021699400812155e+00
6.250000000000000347e-03 9.960449999999999859e-02 2.245381317276844424e+00
0.000000000000000000e+00 1.808900000000000004e-03 2.444703847726481083e+00
0.000000000000000000e+00 1.751849999999999837e-05 8.834698719571426606e-01
9.374999999999999653e-03 1.547779999999999902e-03 3.497409617467535092e+00
0.000000000000000000e+00 1.663299999999999935e-03 5.488504820471867829e-01
2.500000000000000139e-02 2.905539999999999859e-03 4.320865707729110383e+00
3.125000000000000173e-03 1.679490000000000063e-03 3.141445183186763579e+00
0.000000000000000000e+00 4.199550000000000136e-04 1.608330939962632211e+00
0.000000000000000000e+00 1.094909999999999937e-03 3.202349747349021669e+00
3.125000000000000173e-03 1.769540000000000002e-03 4.987006611631292330e+00
0.000000000000000000e+00 1.514700000000000074e-02 3.007858238996315325e+00
2.500000000000000139e-02 9.516399999999999859e-02 4.095649084394349160e+00
1.562500000000000000e-02 1.527619999999999933e-03 2.663315347795252475e+00
0.000000000000000000e+00 0.000000000000000000e+00 4.898161002774971351e+00
0.000000000000000000e+00 9.914880000000000047e-04 6.349399579791853432e-01
1.562500000000000000e-02 2.507329999999999889e-03 4.481020542104640292e+00
0.000000000000000000e+00 3.562880000000000148e-04 5.297749470112744774e-01
0.000000000000000000e+00 1.466040000000000051e-02 3.727144181910062137e+00
0.000000000000000000e+00 1.499840000000000027e-02 4.443262698256943644e+00
0.000000000000000000e+00 1.600000000000000077e-03 4.942221300388054850e+00
2.187499999999999861e-02 4.838270000000000418e-03 4.424271738664141473e+00
0.000000000000000000e+00 4.432059999999999819e-03 3.314222704802138875e+00
1.874999999999999931e-02 1.760000000000000063e-03 5.617941401106457677e-01
6.250000000000000347e-03 2.621819999999999967e-03 8.863946292865038101e-01
0.000000000000000000e+00 1.691460000000000099e-03 9.196718303496559388e-01
3.125000000000000173e-03 1.070019999999999999e-01 3.423251254208024452e+00
7.812500000000000000e-02 2.460709999999999981e-02 2.572871586732521809e+00
3.125000000000000173e-03 1.735739999999999939e-03 2.954730238206284998e+00
0.000000000000000000e+00 1.951620000000000047e-03 1.042907734243996742e+00
3.125000000000000173e-03 9.980129999999999557e-02 7.916798406967184842e-01
0.000000000000000000e+00 5.374320000000000139e-04 4.949701036011636468e+00
6.250000000000000347e-03 2.114749999999999963e-01 4.260685981532122746e+00
0.000000000000000000e+00 9.662079999999999757e-04 1.142379745113677902e+00
1.874999999999999931e-02 8.356030000000000402e-03 4.465204207316098461e+00
3.125000000000000173e-03 1.729960000000000005e-03 3.745978701838140079e+00
0.000000000000000000e+00 1.365700000000000074e-03 1.168149900820057319e+00
6.250000000000000347e-03 4.143230000000000350e-03 3.067002929232120145e+00
0.000000000000000000e+00 2.054139999999999872e-03 3.480636443795720458e-01
0.000000000000000000e+00 1.056129999999999959e-03 3.165633124324895409e+00
0.000000000000000000e+00 1.168900000000000061e-03 3.047030727608646128e+00
0.000000000000000000e+00 3.977599999999999864e-04 4.416558009579210520e+00
3.125000000000000173e-03 2.537150000000000169e-03 3.014325266937156744e+00
0.000000000000000000e+00 1.152060000000000107e-03 3.942557454088919222e+00
0.000000000000000000e+00 1.673220000000000002e-03 2.862958178689928301e-01
0.000000000000000000e+00 3.960319999999999921e-04 2.948958238789396002e+00
2.187499999999999861e-02 2.453630000000000047e-03 4.676367600668831059e+00
0.000000000000000000e+00 3.846780000000000165e-03 2.404798502002639893e+00
0.000000000000000000e+00 2.831869999999999787e-03 4.849200741885042021e+00
0.000000000000000000e+00 1.194109999999999963e-03 7.214102313439196834e-01
1.562500000000000000e-02 2.256579999999999784e-03 2.409839241900608275e+00
0.000000000000000000e+00 1.100290000000000079e-03 3.237226766753120266e+00
0.000000000000000000e+00 0.000000000000000000e+00 2.353285191862186210e+00
0.000000000000000000e+00 3.923199999999999843e-04 3.085299175063616062e+00
1.562500000000000000e-02 1.586750000000000053e-03 9.433907686084624933e-01
0.000000000000000000e+00 0.000000000000000000e+00 1.538909750362098094e+00
2.500000000000000139e-02 6.382269999999999784e-03 1.368283467030094736e+00
0.000000000000000000e+00 1.315810000000000070e-02 2.868984278268511545e+00
1.562500000000000000e-02 2.363459999999999953e-03 1.253756225575158201e+00
2.500000000000000139e-02 2.210940000000000214e-03 5.614009676764458723e-01
0.000000000000000000e+00 7.187129999999999474e-04 3.821987611888060687e+00
0.000000000000000000e+00 4.037569999999999874e-03 2.730747666289659037e+00
2.500000000000000139e-02 1.535549999999999892e-03 1.788786875331339621e+00
0.000000000000000000e+00 0.000000000000000000e+00 2.942227132450764060e+00
1.874999999999999931e-02 1.721599999999999997e-03 2.748926360770870270e-01
2.812500000000000069e-02 3.497539999999999937e-03 1.360745481149265412e+00
1.562500000000000000e-02 2.474430000000000119e-03 8.372718007742857571e-01
2.187499999999999861e-02 2.394690000000000100e-03 7.964426138053370963e-01
6.250000000000000347e-03 2.129900000000000126e-01 2.461054998105266511e-01
2.187499999999999861e-02 3.064959999999999820e-03 4.119929663966208189e+00
0.000000000000000000e+00 4.076430000000000136e-04 2.250197893413130590e-01
0.000000000000000000e+00 1.965179999999999911e-04 2.935002332691410976e-01
1.562500000000000000e-02 2.353979999999999875e-03 3.552463026952445979e-02
0.000000000000000000e+00 0.000000000000000000e+00 2.070628731602188299e+00
0.000000000000000000e+00 2.300940000000000030e-05 2.206444059177048000e+00
2.500000000000000139e-02 3.015490000000000011e-03 1.031480621998198677e+00
9.374999999999999653e-03 2.120879999999999987e-01 3.724479496138140444e+00
0.000000000000000000e+00 5.555840000000000257e-04 7.470575004010199249e-01
0.000000000000000000e+00 1.061249999999999910e-03 1.932725923267928358e+00
2.500000000000000139e-02 3.732029999999999896e-03 4.341040794895516974e+00
0.000000000000000000e+00 1.150339999999999913e-03 1.267493641371884472e+00
3.125000000000000173e-03 1.587950000000000125e-02 4.350615101817322028e+00
0.000000000000000000e+00 1.951440000000000073e-05 4.235609630088599253e+00
0.000000000000000000e+00 1.070119999999999925e-03 4.978047801865706390e+00
0.000000000000000000e+00 1.386939999999999918e-03 4.180985886528453932e+00
1.874999999999999931e-02 1.652159999999999957e-03 3.180262863448942490e+00
0.000000000000000000e+00 5.425280000000000206e-04 3.657015911059779967e+00
0.000000000000000000e+00 3.244739999999999864e-03 4.363052484015229382e+00
0.000000000000000000e+00 5.253120000000000012e-04 1.865886614933643273e+00
2.500000000000000139e-02 2.550269999999999881e-03 5.532304187844583332e-01
6.250000000000000347e-03 1.734890000000000043e-02 1.365033613134761126e+00
0.000000000000000000e+00 3.485089999999999716e-02 2.623341832817497554e+00
0.000000000000000000e+00 1.463419999999999999e-03 3.361718414472359306e+00
0.000000000000000000e+00 4.154019999999999913e-04 4.565905767642407298e+00
0.000000000000000000e+00 7.030019999999999889e-04 2.726817198784468044e+00
0.000000000000000000e+00 4.450920000000000137e-04 1.073599144909322955e+00
0.000000000000000000e+00 0.000000000000000000e+00 3.941798299393574734e+00
0.000000000000000000e+00 1.498999999999999985e-02 2.752058876490182104e+00
0.000000000000000000e+00 0.000000000000000000e+00 2.438428539317281096e+00
0.000000000000000000e+00 1.031179999999999976e-04 3.197218352627103855e+00
0.000000000000000000e+00 1.132159999999999894e-03 1.197200405911729160e+00
1.874999999999999931e-02 1.455359999999999944e-03 2.293983463190692351e+00
0.000000000000000000e+00 6.652970000000000238e-04 1.690464837174190382e+00
1.250000000000000069e-02 1.487679999999999905e-03 5.034305996471205580e-01
0.000000000000000000e+00 1.472959999999999938e-03 3.147827809588690240e+00
2.187499999999999861e-02 2.529089999999999897e-03 4.556663172097704440e+00
0.000000000000000000e+00 1.557309999999999901e-03 3.235096552177945561e+00
1.874999999999999931e-02 1.438980000000000077e-03 3.832268258389979643e+00
0.000000000000000000e+00 5.201280000000000183e-04 2.092430396870280873e+00
2.500000000000000139e-02 6.299899999999999771e-03 1.705766873917642812e+00
1.874999999999999931e-02 2.418879999999999988e-03 2.565597035935578862e+00
1.874999999999999931e-02 3.191740000000000202e-03 3.841281961333724571e+00
1.874999999999999931e-02 2.078210000000000040e-03 6.548398918199727081e-01
2.500000000000000139e-02 2.303359999999999956e-03 2.209353869115180391e+00
0.000000000000000000e+00 1.504130000000000007e-03 3.363891876192348640e-01
1.874999999999999931e-02 3.568379999999999903e-03 4.092346922580032853e+00
3.125000000000000000e-02 9.081859999999999933e-02 3.164385048021868929e+00
1.874999999999999931e-02 2.824699999999999867e-03 2.635948812916438122e+00
0.000000000000000000e+00 0.000000000000000000e+00 1.062414595921036264e+00
1.250000000000000069e-02 1.728130000000000031e-03 2.682670221615162554e+00
0.000000000000000000e+00 1.210619999999999925e-03 4.602343344265103831e+00
1.250000000000000069e-02 1.784699999999999958e-03 4.384183930457003164e+00
0.000000000000000000e+00 1.461700000000000022e-03 4.759579594262799418e+00
0.000000000000000000e+00 1.937780000000000058e-02 1.823418312111035444e+00
2.500000000000000139e-02 2.004099999999999979e-03 3.778403836542842509e+00
1.250000000000000069e-02 2.397820000000000160e-03 3.109188056236855680e-01
0.000000000000000000e+00 3.925089999999999786e-04 3.506278977506989580e+00
1.062499999999999972e-01 8.039870000000000350e-02 3.470514770234407020e+00
0.000000000000000000e+00 1.188990000000000012e-03 3.553358885037154469e+00
0.000000000000000000e+00 3.788800000000000045e-04 3.767355063090735534e+00
0.000000000000000000e+00 1.529640000000000079e-03 4.476739235106535375e+00
1.250000000000000069e-02 1.166659999999999919e-03 8.012979263109548667e-01
6.250000000000000347e-03 2.900160000000000151e-03 3.614425456243882007e+00
1.250000000000000069e-02 9.076739999999999808e-03 2.224431023175545530e+00
1.250000000000000069e-02 3.141820000000000029e-03 2.936857282183104267e+00
3.125000000000000173e-03 1.651200000000000020e-03 2.136306685477666889e+00
0.000000000000000000e+00 1.707519999999999915e-03 1.258718812917107410e+00
0.000000000000000000e+00 0.000000000000000000e+00 4.422620327875423030e+00
0.000000000000000000e+00 7.936379999999999824e-03 2.841278845552223764e+00
0.000000000000000000e+00 1.388219999999999905e-03 1.074150796013698672e+00
0.000000000000000000e+00 5.962880000000000480e-04 1.176194531436737911e+00
0.000000000000000000e+00 4.148889999999999913e-04 4.306016112512910610e+00
0.000000000000000000e+00 7.344240000000000143e-04 1.606057406386125042e+00
1.250000000000000069e-02 1.238909999999999968e-03 1.990098664448707755e+00
6.250000000000000347e-03 3.426939999999999847e-03 4.026068742223857910e+00
2.500000000000000139e-02 2.508100000000000086e-03 2.856721299228642152e+00
2.187499999999999861e-02 2.210820000000000059e-03 7.561541806643579111e-01
9.374999999999999653e-03 1.159869999999999911e-03 5.587926065492082595e-01
2.812500000000000069e-02 1.025920000000000044e-03 4.572992935006076065e-01
0.000000000000000000e+00 1.122240000000000043e-03 1.331804340282698451e+00
0.000000000000000000e+00 9.621119999999999933e-04 2.197255404294382153e+00
2.187499999999999861e-02 2.537220000000000187e-03 2.109575277334425181e+00
3.125000000000000173e-03 1.638399999999999926e-03 1.123159514700213357e+00
0.000000000000000000e+00 1.306670000000000054e-02 1.413566870228509798e+00
0.000000000000000000e+00 1.191360000000000032e-03 2.030900234457830855e+00
0.000000000000000000e+00 3.797760000000000176e-04 2.347864760683004093e+00
9.374999999999999653e-03 1.305919999999999911e-03 9.986324793325584981e-01
3.125000000000000173e-03 9.650770000000000182e-02 4.056750678750319139e+00
0.000000000000000000e+00 1.087230000000000011e-03 4.158561317912879751e+00
6.250000000000000347e-03 1.099920000000000064e-01 1.063625223204556214e-01
0.000000000000000000e+00 4.646399999999999966e-04 1.784649913238162133e-01
1.874999999999999931e-02 2.186050000000000146e-03 1.037462971614989682e+00
2.187499999999999861e-02 3.305919999999999952e-03 2.344980182323647133e-01
6.250000000000000347e-03 1.401340000000000051e-03 2.610437903096594070e+00
0.000000000000000000e+00 0.000000000000000000e+00 7.175195166131431712e-01
0.000000000000000000e+00 1.474729999999999965e-02 2.752200408719210678e+00
0.000000000000000000e+00 1.155980000000000028e-03 1.112075435672081891e+00
0.000000000000000000e+00 5.021440000000000495e-04 2.857112019449808971e-01
3.125000000000000173e-03 7.997860000000000733e-03 2.272877007076294475e+00
2.812500000000000069e-02 2.576059999999999808e-03 1.071625197241585781e+00
1.250000000000000069e-02 2.191810000000000199e-03 3.143976350122920316e+00
9.374999999999999653e-03 1.206529999999999929e-03 2.308251734781670006e+00
9.374999999999999653e-03 4.006530000000000334e-03 1.862490179468332396e+00
0.000000000000000000e+00 4.126439999999999882e-04 4.846017865728980745e+00
2.500000000000000139e-02 9.493959999999999899e-02 1.563411345596418256e+00
2.812500000000000069e-02 1.027139999999999997e-02 2.807644475421822161e+00
0.000000000000000000e+00 1.111170000000000083e-03 1.790674687236435414e+00
1.250000000000000069e-02 2.371649999999999887e-03 1.368671500384557316e+00
9.374999999999999653e-03 9.819250000000000200e-02 3.639578977709647223e+00
0.000000000000000000e+00 3.464680000000000038e-04 8.225419303216852107e-02
0.000000000000000000e+00 6.172539999999999798e-03 1.062870395750440400e+00
0.000000000000000000e+00 4.207239999999999786e-04 3.411900849717318884e+00
2.812500000000000069e-02 3.114179999999999813e-03 3.579022503216560569e+00
3.125000000000000173e-03 3.160899999999999908e-03 2.060273439559955122e+00
0.000000000000000000e+00 1.920320000000000100e-03 8.373683937931425403e-01
1.562500000000000000e-02 2.516579999999999859e-02 3.249164217587224179e+00
0.000000000000000000e+00 2.295959999999999952e-05 1.828818905581727217e+00
0.000000000000000000e+00 0.000000000000000000e+00 4.476381794518531798e+00
2.187499999999999861e-02 3.163839999999999795e-03 2.701422442969922511e+00
0.000000000000000000e+00 1.143930000000000034e-03 4.989195471198470955e-01
3.125000000000000173e-03 3.949470000000000064e-02 7.143723574590316039e-01
3.125000000000000173e-03 9.346509999999999541e-02 3.086262046353005939e+00
0.000000000000000000e+00 0.000000000000000000e+00 1.320165662104988424e-01
0.000000000000000000e+00 3.810309999999999912e-04 3.898024575874847297e+00
0.000000000000000000e+00 0.000000000000000000e+00 2.516598960976536681e+00
0.000000000000000000e+00 0.000000000000000000e+00 4.400443466794697223e+00
0.000000000000000000e+00 1.102719999999999959e-03 4.923020252219860282e+00
0.000000000000000000e+00 1.949369999999999922e-02 8.855027047242641780e-01
0.000000000000000000e+00 5.247999999999999627e-04 4.987059881737500255e+00
3.125000000000000173e-03 1.044559999999999933e-02 1.618946400928876095e+00
1.562500000000000000e-02 2.134210000000000100e-03 2.316678317806040610e+00
0.000000000000000000e+00 2.237800000000000157e-05 5.590416244649787370e-01
3.125000000000000173e-03 6.223360000000000263e-04 4.025552458183564219e+00
1.562500000000000000e-02 1.069920000000000038e-01 2.562877446052794994e+00
9.374999999999999653e-03 1.516860000000000083e-03 1.870015945468483487e+00
4.062500000000000139e-02 9.337550000000000017e-02 1.151089575862480618e+00
0.000000000000000000e+00 1.091839999999999955e-03 2.427039042922633616e+00
3.125000000000000173e-03 2.992579999999999893e-03 3.821475053540183797e+00
0.000000000000000000e+00 1.437439999999999898e-03 3.115741953301824463e+00
0.000000000000000000e+00 1.484859999999999956e-03 2.692560147723476849e+00
2.500000000000000139e-02 1.865219999999999899e-03 3.072896871693570064e-01
0.000000000000000000e+00 1.005760000000000074e-03 3.273966914985729115e+00
0.000000000000000000e+00 1.152060000000000107e-03 5.122649724963779239e-01
1.562500000000000000e-02 1.319230000000000012e-03 2.468308767684579408e-01
2.812500000000000069e-02 2.079810000000000079e-03 1.814017189057618440e+00
1.062499999999999972e-01 8.074249999999999483e-02 2.640352584507932310e+00
6.250000000000000347e-03 2.824699999999999867e-03 2.951587402240531954e+00
0.000000000000000000e+00 1.110000000000000092e-03 3.470224164350768525e+00
3.125000000000000173e-03 1.492480000000000022e-03 5.704269235857001297e-01
0.000000000000000000e+00 0.000000000000000000e+00 6.152056133862227050e-01
3.125000000000000173e-03 2.415229999999999981e-03 4.065261925197320991e+00
0.000000000000000000e+00 2.045439999999999986e-04 2.125547561556806464e-02
0.000000000000000000e+00 2.206720000000000122e-03 1.436408171744035123e+00
0.000000000000000000e+00 3.738239999999999771e-04 2.043181053333332109e+00
0.000000000000000000e+00 3.976999999999999980e-02 4.555734224603947169e+00
0.000000000000000000e+00 6.447300000000000426e-03 3.802313124494646868e+00
1.562500000000000000e-02 2.010300000000000021e-03 1.284350256361025400e+00
9.374999999999999653e-03 1.515969999999999948e-03 2.939376666384762693e+00
3.125000000000000173e-03 8.012540000000000287e-03 1.388793978918336780e+00
1.874999999999999931e-02 2.660989999999999796e-03 3.878587752505797237e+00
3.125000000000000173e-03 6.457599999999999972e-04 4.681448771466339975e-01
0.000000000000000000e+00 2.384639999999999991e-04 6.818857332520050774e-01
0.000000000000000000e+00 9.977860000000000722e-04 2.709630836642085594e+00
0.000000000000000000e+00 3.826500000000000040e-03 1.481471673609480177e+00
3.125000000000000173e-03 9.792180000000000328e-02 3.447070521241957231e+00
0.000000000000000000e+00 7.301910000000000431e-04 1.519399135466428241e+00
0.000000000000000000e+00 1.012740000000000038e-03 3.649098309575935062e+00
3.125000000000000173e-03 9.933870000000000200e-02 3.987138115315464582e+00
0.000000000000000000e+00 2.144239999999999989e-05 3.524749217733372575e+00
1.562500000000000000e-02 1.353730000000000037e-03 5.802096322900845982e-01
6.250000000000000347e-03 3.276799999999999852e-03 5.568636498588569461e-01
2.500000000000000139e-02 2.309059999999999932e-03 3.304382986497138130e+00
0.000000000000000000e+00 8.470269999999999796e-04 3.747141132980084777e+00
0.000000000000000000e+00 1.015040000000000039e-03 3.258655807305392837e+00
0.000000000000000000e+00 1.004129999999999997e-03 1.126305769754263775e+00
3.125000000000000173e-03 3.276799999999999852e-03 1.790028188573373313e+00
2.500000000000000139e-02 2.934079999999999935e-03 2.701966228341668774e+00
0.000000000000000000e+00 1.152060000000000107e-03 3.370432855248138182e+00
1.874999999999999931e-02 2.890499999999999840e-03 3.269966879313440655e-01
0.000000000000000000e+00 3.220610000000000053e-03 7.373203604603373318e-01
0.000000000000000000e+00 7.981439999999999802e-04 1.998560579128893622e+00
2.812500000000000069e-02 1.065030000000000004e-01 1.814434966601229382e+00
1.874999999999999931e-02 2.602319999999999980e-02 3.188702056682540142e+00
6.250000000000000347e-03 1.026969999999999966e-02 4.891033056688312897e+00
0.000000000000000000e+00 1.958779999999999809e-03 1.905236735850237562e+00
0.000000000000000000e+00 1.011519999999999911e-03 1.366224114216863406e+00
2.187499999999999861e-02 1.733629999999999893e-03 4.237601028710957785e-01
0.000000000000000000e+00 0.000000000000000000e+00 3.896512214355349002e+00
0.000000000000000000e+00 3.426690000000000031e-03 6.418066127083432715e-01
0.000000000000000000e+00 9.782400000000000123e-04 2.187734446318234216e+00
9.374999999999999653e-03 8.939580000000000790e-03 4.583431935842370741e+00
0.000000000000000000e+00 4.232889999999999786e-04 2.042222125062236771e+00
0.000000000000000000e+00 3.053820000000000059e-03 3.112750166555741771e+00
0.000000000000000000e+00 0.000000000000000000e+00 4.252211782214327052e+00
0.000000000000000000e+00 1.615359999999999930e-03 3.722402573778407220e+00
6.250000000000000347e-03 3.276799999999999852e-03 1.924479697167935210e+00
1.562500000000000000e-02 9.455389999999999628e-02 4.351999361877622263e+00
3.125000000000000173e-03 1.516089999999999972e-02 1.261375489670106820e+00
0.000000000000000000e+00 1.497920000000000024e-03 1.031337817927090450e+00
0.000000000000000000e+00 9.840639999999999891e-04 3.554326987434126117e+00
0.000000000000000000e+00 1.301889999999999992e-03 2.749150074082557182e+00
2.187499999999999861e-02 2.138300000000000096e-03 3.797943585745692907e+00
0.000000000000000000e+00 2.637630000000000183e-03 3.667961065456960768e+00
0.000000000000000000e+00 2.287560000000000168e-05 4.142786066266369360e+00
1.250000000000000069e-02 2.540099999999999997e-03 5.075947501650318605e-01
2.187499999999999861e-02 5.716109999999999941e-02 2.521015447374503449e+00
9.374999999999999653e-03 2.668419999999999907e-03 1.875022321588333707e+00
0.000000000000000000e+00 2.504829999999999991e-03 1.878365893010756515e+00
3.125000000000000173e-03 7.564800000000000213e-04 5.007509850811686647e-01
1.874999999999999931e-02 2.566460000000000009e-03 4.068155125213876566e+00
0.000000000000000000e+00 4.457909999999999824e-03 1.784226282144291131e+00
6.250000000000000347e-03 1.007050000000000028e-01 9.259935867310492563e-01
6.250000000000000347e-03 3.276799999999999852e-03 2.541374866298898638e+00
2.812500000000000069e-02 6.293340000000000045e-02 1.065729586292180064e+00
0.000000000000000000e+00 8.364800000000000143e-04 2.744728204718899223e-01
6.250000000000000347e-03 3.276799999999999852e-03 2.756044551546471766e+00
0.000000000000000000e+00 2.846589999999999971e-03 2.868956876696429958e+00
0.000000000000000000e+00 0.000000000000000000e+00 3.863455039946402270e+00
6.250000000000000347e-03 1.725890000000000106e-03 8.884888294500892236e-01
0.000000000000000000e+00 1.058110000000000023e-01 3.469081940507745543e+00
0.000000000000000000e+00 1.502080000000000038e-03 6.733862021542380560e-01
2.187499999999999861e-02 4.706099999999999867e-02 2.213313166922804776e+00
1.562500000000000000e-02 3.141380000000000040e-03 2.946839296072028880e+00
1.874999999999999931e-02 3.268860000000000168e-03 1.401529829336968902e+00
0.000000000000000000e+00 1.192700000000000097e-03 1.591557740836353929e+00
1.874999999999999931e-02 2.475259999999999960e-03 4.308813904048445664e+00
3.125000000000000173e-03 6.602240000000000539e-04 2.057054537804372973e+00
0.000000000000000000e+00 2.183560000000000015e-02 3.769306792784216764e+00
0.000000000000000000e+00 0.000000000000000000e+00 4.038153769641137814e+00
0.000000000000000000e+00 2.210940000000000214e-03 4.209757756702289022e+00
0.000000000000000000e+00 2.744959999999999956e-04 4.111443684450622804e+00
3.125000000000000173e-03 1.849539999999999995e-03 1.824893416109738098e+00
0.000000000000000000e+00 0.000000000000000000e+00 2.595187908168075985e+00
0.000000000000000000e+00 1.445950000000000100e-03 3.187694237923893725e-01
0.000000000000000000e+00 3.794280000000000135e-04 6.991228206198357720e-01
0.000000000000000000e+00 1.174399999999999923e-03 1.597627715217362354e+00
0.000000000000000000e+00 9.804799999999999367e-04 3.370343717628944802e+00
2.187499999999999861e-02 2.098619999999999826e-03 2.077405816716546560e+00
0.000000000000000000e+00 1.156420000000000017e-03 2.698767255339790783e+00
0.000000000000000000e+00 4.155939999999999786e-04 3.560037193033780856e+00
0.000000000000000000e+00 9.530880000000000471e-04 1.251433875487346636e+00
0.000000000000000000e+00 6.332339999999999887e-04 1.720970885032552244e-01
0.000000000000000000e+00 1.172220000000000076e-03 3.859992978835156130e+00
3.125000000000000000e-02 1.596479999999999948e-03 3.850458852707088653e+00
1.250000000000000069e-02 2.533759999999999919e-03 2.944940651475934423e+00
3.125000000000000173e-03 2.811200000000000157e-02 1.888152438942657385e+00
0.000000000000000000e+00 1.991680000000000013e-04 8.682499961124318100e-01
0.000000000000000000e+00 1.001410000000000104e-03 4.191836700517946213e+00
1.562500000000000000e-02 2.722179999999999826e-03 3.873771025260126510e+00
0.000000000000000000e+00 1.466879999999999888e-04 3.676567740001956963e+00
0.000000000000000000e+00 1.925369999999999859e-02 3.991325540976020214e+00
2.500000000000000139e-02 9.174119999999999497e-02 4.613667153701381807e+00
0.000000000000000000e+00 3.217090000000000140e-03 2.442216992865768876e+00
0.000000000000000000e+00 0.000000000000000000e+00 7.806162730826465834e-01
2.500000000000000139e-02 2.352509999999999931e-03 2.958344503518080426e+00
0.000000000000000000e+00 3.732070000000000201e-04 4.698750768028848945e+00
0.000000000000000000e+00 1.741439999999999915e-04 9.790759744796173614e-01
3.125000000000000173e-03 8.021120000000000073e-04 3.276029253768991012e+00
0.000000000000000000e+00 0.000000000000000000e+00 2.907193788633946063e+00
3.125000000000000173e-03 1.914109999999999900e-03 2.303500620066850857e+00
0.000000000000000000e+00 5.450620000000000204e-04 4.323020371759258573e+00
0.000000000000000000e+00 0.000000000000000000e+00 4.093599304247618420e+00
0.000000000000000000e+00 1.107459999999999998e-03 1.836729499018870948e+00
0.000000000000000000e+00 0.000000000000000000e+00 7.378636503911151223e-01
0.000000000000000000e+00 8.017280000000000326e-04 6.389193871025178328e-01
0.000000000000000000e+00 1.167099999999999908e-03 3.593000131280099652e-01
6.250000000000000347e-03 9.930239999999999033e-04 2.174280154299472745e+00
0.000000000000000000e+00 1.497990000000000085e-02 1.780651815767801516e+00
0.000000000000000000e+00 1.473020000000000015e-03 2.245876633008248024e-01
3.125000000000000173e-03 3.055229999999999925e-03 3.060375394932038251e+00
0.000000000000000000e+00 2.387220000000000159e-05 2.442109278463879818e+00
0.000000000000000000e+00 0.000000000000000000e+00 1.231393518253510733e+00
0.000000000000000000e+00 3.848960000000000228e-04 2.161336007279679450e-01
2.812500000000000069e-02 2.275779999999999817e-03 3.765728918128524727e-01
0.000000000000000000e+00 9.557119999999999461e-04 3.224768234924926258e+00
1.000000000000000056e-01 8.145040000000000613e-02 4.966587672131338671e+00
2.500000000000000139e-02 2.134850000000000202e-03 3.583644963471226852e+00
2.500000000000000139e-02 2.852799999999999954e-03 3.817456829283345954e+00
0.000000000000000000e+00 2.809920000000000039e-03 2.722009316014820435e+00
3.125000000000000173e-03 1.638399999999999926e-02 1.556107778961365318e+00
2.187499999999999861e-02 2.104060000000000045e-03 2.589087235861259995e+00
0.000000000000000000e+00 0.000000000000000000e+00 3.867787374046017135e+00
3.125000000000000173e-03 7.861759999999999755e-04 3.219111451270925794e+00
0.000000000000000000e+00 9.808639999999999113e-04 1.111761082621558483e+00
1.250000000000000069e-02 1.465860000000000036e-03 2.704437366999901560e+00
0.000000000000000000e+00 0.000000000000000000e+00 3.726190854660074603e+00
0.000000000000000000e+00 5.774979999999999870e-03 3.903799056948103363e+00
0.000000000000000000e+00 3.808379999999999882e-04 7.329976625762330000e-01
1.874999999999999931e-02 2.755899999999999930e-03 4.046141750723462494e+00
0.000000000000000000e+00 1.565060000000000062e-03 5.638160731252128688e-01
0.000000000000000000e+00 1.472189999999999957e-03 2.281956416535328103e+00
1.874999999999999931e-02 8.638140000000000748e-03 1.599513878587695004e+00
0.000000000000000000e+00 0.000000000000000000e+00 1.405711904053059236e+00
0.000000000000000000e+00 1.128000000000000096e-03 1.151963958273443112e+00
1.562500000000000000e-02 9.604959999999999887e-02 2.362919977445874675e+00
2.500000000000000139e-02 2.377540000000000035e-03 3.307091746490723239e+00
9.374999999999999653e-03 2.055420000000000077e-03 2.081894077761825557e+00
0.000000000000000000e+00 0.000000000000000000e+00 1.985745753908963351e+00
0.000000000000000000e+00 5.031039999999999861e-04 9.069279795340740025e-01
0.000000000000000000e+00 3.938559999999999913e-04 4.582332363914705553e+00
6.250000000000000347e-03 1.065920000000000062e-01 1.128853022529744399e+00
0.000000000000000000e+00 0.000000000000000000e+00 1.425497182436610721e+00
3.125000000000000000e-02 9.502270000000000161e-03 2.163627082324582229e+00
0.000000000000000000e+00 2.286849999999999967e-05 2.387697245542809377e+00
0.000000000000000000e+00 1.183680000000000105e-03 9.048689886147603945e-01
6.250000000000000347e-03 9.687260000000000315e-02 3.359728977022014451e+00
1.250000000000000069e-02 3.025560000000000055e-02 2.873601283324208389e+00
0.000000000000000000e+00 1.326780000000000060e-03 9.864098665586668035e-01
1.874999999999999931e-02 5.840060000000000216e-03 3.427737991733195599e+00
0.000000000000000000e+00 3.002299999999999847e-03 4.353135440058233385e+00
3.125000000000000173e-03 1.700950000000000031e-02 2.364270721155790511e+00
1.250000000000000069e-02 2.495810000000000216e-03 2.053614534916602175e+00
1.250000000000000069e-02 2.043709999999999798e-03 4.090880267960343986e+00
2.187499999999999861e-02 9.027229999999999976e-02 3.874942567561773465e+00
0.000000000000000000e+00 1.142400000000000013e-03 4.285902894771493443e+00
0.000000000000000000e+00 4.673019999999999952e-03 6.246449131673820210e-01
0.000000000000000000e+00 4.065280000000000217e-04 1.144942465743348237e-01
0.000000000000000000e+00 4.526579999999999883e-04 1.307049606454744328e+00
0.000000000000000000e+00 2.027590000000000013e-05 1.092260411242245155e+00
0.000000000000000000e+00 1.594179999999999946e-03 2.412913782131899332e+00
0.000000000000000000e+00 9.801600000000001024e-04 2.177639751671206270e+00
6.250000000000000347e-03 9.834439999999999849e-02 1.292572771881043137e+00
6.250000000000000347e-03 2.983299999999999928e-03 4.156195780257132100e+00
1.562500000000000000e-02 1.854139999999999998e-03 1.524369176280451210e+00
0.000000000000000000e+00 1.080580000000000039e-03 4.046524920894580823e+00
0.000000000000000000e+00 1.089539999999999953e-03 3.214758363697792554e+00
3.125000000000000173e-03 1.622589999999999926e-03 3.581521625182360058e-01
0.000000000000000000e+00 9.895039999999999912e-04 4.155185731503599378e+00
3.125000000000000173e-03 9.858790000000000608e-02 1.819346744578159702e-01
0.000000000000000000e+00 1.638780000000000054e-03 8.006823655323286326e-01
0.000000000000000000e+00 1.072260000000000010e-03 2.542330251378958295e+00
0.000000000000000000e+00 1.076799999999999936e-03 1.471046881023811981e+00
0.000000000000000000e+00 0.000000000000000000e+00 1.168812710038647396e+00
0.000000000000000000e+00 0.000000000000000000e+00 1.496866514394553649e+00
0.000000000000000000e+00 3.265019999999999988e-03 2.419801724925073394e+00
0.000000000000000000e+00 3.575870000000000090e-03 4.084058110848010514e+00
0.000000000000000000e+00 5.065230000000000427e-04 2.034710301782832076e+00
1.874999999999999931e-02 1.650940000000000046e-03 3.330482373235156501e+00
5.000000000000000278e-02 9.335450000000000692e-02 1.870734036765117070e+00
0.000000000000000000e+00 1.948000000000000079e-02 3.755706456952876859e+00
0.000000000000000000e+00 3.929599999999999782e-04 4.307402508626911875e-01
0.000000000000000000e+00 1.933379999999999951e-03 2.162565587672085510e+00
3.125000000000000173e-03 7.478529999999999726e-03 3.952279546731931159e+00
0.000000000000000000e+00 0.000000000000000000e+00 3.453901211200349763e-01
9.374999999999999653e-03 2.775489999999999815e-03 8.779429019070628115e-01
0.000000000000000000e+00 9.022719999999999699e-04 2.197144662584579855e+00
0.000000000000000000e+00 3.204610000000000097e-03 1.606378070522216817e+00
0.000000000000000000e+00 1.010159999999999964e-03 2.535415860762846751e+00
0.000000000000000000e+00 9.214120000000000340e-04 6.709968686670120253e-02
0.000000000000000000e+00 1.143420000000000027e-03 2.390564215984135821e+00
3.125000000000000173e-03 1.914849999999999886e-02 2.107129437462285093e-01
3.125000000000000173e-03 7.871919999999999265e-03 2.485265350635477155e+00
6.250000000000000347e-03 2.650430000000000060e-03 1.449583230462477834e+00
0.000000000000000000e+00 3.819930000000000135e-04 3.604311819188282806e-01
0.000000000000000000e+00 1.515389999999999923e-03 2.056388120619754289e+00
0.000000000000000000e+00 1.171200000000000062e-03 3.591475379224767117e+00
0.000000000000000000e+00 0.000000000000000000e+00 3.295190896462461438e+00
0.000000000000000000e+00 1.661439999999999868e-04 5.241152690946138115e-01
0.000000000000000000e+00 1.256189999999999911e-03 1.412171460314154414e+00
0.000000000000000000e+00 1.004420000000000009e-03 2.245472232988876105e+00
0.000000000000000000e+00 2.780799999999999939e-04 8.381597193881962227e-01
9.374999999999999653e-03 2.195519999999999850e-03 4.261013669701091189e+00
0.000000000000000000e+00 5.507700000000000139e-04 1.620897099865293844e+00
0.000000000000000000e+00 7.232710000000000484e-04 1.312780811012799642e+00
0.000000000000000000e+00 2.158720000000000094e-04 6.349006461180084493e-01
2.500000000000000139e-02 2.951039999999999826e-03 4.352777896374362854e+00
3.125000000000000000e-02 6.370940000000000283e-03 2.446292663865190509e+00
0.000000000000000000e+00 2.297599999999999957e-04 4.636492849375240866e+00
2.500000000000000139e-02 2.976379999999999824e-03 3.390312418514058734e+00
0.000000000000000000e+00 1.918400000000000010e-03 4.246646916049413356e+00
0.000000000000000000e+00 2.501119999999999797e-04 3.355208523825429445e+00
0.000000000000000000e+00 1.456190000000000002e-03 3.144761510190164699e+00
0.000000000000000000e+00 1.686620000000000003e-03 1.602440084022656031e+00
0.000000000000000000e+00 1.351680000000000069e-03 2.879147932091214557e+00
0.000000000000000000e+00 3.542910000000000135e-04 3.901240526149105659e+00
6.250000000000000347e-03 3.861310000000000176e-03 4.029350517427361389e+00
0.000000000000000000e+00 1.638399999999999926e-03 4.125843197906570836e+00
1.562500000000000000e-02 3.727620000000000065e-03 7.586780254946073887e-01
6.250000000000000347e-03 3.276799999999999852e-03 7.522829447664247660e-01
0.000000000000000000e+00 1.970239999999999839e-03 8.406355972792317610e-01
0.000000000000000000e+00 7.841919999999999620e-04 7.980216061388817339e-01
