2.187499999999999861e-02 2.561410000000000076e-03 4.793328768028741749e+00
2.500000000000000139e-02 3.465339999999999913e-03 2.938040079377167935e+00
8.749999999999999445e-02 9.209570000000000256e-02 3.405954890086960063e+00
0.000000000000000000e+00 1.768320000000000037e-04 3.055911946246236521e+00
0.000000000000000000e+00 5.050480000000000204e-04 2.982617483695147342e+00
0.000000000000000000e+00 6.023040000000000121e-04 3.301200993638322423e+00
0.000000000000000000e+00 8.397440000000000156e-04 1.580189268009180026e+00
0.000000000000000000e+00 7.240989999999999666e-04 3.042901655166990516e+00
0.000000000000000000e+00 1.032160000000000065e-03 3.667268659228500205e+00
1.562500000000000000e-02 2.110039999999999971e-01 2.752388630924917923e-02
2.500000000000000139e-02 2.257089999999999791e-03 2.647385722615187120e+00
0.000000000000000000e+00 5.410820000000000213e-03 3.097038236761483709e+00
2.812500000000000069e-02 9.205480000000000607e-02 3.507689929233173132e+00
0.000000000000000000e+00 1.957259999999999903e-02 1.979003929209018908e+00
7.499999999999999722e-02 9.067640000000000422e-02 2.776015409249862564e+00
0.000000000000000000e+00 1.095300000000000006e-03 4.164963420231991620e+00
1.874999999999999931e-02 2.250879999999999808e-03 3.994916895011324520e-01
3.125000000000000173e-03 1.191680000000000083e-03 3.775288339635942680e+00
0.000000000000000000e+00 1.056960000000000018e-03 3.809500582401427859e+00
0.000000000000000000e+00 5.131279999999999565e-04 4.050368447255483950e+00
1.874999999999999931e-02 1.710719999999999992e-03 1.300976940399499737e+00
3.125000000000000173e-03 7.943360000000000004e-03 2.554314688158036528e+00
0.000000000000000000e+00 2.617009999999999909e-03 1.255720020693930739e+00
0.000000000000000000e+00 6.060800000000000519e-04 2.797161618113144232e+00
0.000000000000000000e+00 1.895760000000000153e-02 4.651348057876203423e-02
1.874999999999999931e-02 2.198269999999999998e-03 3.933129174518714688e+00
0.000000000000000000e+00 7.285879999999999570e-04 1.149692582570703836e+00
1.250000000000000069e-02 8.437250000000000305e-03 2.195607371116574225e+00
0.000000000000000000e+00 2.448740000000000031e-03 4.363138017630932453e+00
0.000000000000000000e+00 1.570620000000000002e-03 2.553125517103509878e+00
2.500000000000000139e-02 2.484800000000000116e-03 3.802351054470209490e+00
0.000000000000000000e+00 1.000479999999999989e-03 4.114944150651520971e+00
3.125000000000000000e-02 9.316639999999999644e-02 3.457968250008827127e+00
2.812500000000000069e-02 2.641220000000000113e-03 4.847259654330343670e-01
0.000000000000000000e+00 5.144000000000000135e-03 4.644687839340122082e+00
0.000000000000000000e+00 7.317299999999999889e-04 4.465664372382965652e+00
3.125000000000000173e-03 1.217520000000000061e-02 4.949213825120880372e+00
0.000000000000000000e+00 7.373730000000000432e-04 1.193801003735398547e+00
0.000000000000000000e+00 1.708099999999999940e-03 1.371923886228670231e+00
2.812500000000000069e-02 1.422529999999999975e-03 4.797320806226315959e+00
2.500000000000000139e-02 2.554879999999999825e-03 2.322622746699702923e+00
0.000000000000000000e+00 2.531709999999999950e-03 1.982779528437415451e+00
4.687500000000000000e-02 2.125150000000000095e-01 2.240288719474156309e+00
0.000000000000000000e+00 6.425600000000000278e-04 1.911880283442873862e+00
0.000000000000000000e+00 1.013250000000000045e-03 1.188565564115808382e+00
0.000000000000000000e+00 2.256330000000000141e-02 3.366745186768829612e+00
1.874999999999999931e-02 1.781500000000000097e-03 3.035654173631999520e+00
0.000000000000000000e+00 4.919620000000000416e-03 2.611300738107091401e+00
0.000000000000000000e+00 1.071099999999999960e-03 1.937425604129990209e+00
0.000000000000000000e+00 7.642420000000000463e-04 3.036074647061548504e-01
1.562500000000000000e-02 1.992579999999999872e-03 4.271210352307234004e+00
1.250000000000000069e-02 2.511230000000000146e-03 5.701026438268702590e-01
3.125000000000000173e-03 1.895170000000000058e-03 2.131213316672077696e+00
3.125000000000000000e-02 1.054889999999999994e-01 1.604275903570186568e+00
6.250000000000000347e-03 1.875839999999999929e-03 4.488232712828139626e+00
1.250000000000000069e-02 1.610749999999999986e-03 4.439462961427762089e+00
6.250000000000000347e-03 1.759719999999999991e-03 3.594797704450978237e+00
1.562500000000000000e-02 1.649340000000000007e-03 3.207120755132536694e+00
3.125000000000000173e-03 1.327169999999999912e-03 4.317928615452083285e+00
2.187499999999999861e-02 2.201409999999999999e-03 3.137260680029359428e+00
0.000000000000000000e+00 1.099010000000000091e-03 2.255057730071263755e-01
3.125000000000000173e-03 8.834120000000000861e-03 2.487306916535042545e-01
0.000000000000000000e+00 8.200959999999999760e-04 3.034068976274800766e-01
0.000000000000000000e+00 1.016509999999999983e-03 1.532377041054538980e-01
0.000000000000000000e+00 2.251490000000000021e-05 1.409252912094325794e+00
0.000000000000000000e+00 7.299350000000000239e-04 4.472089074736488534e+00
0.000000000000000000e+00 1.148090000000000048e-03 4.451751067540068441e+00
3.125000000000000173e-03 9.530089999999999395e-02 1.774702823972722054e+00
0.000000000000000000e+00 2.405329999999999795e-03 4.668108382651105615e+00
0.000000000000000000e+00 4.127730000000000136e-04 2.227297555750156643e+00
0.000000000000000000e+00 1.181699999999999938e-02 4.503888781590067225e+00
0.000000000000000000e+00 7.348720000000000209e-04 1.593433935947650593e+00
1.562500000000000000e-02 2.826369999999999924e-03 4.395988722485290268e+00
0.000000000000000000e+00 5.494869999999999789e-04 4.738617050072967629e+00
2.812500000000000069e-02 1.203579999999999928e-02 8.074721136603912885e-01
2.500000000000000139e-02 1.785410000000000079e-03 1.256435754847616160e+00
2.187499999999999861e-02 2.526340000000000183e-03 2.083760723207675802e+00
0.000000000000000000e+00 1.076099999999999973e-03 2.626652022757362648e+00
0.000000000000000000e+00 4.686250000000000203e-04 3.903991891784579948e+00
3.437500000000000278e-02 3.612010000000000220e-02 2.366254302466436421e+00
2.187499999999999861e-02 2.305789999999999836e-03 2.194587443747305855e+00
3.125000000000000000e-02 9.584449999999999914e-02 1.252035659944382040e+00
0.000000000000000000e+00 2.137539999999999839e-03 4.041610248431828367e+00
0.000000000000000000e+00 1.139330000000000030e-03 2.515454778323825913e+00
0.000000000000000000e+00 2.144829999999999914e-03 3.617986920832446884e+00
0.000000000000000000e+00 1.177160000000000012e-02 3.897982875369780498e+00
0.000000000000000000e+00 1.344639999999999920e-04 2.504400594236139810e+00
6.250000000000000347e-03 1.803780000000000053e-03 2.356971896684424195e+00
0.000000000000000000e+00 2.787389999999999833e-03 2.398018688108408902e+00
0.000000000000000000e+00 4.109769999999999786e-04 4.144895562605136696e+00
0.000000000000000000e+00 3.724030000000000135e-03 2.728095009366695134e+00
0.000000000000000000e+00 3.491200000000000184e-04 4.165270009371614179e+00
2.187499999999999861e-02 1.667199999999999975e-03 4.529749823874121617e+00
0.000000000000000000e+00 1.478399999999999940e-03 2.134519320175387147e+00
3.125000000000000173e-03 1.009950000000000084e-02 1.840140311200223477e+00
1.562500000000000000e-02 1.694849999999999916e-03 7.883673688894365927e-02
0.000000000000000000e+00 1.167879999999999960e-02 1.725864901109680494e+00
1.250000000000000069e-02 2.061180000000000130e-03 4.145362643617796827e+00
0.000000000000000000e+00 2.880830000000000023e-03 1.528285610885928403e+00
1.250000000000000069e-02 1.566530000000000006e-03 5.966802639911056305e-01
0.000000000000000000e+00 1.111360000000000039e-03 5.891684101623817504e-01
0.000000000000000000e+00 1.856290000000000145e-05 1.729271775979150938e+00
2.812500000000000069e-02 9.254830000000000001e-02 2.674540008712850803e+00
0.000000000000000000e+00 1.107839999999999910e-03 2.750199363212772141e+00
0.000000000000000000e+00 9.179519999999999824e-04 2.494336175544595857e+00
0.000000000000000000e+00 3.776960000000000105e-04 7.622987032569350507e-01
0.000000000000000000e+00 2.722299999999999980e-03 1.182174928328034280e+00
0.000000000000000000e+00 1.322110000000000039e-03 4.293171608530689909e+00
2.500000000000000139e-02 2.018750000000000145e-03 3.063320732062583041e+00
0.000000000000000000e+00 2.972929999999999930e-03 3.637040908339590928e+00
0.000000000000000000e+00 2.232259999999999800e-03 4.946255222909911708e+00
0.000000000000000000e+00 2.913090000000000124e-03 7.201774815852118872e-01
9.374999999999999653e-03 9.919690000000000452e-02 4.099961349908667785e+00
0.000000000000000000e+00 9.793280000000000127e-04 6.579627052217357219e-01
0.000000000000000000e+00 1.045439999999999911e-03 4.020668963359926629e+00
0.000000000000000000e+00 1.926889999999999896e-03 1.290872909167940508e+00
0.000000000000000000e+00 4.920950000000000107e-04 3.937969311854322418e-01
3.125000000000000173e-03 1.062030000000000057e-01 1.744939052230369825e+00
0.000000000000000000e+00 1.520379999999999995e-03 1.657277145317433309e+00
0.000000000000000000e+00 4.915200000000000125e-02 2.979882697012729675e+00
4.374999999999999722e-02 1.004790000000000023e-02 2.525894142020899125e+00
1.562500000000000000e-02 2.390849999999999920e-03 2.328323267806200469e+00
0.000000000000000000e+00 4.258539999999999786e-04 4.130413489762562840e+00
0.000000000000000000e+00 4.104959999999999946e-04 1.780378393622393807e+00
1.250000000000000069e-02 2.645310000000000109e-03 4.430381122637793823e+00
3.125000000000000173e-03 9.826989999999999337e-02 1.812124576175640378e+00
0.000000000000000000e+00 9.286399999999999993e-04 3.635788004100138693e+00
2.500000000000000139e-02 2.358400000000000080e-03 4.671276368187711192e+00
0.000000000000000000e+00 1.487679999999999905e-03 2.698493644374592826e+00
1.874999999999999931e-02 2.512830000000000185e-03 4.585493565568038443e-01
0.000000000000000000e+00 5.784580000000000104e-03 3.422577036640937820e+00
3.125000000000000000e-02 9.846910000000000385e-03 5.838912683310826246e-03
9.374999999999999653e-03 1.877119999999999917e-03 1.017320404419719271e+00
3.125000000000000173e-03 1.207489999999999952e-02 4.015831741180795333e+00
3.125000000000000173e-03 1.080350000000000060e-01 4.369306282213225590e-01
0.000000000000000000e+00 2.271699999999999951e-05 4.557520982356172645e+00
0.000000000000000000e+00 1.692160000000000007e-04 4.144957779338401593e+00
0.000000000000000000e+00 1.095939999999999892e-03 4.397901550218636935e+00
3.125000000000000173e-03 3.399930000000000313e-02 7.130963557554281795e-01
9.374999999999999653e-03 1.254719999999999967e-03 1.405276212904022604e+00
0.000000000000000000e+00 1.124739999999999941e-03 2.828772131250469446e+00
0.000000000000000000e+00 9.082240000000000105e-04 9.050161185321020652e-01
0.000000000000000000e+00 9.733759999999999721e-04 2.184690674248916942e+00
0.000000000000000000e+00 7.870079999999999567e-04 1.232416638349482785e+00
0.000000000000000000e+00 9.925760000000000052e-04 3.752038139390342586e+00
3.125000000000000173e-03 1.461950000000000055e-03 4.018050738606516958e+00
0.000000000000000000e+00 2.366780000000000186e-03 3.944868224106559129e+00
0.000000000000000000e+00 9.912449999999999734e-04 4.841905924623673307e+00
2.187499999999999861e-02 1.596420000000000087e-03 1.479200503044022508e+00
0.000000000000000000e+00 1.365630000000000056e-03 2.322196347018297580e+00
3.437500000000000278e-02 6.221250000000000217e-03 3.771915068216366684e+00
0.000000000000000000e+00 1.680080000000000115e-02 4.438745097840303799e+00
0.000000000000000000e+00 5.984000000000000170e-04 3.552550607973760766e+00
0.000000000000000000e+00 2.263369999999999982e-05 1.227044175155130201e+00
0.000000000000000000e+00 1.855810000000000055e-03 1.748205037871886525e+00
0.000000000000000000e+00 4.368580000000000380e-03 1.756317150638360136e+00
9.374999999999999653e-03 5.233920000000000412e-03 2.184350586531870864e+00
0.000000000000000000e+00 2.140420000000000083e-03 1.998916044116157309e+00
2.500000000000000139e-02 1.188290000000000006e-02 4.523907964616999067e+00
0.000000000000000000e+00 7.275619999999999570e-04 3.386754390046268881e+00
0.000000000000000000e+00 9.742079999999999533e-04 1.073571610603696325e+00
0.000000000000000000e+00 1.586559999999999934e-04 4.782532722909463629e+00
3.125000000000000173e-03 7.095299999999999697e-03 2.680788497855660424e+00
2.500000000000000139e-02 1.348669999999999947e-03 3.870220090998723883e+00
0.000000000000000000e+00 4.661250000000000137e-04 4.610758516100261772e+00
6.250000000000000347e-03 9.805759999999999477e-02 1.599373469491047750e+00
0.000000000000000000e+00 3.785940000000000008e-04 1.461609056849993982e+00
3.125000000000000173e-03 1.697149999999999917e-03 3.470862963104099030e+00
2.187499999999999861e-02 1.818109999999999952e-03 7.593157971402803019e-01
1.874999999999999931e-02 1.805729999999999835e-02 1.512356723808975900e+00
0.000000000000000000e+00 1.897289999999999922e-05 4.355050484671429967e-01
3.125000000000000173e-03 9.612809999999999411e-02 4.182439371205894041e+00
0.000000000000000000e+00 1.736059999999999990e-03 2.913245666202332718e+00
0.000000000000000000e+00 1.315449999999999953e-02 2.975945641229260641e+00
1.250000000000000069e-02 1.177019999999999976e-03 2.437339933463521291e+00
0.000000000000000000e+00 2.107200000000000045e-03 3.283179758303452545e+00
0.000000000000000000e+00 2.706559999999999782e-04 4.503161710044826016e+00
0.000000000000000000e+00 9.848319999999999384e-04 4.972051105155379958e+00
0.000000000000000000e+00 1.290269999999999959e-02 4.790690126252707515e+00
9.374999999999999653e-03 1.904450000000000023e-03 4.652662439710526066e+00
0.000000000000000000e+00 4.145679999999999786e-04 2.965512287846096662e+00
0.000000000000000000e+00 1.023229999999999973e-03 1.090500296202401298e-01
3.125000000000000173e-03 9.310819999999999166e-03 2.224158113593992070e+00
6.250000000000000347e-03 9.812269999999999326e-02 2.227666254187291806e+00
6.250000000000000347e-03 2.052609999999999851e-03 2.511849990296188828e-02
0.000000000000000000e+00 5.598719999999999955e-04 2.977054112889669923e+00
0.000000000000000000e+00 9.312640000000000067e-04 4.474878152529862874e+00
0.000000000000000000e+00 2.080150000000000065e-05 4.856010295424127321e+00
6.250000000000000347e-03 1.725860000000000068e-03 3.674836685464923480e+00
9.374999999999999653e-03 1.786559999999999971e-03 2.810804944364253544e-02
1.562500000000000000e-02 4.939070000000000266e-03 2.380841883426389138e+00
0.000000000000000000e+00 2.121539999999999884e-03 2.709146616286595588e+00
0.000000000000000000e+00 4.436619999999999626e-03 5.063923359632849230e-02
3.125000000000000173e-03 1.270300000000000075e-02 2.384931484393721490e+00
2.812500000000000069e-02 2.792129999999999872e-03 2.952681679129479875e+00
0.000000000000000000e+00 1.761920000000000098e-04 4.902681862339306917e+00
0.000000000000000000e+00 7.329489999999999920e-04 2.319137130732825902e+00
0.000000000000000000e+00 2.313559999999999919e-05 2.341386426389999276e+00
0.000000000000000000e+00 1.209220000000000000e-03 5.499590984816604688e-01
0.000000000000000000e+00 3.535860000000000261e-04 4.013490495287541648e-02
0.000000000000000000e+00 5.636480000000000136e-03 4.189415474293080699e+00
3.749999999999999861e-02 1.076239999999999974e-01 3.767056966566325826e+00
0.000000000000000000e+00 1.084220000000000106e-03 4.427937185911648754e+00
0.000000000000000000e+00 3.176260000000000194e-03 3.911099650523338411e+00
0.000000000000000000e+00 1.302789999999999905e-04 1.642820253653157758e+00
0.000000000000000000e+00 1.794560000000000111e-04 1.943174529420994112e+00
0.000000000000000000e+00 9.993249999999999095e-04 1.165316988730230596e-01
0.000000000000000000e+00 8.767360000000000301e-04 2.543485490785435843e+00
0.000000000000000000e+00 1.849149999999999926e-03 3.133565659553836813e+00
0.000000000000000000e+00 9.592319999999999666e-04 4.585913709548862016e+00
3.125000000000000173e-03 9.693770000000000164e-02 1.111482878598731849e+00
3.125000000000000173e-03 9.534380000000000632e-02 1.371518564375143745e+00
6.250000000000000347e-03 3.702780000000000134e-03 9.785111996241635524e-01
2.187499999999999861e-02 7.876740000000000130e-03 1.868421808169131726e+00
3.125000000000000173e-03 2.005180000000000070e-03 2.753291171152402850e+00
0.000000000000000000e+00 2.137280000000000083e-03 1.526320123727992195e-01
0.000000000000000000e+00 3.936130000000000358e-03 3.472840063905573871e+00
0.000000000000000000e+00 1.752639999999999970e-03 1.579412815674663850e+00
0.000000000000000000e+00 3.838720000000000001e-04 1.854008734894254662e+00
0.000000000000000000e+00 3.989539999999999753e-02 3.410997435550274126e+00
2.500000000000000139e-02 2.395070000000000011e-03 3.944386065701496857e+00
0.000000000000000000e+00 2.686079999999999870e-04 4.606252151286066798e+00
0.000000000000000000e+00 2.091969999999999854e-03 7.159452362334306486e-01
0.000000000000000000e+00 1.243710000000000085e-03 3.239806702124787385e+00
0.000000000000000000e+00 3.785090000000000069e-03 3.224471251969082353e+00
1.562500000000000000e-02 1.940929999999999999e-03 4.965679624973112993e+00
0.000000000000000000e+00 1.552959999999999931e-03 1.800532464916870801e+00
1.874999999999999931e-02 2.689149999999999961e-03 1.391510138454795653e+00
0.000000000000000000e+00 3.561510000000000262e-04 1.938157430309980889e+00
2.187499999999999861e-02 2.139010000000000217e-03 8.902285042919289015e-01
2.812500000000000069e-02 2.263489999999999946e-03 2.031817259214925286e+00
0.000000000000000000e+00 9.073920000000000293e-04 2.321943787502926515e+00
0.000000000000000000e+00 3.803249999999999882e-04 4.477175454416471023e-01
4.062500000000000139e-02 9.249789999999999401e-02 7.646276905838089721e-01
3.125000000000000173e-03 1.918339999999999932e-03 1.743756067249828678e+00
2.500000000000000139e-02 4.136639999999999588e-03 3.577564970757371565e+00
9.374999999999999653e-03 2.850880000000000081e-03 3.312404556848973058e+00
0.000000000000000000e+00 4.161710000000000105e-04 3.918553436522614897e-01
0.000000000000000000e+00 1.124989999999999974e-03 2.616990386786995693e+00
1.874999999999999931e-02 2.118569999999999898e-01 3.226322602689006391e+00
0.000000000000000000e+00 9.278080000000000181e-04 1.249472495495523860e+00
9.374999999999999653e-03 9.688769999999999327e-02 1.256033371964454526e+00
2.500000000000000139e-02 2.667899999999999959e-03 3.296049619876146863e+00
2.187499999999999861e-02 4.056510000000000150e-03 2.220776592502710756e+00
2.812500000000000069e-02 2.092539999999999938e-03 4.245399088721258707e+00
3.125000000000000173e-03 2.618099999999999941e-03 4.372543495178804918e+00
0.000000000000000000e+00 1.178500000000000077e-03 1.592256509048540769e+00
0.000000000000000000e+00 5.192320000000000052e-04 3.955229198910805266e+00
0.000000000000000000e+00 2.825990000000000229e-04 3.294421420427623426e-01
6.250000000000000347e-03 9.843789999999999485e-02 4.133361854461757190e+00
0.000000000000000000e+00 1.022349999999999995e-03 4.929758943843134844e+00
6.250000000000000347e-03 9.530070000000000208e-02 3.426200944306812435e+00
0.000000000000000000e+00 6.889589999999999473e-04 1.839709461086743714e+00
3.125000000000000173e-03 1.696129999999999903e-03 3.001294096167390624e+00
3.125000000000000173e-03 2.733029999999999834e-02 4.263771173442681750e+00
0.000000000000000000e+00 7.275619999999999570e-04 1.517740600513735494e+00
2.500000000000000139e-02 2.457600000000000062e-02 3.210142089131213794e+00
0.000000000000000000e+00 8.893510000000000304e-04 8.735296275308374048e-01
0.000000000000000000e+00 2.170909999999999854e-05 2.173787214457130190e+00
0.000000000000000000e+00 2.309000000000000085e-05 4.764833231390318780e+00
3.125000000000000000e-02 3.728379999999999889e-03 3.356650547538521767e+00
6.250000000000000347e-03 1.170430000000000081e-03 1.337487413559435012e+00
0.000000000000000000e+00 9.230979999999999741e-02 4.469585658248048432e+00
2.812500000000000069e-02 2.959170000000000116e-03 3.125439239671495839e-01
0.000000000000000000e+00 8.761409999999999858e-04 3.564752103016744833e+00
0.000000000000000000e+00 9.285120000000000439e-04 3.005002555119207219e+00
0.000000000000000000e+00 3.278070000000000007e-04 8.845087481320013101e-01
2.187499999999999861e-02 2.422660000000000091e-03 4.893778975453314750e+00
1.250000000000000069e-02 2.206270000000000193e-03 1.039185461312405856e+00
0.000000000000000000e+00 4.648419999999999787e-04 1.699854755373380044e+00
1.250000000000000069e-02 1.522499999999999982e-03 3.546634760261114128e+00
0.000000000000000000e+00 9.695360000000000089e-04 2.514181764360266413e+00
3.125000000000000000e-02 4.086039999999999811e-02 2.075799739920407117e+00
2.500000000000000139e-02 2.367489999999999872e-03 4.749824078822994622e+00
1.250000000000000069e-02 1.795010000000000095e-03 1.234707801400894311e+00
2.187499999999999861e-02 1.893179999999999950e-03 1.438268997676246830e+00
0.000000000000000000e+00 4.540800000000000218e-03 5.021611965110767128e-01
2.500000000000000139e-02 2.128130000000000212e-03 1.126458558550411215e+00
0.000000000000000000e+00 1.728380000000000064e-03 3.150426061884736839e+00
1.562500000000000000e-02 1.869500000000000068e-03 7.659186835243358971e-01
0.000000000000000000e+00 1.133120000000000047e-03 2.933106571296214327e+00
6.250000000000000347e-03 1.759939999999999985e-03 2.467286895870059560e+00
3.125000000000000173e-03 1.634370000000000007e-03 2.229288108843846539e-01
0.000000000000000000e+00 3.447039999999999848e-04 4.980734302895693411e+00
6.250000000000000347e-03 1.675459999999999927e-03 2.745708812910152563e+00
1.874999999999999931e-02 2.636669999999999812e-03 4.366440977376082166e+00
0.000000000000000000e+00 2.654719999999999953e-04 2.382099502397986956e+00
0.000000000000000000e+00 1.077489999999999958e-03 3.556822122173746603e+00
0.000000000000000000e+00 1.540479999999999996e-04 1.082503528505438073e+00
2.812500000000000069e-02 1.073159999999999947e-01 3.947008006383496692e+00
0.000000000000000000e+00 2.017599999999999949e-02 1.640583807075868705e+00
1.250000000000000069e-02 2.486019999999999810e-03 9.922845470716812333e-01
3.437500000000000278e-02 1.066119999999999915e-02 1.259348938823717790e-01
0.000000000000000000e+00 1.534080000000000057e-04 2.523795940419030881e+00
1.250000000000000069e-02 1.307140000000000038e-03 4.085211946729901733e+00
0.000000000000000000e+00 1.044470000000000034e-03 2.581709220008414185e+00
2.187499999999999861e-02 9.100650000000000406e-02 4.664072030528036095e+00
0.000000000000000000e+00 5.252609999999999571e-03 7.485875903974076317e-01
1.562500000000000000e-02 1.001600000000000060e-02 2.455429275423006708e+00
0.000000000000000000e+00 1.716029999999999899e-03 1.072056508370052175e+00
0.000000000000000000e+00 3.984729999999999913e-04 1.018313900699263641e+00
0.000000000000000000e+00 1.055869999999999986e-03 4.797174490307782868e+00
9.374999999999999653e-03 2.314370000000000056e-03 9.445843086321542570e-01
6.250000000000000347e-03 2.136579999999999903e-03 1.642452564028806794e+00
1.874999999999999931e-02 1.796220000000000065e-03 5.088394216519165347e-01
3.125000000000000173e-03 3.016399999999999984e-02 2.629338147757298572e-01
2.500000000000000139e-02 3.173449999999999882e-02 4.708926992084425223e+00
0.000000000000000000e+00 0.000000000000000000e+00 7.389297959112400838e-01
3.437500000000000278e-02 9.216829999999999468e-02 6.684096371287462368e-01
0.000000000000000000e+00 2.005250000000000088e-03 2.760042623051628397e-02
1.250000000000000069e-02 1.971320000000000017e-02 1.215299618620053312e+00
0.000000000000000000e+00 5.767040000000000404e-04 3.689732482243027967e+00
0.000000000000000000e+00 2.300790000000000040e-05 1.671359123125254476e+00
3.125000000000000173e-03 9.554559999999999442e-02 3.880509131900168107e+00
3.125000000000000173e-03 1.816869999999999943e-02 4.008166958889288978e+00
0.000000000000000000e+00 9.666990000000000305e-02 4.706734279053327974e+00
0.000000000000000000e+00 1.005180000000000049e-03 3.726860668420545197e-01
9.374999999999999653e-03 2.078019999999999867e-03 1.297356945559311914e+00
0.000000000000000000e+00 5.615489999999999891e-03 2.930912320322313747e+00
6.250000000000000347e-03 1.725669999999999895e-03 1.375041312550567163e+00
0.000000000000000000e+00 1.781500000000000097e-03 4.983131007508327492e+00
3.125000000000000000e-02 3.095180000000000153e-02 4.835976299130367195e+00
2.500000000000000139e-02 3.503619999999999825e-03 3.610915225622793656e+00
6.250000000000000347e-03 2.367360000000000211e-03 3.277175925140691781e+00
2.500000000000000139e-02 4.134589999999999620e-03 6.964380608164361108e-01
0.000000000000000000e+00 1.037049999999999973e-04 1.330381702067522376e+00
0.000000000000000000e+00 9.028480000000000403e-04 2.053246873941866113e+00
0.000000000000000000e+00 1.507359999999999950e-02 1.182729749484216608e+00
0.000000000000000000e+00 1.465410000000000107e-03 1.336102049882686993e-01
2.187499999999999861e-02 2.839939999999999999e-03 6.509668017633624126e-01
2.187499999999999861e-02 3.101060000000000101e-03 2.627076930577777247e+00
0.000000000000000000e+00 3.987420000000000200e-03 4.489969391774491392e+00
0.000000000000000000e+00 8.913660000000000333e-03 1.137141799510983819e+00
0.000000000000000000e+00 3.151210000000000122e-02 2.604943000614054149e+00
0.000000000000000000e+00 1.747389999999999924e-03 2.050058679667375650e+00
2.812500000000000069e-02 2.146819999999999805e-03 3.455865773624642756e+00
0.000000000000000000e+00 6.740820000000000015e-04 2.200795302185544422e+00
9.374999999999999653e-03 1.610179999999999901e-03 4.979050907648288948e+00
0.000000000000000000e+00 7.255099999999999570e-04 6.060932476164498928e-01
1.562500000000000000e-02 2.182460000000000216e-03 4.286510131592287998e+00
0.000000000000000000e+00 5.073280000000000324e-04 2.495923451569193485e+00
3.749999999999999861e-02 1.061200000000000060e-01 7.754136655027055181e-02
0.000000000000000000e+00 7.209570000000000431e-04 2.343223567185472866e+00
0.000000000000000000e+00 1.350009999999999925e-02 3.070462221486134347e+00
0.000000000000000000e+00 4.571969999999999854e-03 2.141795000105424229e+00
0.000000000000000000e+00 7.323069999999999666e-04 4.683552188893934876e+00
2.812500000000000069e-02 2.400699999999999969e-03 1.513781303896712505e+00
1.250000000000000069e-02 3.260219999999999872e-03 4.365522870364157093e+00
0.000000000000000000e+00 5.014569999999999661e-04 9.492702059842478279e-01
2.812500000000000069e-02 2.993920000000000175e-03 4.571793504876012548e+00
0.000000000000000000e+00 1.185019999999999954e-03 3.959734505855516229e+00
0.000000000000000000e+00 1.000000000000000021e-03 1.432218510715271842e-01
0.000000000000000000e+00 3.964850000000000232e-04 2.824905531670702796e+00
2.500000000000000139e-02 1.823100000000000024e-03 3.289142734479689523e+00
0.000000000000000000e+00 3.818109999999999993e-03 2.823946521938341281e+00
6.250000000000000347e-03 1.675459999999999927e-03 9.871896848306344063e-01
0.000000000000000000e+00 5.589580000000000243e-03 4.565594681843115898e-01
0.000000000000000000e+00 7.841090000000000212e-03 3.201882786155788807e+00
0.000000000000000000e+00 7.077480000000000143e-04 4.769495139584932986e+00
3.125000000000000173e-03 2.606849999999999966e-03 4.490195876805038289e+00
0.000000000000000000e+00 2.911709999999999993e-02 3.608527374393266651e+00
0.000000000000000000e+00 1.980029999999999811e-03 3.195158451157746438e+00
1.874999999999999931e-02 2.300099999999999801e-03 8.841139100518474736e-01
6.250000000000000347e-03 9.134839999999999627e-02 3.520997596845216737e+00
0.000000000000000000e+00 7.358339999999999890e-04 8.747532492781423530e-01
0.000000000000000000e+00 1.222659999999999979e-03 2.226467973432943559e+00
0.000000000000000000e+00 2.305969999999999879e-05 1.395342310665019792e+00
1.562500000000000000e-02 3.201729999999999854e-03 1.682429194015290230e+00
0.000000000000000000e+00 2.326950000000000142e-05 2.245494995821906148e+00
0.000000000000000000e+00 4.209810000000000136e-04 4.561019523085708904e+00
2.187499999999999861e-02 4.950340000000000122e-03 4.438458225793729284e+00
0.000000000000000000e+00 8.170879999999999940e-04 2.161202784589031811e+00
0.000000000000000000e+00 5.020800000000000176e-04 3.101545770236080912e+00
3.125000000000000000e-02 2.129220000000000002e-01 7.336093510345548241e-01
1.250000000000000069e-02 1.671490000000000085e-03 9.506928885114795946e-01
2.812500000000000069e-02 2.031489999999999945e-03 1.295173282598793829e+00
6.250000000000000347e-03 9.564770000000000216e-02 3.095753351402954490e+00
2.500000000000000139e-02 2.257089999999999791e-03 4.648083193185509110e+00
0.000000000000000000e+00 1.308609999999999982e-03 3.878238116702558358e+00
2.500000000000000139e-02 2.297599999999999903e-03 4.548985327190321115e+00
0.000000000000000000e+00 3.769279999999999853e-03 2.018041921046710208e+00
0.000000000000000000e+00 1.163579999999999996e-02 4.053646371378453850e+00
3.125000000000000173e-03 1.943040000000000045e-03 1.954701236915977747e+00
0.000000000000000000e+00 4.310480000000000106e-04 2.487118578039850814e+00
3.125000000000000000e-02 1.008570000000000022e-01 3.233182054833522834e+00
0.000000000000000000e+00 1.540839999999999918e-02 1.235206739863314862e+00
3.125000000000000173e-03 9.571340000000000403e-02 1.261863244349574753e+00
0.000000000000000000e+00 4.189929999999999913e-04 3.651908221093393525e+00
0.000000000000000000e+00 2.851390000000000088e-03 2.401710614268404154e-01
3.125000000000000173e-03 1.912060000000000148e-02 2.173366215747055019e+00
6.250000000000000347e-03 6.692929999999999713e-03 3.547768213829487927e+00
0.000000000000000000e+00 2.389120000000000057e-04 3.299853787720801179e+00
1.562500000000000000e-02 1.476419999999999989e-03 5.827765034607917949e-01
0.000000000000000000e+00 5.086080000000000201e-04 3.255103254743965113e+00
3.125000000000000173e-03 1.756610000000000029e-03 3.348142160943756718e-01
0.000000000000000000e+00 4.307919999999999913e-04 7.066907766020469328e-01
9.374999999999999653e-03 1.233469999999999966e-03 1.688425206588695104e-01
1.250000000000000069e-02 2.690559999999999827e-03 3.636904692513765802e+00
0.000000000000000000e+00 1.146880000000000078e-03 3.850310588132474621e+00
2.187499999999999861e-02 2.471549999999999876e-03 2.166229053999231269e+00
0.000000000000000000e+00 7.734120000000000144e-04 6.737242135936588605e-01
0.000000000000000000e+00 1.505459999999999915e-03 2.671976381648733412e+00
0.000000000000000000e+00 1.672000000000000092e-03 6.339934356993459641e-01
0.000000000000000000e+00 1.691840000000000011e-03 2.332853957267473355e+00
0.000000000000000000e+00 1.184409999999999977e-02 4.454167567164737385e+00
2.812500000000000069e-02 4.576900000000000066e-03 2.262803803681359582e+00
1.874999999999999931e-02 9.255649999999999988e-02 2.931844616217482713e-02
9.374999999999999653e-03 5.102090000000000097e-02 1.246634742298271981e+00
1.562500000000000000e-02 1.500220000000000026e-03 2.292526737162414729e-01
0.000000000000000000e+00 2.298069999999999836e-05 3.230004159547641862e+00
2.500000000000000139e-02 9.038269999999999291e-03 3.351001391232113047e+00
3.437500000000000278e-02 1.064009999999999956e-01 1.764559063929589833e+00
4.687500000000000000e-02 4.264559999999999879e-02 1.799017205594366953e+00
1.874999999999999931e-02 1.818109999999999952e-03 2.627960704046739426e+00
0.000000000000000000e+00 1.807999999999999928e-03 5.979809013318915234e-01
3.125000000000000173e-03 2.577059999999999941e-03 1.282347964377137384e+00
0.000000000000000000e+00 0.000000000000000000e+00 4.667151848605271880e+00
2.812500000000000069e-02 3.271809999999999996e-03 4.817198684681950338e-01
3.125000000000000173e-03 1.773629999999999998e-03 9.565269358765138286e-01
0.000000000000000000e+00 4.170050000000000232e-04 8.518620054703290867e-01
0.000000000000000000e+00 3.814150000000000201e-04 1.707080750852483231e+00
3.125000000000000173e-03 1.724240000000000148e-02 1.880043547718796004e+00
0.000000000000000000e+00 1.782530000000000052e-03 3.391708822856214667e+00
0.000000000000000000e+00 3.331930000000000200e-04 3.647428837808901481e+00
9.374999999999999653e-03 9.244290000000000493e-03 2.818496642603418589e-02
0.000000000000000000e+00 3.586300000000000165e-03 2.433579758659094150e+00
0.000000000000000000e+00 2.841599999999999899e-04 3.266313901709932743e+00
3.125000000000000173e-03 2.099520000000000119e-03 6.006472930330114535e-01
0.000000000000000000e+00 5.413040000000000213e-02 3.254717529779894036e+00
0.000000000000000000e+00 2.307580000000000048e-03 2.323458034218717660e+00
2.812500000000000069e-02 9.875520000000000478e-03 3.766429508471987209e+00
2.187499999999999861e-02 4.433859999999999885e-02 3.250781146336621408e+00
3.125000000000000173e-03 9.729759999999999798e-02 2.030244539148764016e+00
0.000000000000000000e+00 2.282390000000000013e-05 4.300008896541132941e+00
1.874999999999999931e-02 1.817470000000000066e-03 1.489869897042125357e+00
0.000000000000000000e+00 3.463899999999999792e-03 8.902381872492048931e-01
3.125000000000000173e-03 1.852360000000000118e-02 1.473557193787508712e+00
3.125000000000000173e-03 1.311140000000000048e-02 1.620544414003678435e+00
0.000000000000000000e+00 2.006720000000000032e-03 1.263148067528919727e+00
0.000000000000000000e+00 5.160959999999999593e-04 3.407358507714422835e+00
1.250000000000000069e-02 8.350719999999999628e-04 2.922252631763114117e+00
0.000000000000000000e+00 0.000000000000000000e+00 1.975456088660412224e+00
2.812500000000000069e-02 2.494269999999999821e-03 1.512914540232954685e+00
0.000000000000000000e+00 1.340210000000000099e-03 1.339988323333529685e+00
1.562500000000000000e-02 1.638399999999999926e-03 8.345628302232521722e-01
0.000000000000000000e+00 9.852179999999999445e-04 3.145561900184491222e+00
9.374999999999999653e-03 6.430909999999999752e-03 2.963715729167372359e+00
2.187499999999999861e-02 2.513730000000000044e-03 3.967698568529564707e+00
0.000000000000000000e+00 2.217980000000000038e-03 3.539159015279244258e+00
1.874999999999999931e-02 1.288639999999999968e-03 4.647876229590424124e+00
2.500000000000000139e-02 2.462719999999999840e-03 2.668408418585623831e+00
0.000000000000000000e+00 3.907839999999999773e-04 3.640570360529776783e-01
1.874999999999999931e-02 9.210970000000000268e-02 6.048464918686097258e-01
0.000000000000000000e+00 9.872049999999998968e-04 3.760311946983160958e+00
0.000000000000000000e+00 6.485599999999999699e-02 1.546975592313545977e+00
0.000000000000000000e+00 4.058430000000000024e-03 6.219122483465738815e-01
1.250000000000000069e-02 1.319799999999999966e-02 4.751459839033617127e-01
2.812500000000000069e-02 9.268479999999999774e-02 6.516024462863168054e-01
1.250000000000000069e-02 5.382849999999999788e-03 4.529178931539254549e+00
0.000000000000000000e+00 1.234300000000000024e-03 1.737893556518631533e+00
3.125000000000000173e-03 2.501970000000000062e-03 2.026507933253204996e+00
5.000000000000000278e-02 2.395459999999999864e-03 1.203907381454716319e-01
0.000000000000000000e+00 3.294080000000000012e-04 9.882382076395357373e-02
0.000000000000000000e+00 4.144459999999999984e-03 3.006926691858661904e+00
6.250000000000000347e-03 2.526210000000000087e-03 3.944057202243445914e+00
0.000000000000000000e+00 1.814339999999999979e-05 2.060962063668871025e+00
6.250000000000000347e-03 9.670940000000000092e-02 1.540872332165916347e+00
0.000000000000000000e+00 2.201320000000000127e-05 8.989171352823954741e-02
0.000000000000000000e+00 1.159040000000000070e-03 4.322324486280820999e+00
0.000000000000000000e+00 1.185599999999999979e-03 2.326400271288975752e+00
2.187499999999999861e-02 2.082880000000000061e-03 1.537917234503447528e+00
0.000000000000000000e+00 1.308099999999999975e-03 2.583245173290811270e+00
0.000000000000000000e+00 1.673599999999999914e-03 1.179742915057503394e+00
0.000000000000000000e+00 1.593339999999999947e-03 2.929897451022669852e+00
3.125000000000000173e-03 1.033369999999999948e-02 1.303234240512771258e+00
1.562500000000000000e-02 1.637060000000000078e-03 1.785562269880210939e+00
0.000000000000000000e+00 3.463899999999999792e-03 4.127171385520082225e+00
1.562500000000000000e-02 4.777019999999999877e-03 6.187483464797777222e-01
1.874999999999999931e-02 1.061099999999999960e-01 1.068990815235184133e+00
0.000000000000000000e+00 1.191549999999999988e-03 4.961465907732818259e+00
0.000000000000000000e+00 4.615040000000000049e-04 6.275195351914042430e-01
0.000000000000000000e+00 1.902279999999999943e-02 3.439448225359717171e+00
6.250000000000000347e-03 1.058930000000000010e-01 1.056123004612500305e+00
2.500000000000000139e-02 2.828989999999999977e-03 4.464112840931637294e+00
0.000000000000000000e+00 9.119869999999999539e-04 2.565952259779070044e+00
0.000000000000000000e+00 1.175550000000000032e-03 3.953934300108929989e-02
0.000000000000000000e+00 1.103419999999999922e-03 1.570776199893238356e+00
0.000000000000000000e+00 1.937920000000000040e-04 1.265043085247706811e+00
0.000000000000000000e+00 2.281370000000000148e-05 3.320839997774069019e+00
0.000000000000000000e+00 1.046910000000000071e-03 1.796431187752611791e+00
0.000000000000000000e+00 3.472379999999999846e-04 2.344742690566639531e+00
3.125000000000000173e-03 1.600580000000000102e-03 3.451816797515383506e-01
0.000000000000000000e+00 1.721220000000000085e-03 3.678656107294841604e+00
0.000000000000000000e+00 7.376940000000000016e-04 3.588233185195011110e-01
9.374999999999999653e-03 1.988159999999999927e-02 9.059263288192448416e-01
0.000000000000000000e+00 2.624899999999999890e-03 1.071511795324613381e+00
0.000000000000000000e+00 3.851349999999999912e-04 3.838296990472839232e-01
6.250000000000000347e-03 9.299910000000000121e-02 3.512879175838940604e+00
0.000000000000000000e+00 2.516009999999999948e-03 2.022981479122063941e+00
0.000000000000000000e+00 4.134780000000000009e-04 3.059392174478838822e+00
2.187499999999999861e-02 1.417019999999999955e-03 1.922582177648864965e+00
2.187499999999999861e-02 2.128929999999999989e-01 4.168543865096411061e+00
3.125000000000000173e-03 9.571340000000000403e-02 3.926050461489262844e+00
2.187499999999999861e-02 9.420180000000000220e-02 3.024758453094725574e+00
0.000000000000000000e+00 1.382650000000000025e-02 2.680773960961016833e+00
1.874999999999999931e-02 9.218369999999999342e-02 1.798692558597816848e+00
1.250000000000000069e-02 1.397950000000000017e-03 1.729672374056933082e+00
0.000000000000000000e+00 3.108270000000000217e-03 3.045225995737435909e+00
0.000000000000000000e+00 2.101179999999999801e-03 4.074045100201012737e+00
0.000000000000000000e+00 5.074850000000000107e-04 7.607746007297772062e-01
6.250000000000000347e-03 9.409689999999999721e-02 4.245370307425827550e-01
0.000000000000000000e+00 1.128129999999999975e-03 4.111799152185539263e+00
3.125000000000000173e-03 1.767490000000000033e-03 1.022106655411963327e+00
1.562500000000000000e-02 2.126379999999999937e-01 1.621110175774529427e+00
0.000000000000000000e+00 1.608959999999999991e-04 1.146658685082084794e+00
2.812500000000000069e-02 2.579070000000000147e-03 4.567015607798858845e+00
2.812500000000000069e-02 3.426300000000000179e-03 1.014958500336123226e+00
0.000000000000000000e+00 5.798819999999999886e-04 3.834652717588335591e+00
2.500000000000000139e-02 3.288510000000000131e-03 1.654004038651715636e+00
3.125000000000000173e-03 1.455389999999999982e-02 4.225967175196348791e+00
0.000000000000000000e+00 9.486079999999999816e-04 3.245508690268279040e+00
0.000000000000000000e+00 1.686839999999999930e-05 1.298144167947445471e+00
0.000000000000000000e+00 1.921280000000000036e-03 4.000766583088354977e+00
0.000000000000000000e+00 1.201089999999999927e-03 4.809036729849892389e+00
0.000000000000000000e+00 2.039040000000000047e-04 3.809607415061150304e-01
6.250000000000000347e-03 1.002389999999999948e-01 1.486081321893167217e+00
0.000000000000000000e+00 5.434590000000000427e-04 8.276842319879962329e-01
3.125000000000000173e-03 1.937629999999999908e-02 2.869928313895607097e+00
0.000000000000000000e+00 7.342950000000000432e-04 3.351247747053050396e+00
4.062500000000000139e-02 9.275170000000000636e-02 2.698803937796711239e+00
0.000000000000000000e+00 4.222629999999999786e-04 1.490558945680602321e+00
3.125000000000000173e-03 9.708150000000000113e-02 2.187843089006353825e+00
0.000000000000000000e+00 4.052990000000000238e-03 2.761201477894485556e+00
2.812500000000000069e-02 2.811839999999999912e-03 8.358599680456879621e-01
1.874999999999999931e-02 1.768580000000000065e-03 2.205921159856142566e+00
2.500000000000000139e-02 2.515780000000000013e-03 4.216165903507981483e+00
0.000000000000000000e+00 6.461999999999999689e-02 4.928045041960287698e+00
0.000000000000000000e+00 1.090690000000000062e-03 1.974650403588070757e+00
0.000000000000000000e+00 9.755519999999999730e-04 1.468691477938918188e+00
0.000000000000000000e+00 1.695679999999999974e-03 1.420121602484238466e+00
1.874999999999999931e-02 1.134660000000000009e-03 4.312125257648607990e-01
0.000000000000000000e+00 1.283280000000000011e-02 3.998077694011387795e+00
0.000000000000000000e+00 4.196340000000000009e-04 3.354909714866086468e+00
2.500000000000000139e-02 1.319939999999999915e-03 5.815921302473558985e-01
9.374999999999999653e-03 1.125890000000000050e-02 2.025876105543526151e+00
1.250000000000000069e-02 9.111429999999999529e-02 2.973697603083531149e+00
0.000000000000000000e+00 1.104830000000000005e-03 4.171000053380286232e+00
0.000000000000000000e+00 1.079869999999999918e-03 2.975389599790245754e-01
1.562500000000000000e-02 3.420610000000000143e-03 8.607890454538874581e-01
0.000000000000000000e+00 7.470559999999999571e-04 8.962617557609969809e-01
2.187499999999999861e-02 2.563460000000000044e-03 8.248990253095239700e-01
1.874999999999999931e-02 1.838460000000000094e-03 2.868093328593093627e+00
0.000000000000000000e+00 1.507849999999999989e-02 1.212738917988931409e+00
9.374999999999999653e-03 9.609379999999999311e-02 3.333070247733313174e+00
3.125000000000000173e-03 6.200579999999999807e-03 4.820316244237615955e+00
0.000000000000000000e+00 2.276439999999999841e-05 5.564425111698156901e-01
0.000000000000000000e+00 4.387560000000000418e-03 3.666371404172785731e-01
1.562500000000000000e-02 9.167190000000000061e-02 3.190856157849536245e+00
8.437500000000000555e-02 2.316680000000000128e-02 2.573796273343676333e+00
0.000000000000000000e+00 3.037019999999999997e-02 6.298002324593049428e-01
0.000000000000000000e+00 7.825279999999999996e-04 1.082592410326800980e+00
0.000000000000000000e+00 2.216699999999999834e-03 1.447618590002865968e+00
0.000000000000000000e+00 7.742079999999999709e-04 4.858738888356658236e+00
2.187499999999999861e-02 1.761659999999999962e-03 2.240572194257165251e+00
0.000000000000000000e+00 5.091839999999999821e-04 2.310405266352427489e+00
0.000000000000000000e+00 4.472910000000000080e-02 4.229604275111247702e+00
1.250000000000000069e-02 9.826680000000000137e-02 3.267136240871279629e+00
3.437500000000000278e-02 9.290299999999999600e-03 2.830292505277345771e+00
9.374999999999999653e-03 1.830849999999999969e-03 3.105311982065669163e+00
0.000000000000000000e+00 1.228930000000000040e-03 2.231140001263186790e+00
0.000000000000000000e+00 1.058939999999999968e-03 4.987870313595459848e+00
0.000000000000000000e+00 1.757179999999999897e-03 3.920634896252067625e-01
0.000000000000000000e+00 1.023299999999999991e-03 2.478601923937656659e-01
2.187499999999999861e-02 9.299140000000000184e-02 9.062251672336857355e-01
1.250000000000000069e-02 1.839740000000000082e-03 1.279778363759291882e+00
0.000000000000000000e+00 1.270139999999999898e-03 1.108324838798884215e+00
3.125000000000000173e-03 9.869179999999999620e-02 3.987555332106809125e+00
0.000000000000000000e+00 3.534719999999999876e-03 2.400134388173186473e+00
0.000000000000000000e+00 3.594240000000000065e-04 4.605421473613720451e+00
0.000000000000000000e+00 2.280509999999999956e-05 4.686419961056593309e+00
9.374999999999999653e-03 1.014209999999999981e-03 2.994135701686504891e+00
0.000000000000000000e+00 1.183550000000000010e-03 4.601616349581120424e+00
6.250000000000000347e-03 1.479310000000000000e-02 4.562618922788365339e+00
0.000000000000000000e+00 4.648419999999999787e-04 2.003522631686081468e+00
2.812500000000000069e-02 3.416000000000000199e-03 3.150009334400888372e-01
6.250000000000000347e-03 9.349689999999999390e-02 9.886703499905746817e-01
0.000000000000000000e+00 3.710080000000000149e-03 4.895489095984775219e+00
6.250000000000000347e-03 1.954940000000000063e-03 5.436261883535187245e-02
0.000000000000000000e+00 3.864170000000000105e-04 1.762919275299014821e+00
0.000000000000000000e+00 4.798469999999999884e-04 7.126773169650907347e-01
3.125000000000000173e-03 1.460740000000000085e-03 1.851882118713846115e+00
0.000000000000000000e+00 6.326570000000000110e-04 3.546140671065844963e-01
0.000000000000000000e+00 3.441280000000000228e-04 3.086196909326607063e+00
1.874999999999999931e-02 1.744190000000000063e-03 4.801564023858444941e+00
0.000000000000000000e+00 9.521019999999999830e-03 1.240173458654819649e-01
9.374999999999999653e-03 1.990850000000000172e-03 4.077260741070500849e+00
2.500000000000000139e-02 1.811010000000000050e-03 3.508011576767950501e+00
0.000000000000000000e+00 1.838140000000000043e-03 2.630230555560260086e+00
0.000000000000000000e+00 1.436079999999999952e-03 4.912392987570735947e+00
3.125000000000000173e-03 1.091460000000000043e-03 1.664787427710689993e-01
0.000000000000000000e+00 2.257020000000000207e-03 1.172266967447976871e-01
0.000000000000000000e+00 3.299649999999999892e-03 3.064551694874389831e+00
0.000000000000000000e+00 1.001219999999999931e-03 1.018090125284050629e+00
9.374999999999999653e-03 2.521020000000000118e-03 1.151508614118644136e+00
2.500000000000000139e-02 1.595840000000000062e-03 2.343385720871490996e+00
1.874999999999999931e-02 1.260800000000000072e-03 3.296158578814428752e-01
0.000000000000000000e+00 1.662019999999999947e-03 4.972560938659730034e+00
0.000000000000000000e+00 3.591169999999999866e-03 9.156203934457862736e-01
1.874999999999999931e-02 3.625859999999999847e-03 2.569029395321476006e-01
0.000000000000000000e+00 1.061249999999999910e-03 4.542657676431708147e+00
0.000000000000000000e+00 2.650879999999999990e-03 1.019557181108586841e+00
6.250000000000000347e-03 9.621960000000000235e-02 4.718877928286499213e+00
2.187499999999999861e-02 1.912319999999999905e-03 2.868775628882914042e+00
2.187499999999999861e-02 5.798020000000000083e-03 4.939601286933435809e+00
0.000000000000000000e+00 6.903700000000000461e-04 4.598734463881129386e+00
3.125000000000000173e-03 3.414910000000000168e-03 2.719340768604794345e-01
0.000000000000000000e+00 3.678659999999999829e-03 1.641376991120310214e+00
6.250000000000000347e-03 1.370179999999999922e-03 1.588911282812888626e+00
1.874999999999999931e-02 2.147200000000000150e-03 3.642119476120148081e-01
0.000000000000000000e+00 3.709500000000000124e-03 3.459690132387692074e+00
3.125000000000000173e-03 1.696129999999999903e-03 3.672369378666008988e+00
0.000000000000000000e+00 1.385529999999999921e-02 1.635837027296693780e-02
0.000000000000000000e+00 4.238019999999999786e-04 1.041780952471316191e+00
3.125000000000000173e-03 1.448129999999999947e-03 1.001493924214538200e+00
0.000000000000000000e+00 2.353340000000000206e-03 6.378243806792138759e-02
0.000000000000000000e+00 1.126070000000000022e-02 2.850396678411720064e+00
0.000000000000000000e+00 9.508600000000000385e-02 3.129356745672842166e+00
0.000000000000000000e+00 8.604290000000000115e-04 1.981603005602381895e+00
0.000000000000000000e+00 1.340419999999999936e-03 3.568804995410296277e-01
0.000000000000000000e+00 2.436740000000000173e-03 2.306333453400608136e+00
0.000000000000000000e+00 7.550080000000000463e-04 2.690649664856907819e+00
1.874999999999999931e-02 2.414340000000000062e-03 1.088671941534561372e+00
0.000000000000000000e+00 1.193849999999999946e-02 4.783264693312749838e-02
6.250000000000000347e-03 9.310609999999999720e-02 1.737776831885078366e+00
0.000000000000000000e+00 2.732170000000000085e-02 4.603509297619014617e+00
1.874999999999999931e-02 1.646850000000000050e-03 9.909587500011118877e-01
5.312499999999999861e-02 1.055939999999999934e-01 2.968641396447890823e+00
2.187499999999999861e-02 2.501310000000000078e-03 3.782044916234745369e+00
4.062500000000000139e-02 9.083130000000000370e-02 2.026689725915344464e+00
0.000000000000000000e+00 1.735870000000000034e-03 4.486005987879423174e+00
