0.000000000000000000e+00 4.212930000000000147e-02 3.754958436385038567e+00
0.000000000000000000e+00 1.965119999999999888e-03 1.878194492460256271e+00
2.500000000000000139e-02 1.993149999999999956e-03 1.608913648607982472e+00
1.874999999999999931e-02 2.083779999999999921e-03 2.554751897138884509e+00
0.000000000000000000e+00 2.542909999999999789e-03 4.976357118417292114e+00
9.374999999999999653e-03 1.661499999999999999e-03 3.883711388234635908e+00
0.000000000000000000e+00 2.271029999999999837e-05 1.172412010268126803e+00
3.125000000000000173e-03 4.453060000000000004e-03 6.186921359103053630e-01
0.000000000000000000e+00 5.350660000000000138e-03 9.652570338465610300e-01
1.250000000000000069e-02 1.724349999999999928e-03 1.292469110356638806e+00
0.000000000000000000e+00 1.077569999999999917e-03 2.781593131831379129e+00
0.000000000000000000e+00 7.551040000000000182e-03 6.967859442168417017e-01
2.500000000000000139e-02 2.457600000000000062e-02 3.679418242083994706e+00
6.250000000000000347e-03 5.563260000000000427e-03 1.684192565558325638e+00
0.000000000000000000e+00 9.313260000000000288e-03 4.363811827478997207e-01
0.000000000000000000e+00 2.986180000000000171e-03 1.571745392898332039e+00
1.562500000000000000e-02 2.215420000000000063e-03 5.961848357426641209e-01
1.562500000000000000e-02 1.194240000000000058e-03 4.965358188046642418e-01
3.125000000000000173e-03 3.788670000000000058e-03 1.896076812378997722e+00
2.500000000000000139e-02 1.825859999999999896e-03 1.056829289159252339e+00
6.250000000000000347e-03 1.735739999999999939e-03 3.777230380014277689e+00
2.812500000000000069e-02 2.399490000000000216e-03 4.559444578864505715e+00
2.500000000000000139e-02 4.458560000000000301e-03 1.140732797233369178e+00
2.187499999999999861e-02 1.980219999999999984e-03 1.370586218479767915e+00
1.874999999999999931e-02 9.601310000000000400e-02 2.089050768952541048e+00
0.000000000000000000e+00 2.041680000000000076e-05 2.099788566736292772e+00
0.000000000000000000e+00 1.503800000000000015e-03 1.654914035880834078e+00
1.250000000000000069e-02 4.272789999999999921e-02 1.223670015114283194e+00
3.437500000000000278e-02 9.313340000000000507e-02 8.716285619300406795e-01
9.374999999999999653e-03 1.609920000000000101e-02 4.904386836573327635e+00
1.250000000000000069e-02 3.219120000000000315e-02 4.307759873371142412e+00
0.000000000000000000e+00 1.121089999999999934e-03 1.406691959003402825e+00
3.125000000000000173e-03 2.888759999999999939e-02 2.470119607866119615e+00
2.500000000000000139e-02 2.453499999999999952e-03 1.212062285586196886e+00
0.000000000000000000e+00 1.115780000000000027e-03 7.004291511001214943e-01
1.874999999999999931e-02 1.793600000000000012e-03 1.255181024440157334e+00
3.125000000000000173e-03 4.451970000000000406e-03 1.066332421711333467e+00
0.000000000000000000e+00 2.853759999999999891e-03 1.027086067226912203e+00
0.000000000000000000e+00 1.751940000000000008e-03 1.168213660178554658e+00
2.500000000000000139e-02 2.405630000000000181e-03 4.019053613722999074e+00
0.000000000000000000e+00 8.084880000000000018e-04 3.620816510213163752e+00
1.562500000000000000e-02 3.633399999999999824e-02 1.475148327318312358e+00
2.500000000000000139e-02 2.415679999999999911e-03 2.648322677310301465e+00
2.187499999999999861e-02 4.540480000000000384e-03 3.760523807129287022e+00
1.562500000000000000e-02 1.031619999999999933e-02 4.802166794520827509e+00
0.000000000000000000e+00 4.800000000000000122e-04 9.485379586794961959e-03
2.187499999999999861e-02 2.158909999999999996e-03 3.503121969612011277e+00
0.000000000000000000e+00 3.776960000000000105e-04 1.575991348417735249e+00
3.125000000000000173e-03 1.484159999999999993e-03 1.418285409473425851e+00
0.000000000000000000e+00 5.104989999999999788e-04 1.005409427636640540e+00
0.000000000000000000e+00 6.457150000000000042e-03 3.596235705904394120e+00
2.812500000000000069e-02 2.175999999999999983e-03 4.783942931453506020e+00
3.125000000000000173e-03 5.170690000000000355e-03 2.132023892205255677e+00
0.000000000000000000e+00 1.667010000000000020e-03 4.732055967712444300e+00
0.000000000000000000e+00 4.857600000000000112e-04 1.729145492821554386e-01
0.000000000000000000e+00 2.140539999999999804e-03 2.726938356221600301e+00
6.250000000000000347e-03 1.000849999999999934e-01 2.188768343732400812e+00
6.250000000000000347e-03 1.759490000000000012e-02 1.400048589131718257e+00
0.000000000000000000e+00 2.245630000000000195e-03 3.027399412308705351e+00
0.000000000000000000e+00 3.001220000000000190e-03 2.714631531915738361e+00
0.000000000000000000e+00 1.221759999999999903e-03 4.522975019260220719e+00
0.000000000000000000e+00 1.037120000000000099e-03 4.384368899505782124e+00
0.000000000000000000e+00 1.110000000000000092e-03 4.085212636721574420e+00
1.874999999999999931e-02 3.142209999999999882e-03 2.588605134475197023e+00
0.000000000000000000e+00 3.871360000000000014e-04 2.557099582478508992e+00
0.000000000000000000e+00 1.422590000000000052e-03 3.320339578581808837e+00
3.125000000000000173e-03 4.888899999999999843e-03 2.888885874241263085e+00
0.000000000000000000e+00 4.241159999999999895e-03 1.537834129587832166e+00
1.562500000000000000e-02 9.308349999999999957e-03 1.073197528739120443e+00
0.000000000000000000e+00 5.301759999999999980e-03 1.870246513219047557e+00
3.125000000000000173e-03 1.701629999999999983e-03 3.452901573138246860e+00
0.000000000000000000e+00 3.809919999999999735e-04 4.911562701135047115e-01
2.500000000000000139e-02 2.755839999999999852e-03 3.609373906419787836e+00
2.812500000000000069e-02 2.166980000000000208e-03 3.286556610525224187e+00
3.125000000000000173e-03 1.072299999999999989e-02 1.378576895235556599e+00
0.000000000000000000e+00 1.111940000000000064e-03 2.360471934064078958e-02
9.374999999999999653e-03 2.255420000000000168e-03 3.868517404363649881e+00
0.000000000000000000e+00 9.005759999999999807e-03 1.052772280063091870e+00
0.000000000000000000e+00 2.529029999999999820e-03 2.411709806354023211e-02
0.000000000000000000e+00 1.894340000000000000e-03 5.923007293245069471e-01
0.000000000000000000e+00 1.082239999999999938e-03 4.813174612371257766e+00
0.000000000000000000e+00 3.516629999999999973e-04 3.212001143702591932e-01
1.250000000000000069e-02 2.134720000000000107e-03 3.773326460646671876e+00
0.000000000000000000e+00 7.409599999999999694e-03 3.892702155397529840e+00
4.374999999999999722e-02 9.442549999999999555e-02 4.693223753719727442e-01
0.000000000000000000e+00 9.251840000000000107e-04 3.786153883141988974e+00
0.000000000000000000e+00 2.750720000000000118e-04 4.677264166911192511e+00
0.000000000000000000e+00 1.458560000000000076e-04 4.730337301323107368e+00
1.250000000000000069e-02 3.754879999999999936e-03 7.626740793180641909e-01
1.874999999999999931e-02 4.765759999999999962e-03 8.256711551818485262e-01
0.000000000000000000e+00 4.420219999999999878e-03 4.951047006892060232e+00
1.874999999999999931e-02 2.380220000000000165e-03 2.661496454479805873e+00
0.000000000000000000e+00 2.066250000000000080e-05 3.310391935121508311e+00
6.250000000000000347e-03 9.837659999999999461e-02 1.943606301705685935e-01
6.250000000000000347e-03 2.442109999999999941e-03 3.121776956712726481e+00
0.000000000000000000e+00 3.533060000000000193e-03 3.702095351918006649e+00
6.250000000000000347e-03 2.743549999999999982e-03 1.067423854918626569e+00
0.000000000000000000e+00 3.979479999999999823e-02 8.666869145490063708e-01
0.000000000000000000e+00 9.681279999999999573e-04 1.139249858605960730e+00
0.000000000000000000e+00 5.138980000000000457e-04 1.469751030799841374e+00
0.000000000000000000e+00 3.428759999999999881e-04 2.359680236398807196e+00
0.000000000000000000e+00 1.019010000000000098e-03 3.133134514360769174e-01
1.562500000000000000e-02 1.056109999999999965e-01 3.096708090858499407e+00
2.187499999999999861e-02 3.062019999999999933e-03 3.467038607988457422e+00
0.000000000000000000e+00 1.849090000000000065e-03 1.007977150677410005e+00
3.125000000000000173e-03 1.563710000000000057e-03 1.563225504877961303e+00
3.125000000000000000e-02 9.206150000000000444e-02 1.492693739149331567e+00
6.250000000000000347e-03 3.579590000000000116e-03 1.684813890824012894e+00
9.374999999999999653e-03 1.900479999999999964e-03 3.188166527223604163e+00
0.000000000000000000e+00 9.300480000000000509e-04 4.080845149677221784e+00
2.812500000000000069e-02 1.627779999999999895e-03 2.025873591601217605e+00
6.250000000000000347e-03 2.321600000000000052e-03 4.987617814552515405e+00
9.374999999999999653e-03 2.122729999999999895e-01 3.260378919607842096e+00
0.000000000000000000e+00 9.246080000000000488e-04 3.121814351902461482e+00
2.187499999999999861e-02 1.715710000000000065e-03 2.101038885245709142e+00
0.000000000000000000e+00 3.003410000000000107e-02 4.291415411843794381e+00
0.000000000000000000e+00 1.569269999999999997e-03 1.582924976717591248e+00
0.000000000000000000e+00 4.889280000000000188e-03 4.045758376804127643e+00
0.000000000000000000e+00 3.232639999999999732e-04 4.904170433483456826e-01
9.374999999999999653e-03 2.380029999999999993e-03 1.181864785766386650e+00
0.000000000000000000e+00 3.002050000000000031e-03 4.208722213080041463e+00
0.000000000000000000e+00 8.249600000000000162e-04 1.008329478840286342e-01
3.125000000000000000e-02 1.060559999999999975e-01 3.636015610005191689e+00
0.000000000000000000e+00 9.322879999999999752e-04 3.814275289062551977e+00
0.000000000000000000e+00 1.133630000000000054e-03 4.651005055838258073e+00
0.000000000000000000e+00 5.221250000000000197e-03 3.242190508912030200e+00
0.000000000000000000e+00 2.400059999999999867e-03 1.483110581415476137e+00
0.000000000000000000e+00 5.048560000000000330e-04 4.137941165005429411e+00
1.562500000000000000e-02 2.512640000000000012e-03 1.088455387623499249e-01
2.812500000000000069e-02 2.179069999999999965e-03 1.253905601243930912e+00
6.250000000000000347e-03 9.564749999999999641e-02 4.268733405499688160e+00
1.874999999999999931e-02 2.026560000000000167e-03 6.201409754568665278e-01
0.000000000000000000e+00 3.063230000000000119e-03 8.823564703209468840e-01
1.250000000000000069e-02 9.494800000000000462e-02 3.689490465128002938e+00
3.125000000000000173e-03 4.049859999999999745e-03 3.443984957414952808e-01
1.874999999999999931e-02 2.495419999999999930e-03 2.429420451632869238e+00
0.000000000000000000e+00 5.612540000000000064e-03 3.563699642457438976e+00
1.250000000000000069e-02 9.092640000000000444e-02 9.477575839009666492e-01
0.000000000000000000e+00 7.470559999999999571e-04 3.700308631267792414e+00
0.000000000000000000e+00 2.070139999999999827e-03 3.412139494549861762e+00
1.874999999999999931e-02 3.730559999999999952e-03 2.598550799579027348e+00
9.374999999999999653e-03 4.826050000000000131e-03 3.857768576173716379e+00
6.250000000000000347e-03 1.902210000000000099e-03 1.619606153483456712e+00
6.250000000000000347e-03 1.596420000000000087e-03 4.740812926826762030e+00
0.000000000000000000e+00 3.034180000000000037e-03 1.845163487376501710e+00
0.000000000000000000e+00 2.760579999999999892e-03 3.790159949134995543e+00
3.125000000000000173e-03 4.478270000000000341e-03 2.460311614962351623e-02
4.374999999999999722e-02 1.074900000000000022e-01 1.655881210633023848e+00
3.125000000000000173e-03 4.415170000000000379e-03 2.765996395355392323e+00
6.250000000000000347e-03 1.055029999999999996e-01 3.558463109483591680e+00
0.000000000000000000e+00 4.239299999999999883e-04 4.585400985105828831e+00
1.874999999999999931e-02 1.419260000000000096e-03 1.421563781885501587e+00
0.000000000000000000e+00 1.228829999999999983e-03 2.336613165530044167e+00
0.000000000000000000e+00 6.633599999999999913e-04 4.803795338578915164e+00
0.000000000000000000e+00 2.383169999999999993e-03 7.794282909726096831e-01
0.000000000000000000e+00 2.277750000000000003e-05 8.442082186633032004e-01
6.250000000000000347e-03 5.273469999999999720e-03 1.304641664166130699e+00
3.437500000000000278e-02 9.248969999999999414e-02 1.355010882347790213e+00
3.125000000000000173e-03 1.940349999999999974e-03 1.689236520421183441e+00
6.250000000000000347e-03 1.700670000000000046e-03 4.639401668901339093e+00
1.562500000000000000e-02 1.927619999999999898e-03 2.903812512394488010e+00
0.000000000000000000e+00 2.749569999999999792e-03 4.056670366861432342e+00
0.000000000000000000e+00 1.481539999999999940e-03 2.565204663374549110e+00
2.187499999999999861e-02 2.521279999999999875e-03 1.647790094224050428e+00
0.000000000000000000e+00 3.771520000000000102e-04 3.146562881232617404e+00
0.000000000000000000e+00 5.350589999999999470e-04 2.403148455168854447e+00
0.000000000000000000e+00 3.832499999999999796e-02 3.275400652018452430e+00
0.000000000000000000e+00 3.805440000000000211e-04 4.743398143315199711e+00
3.749999999999999861e-02 9.185240000000000071e-02 3.007598267639235878e+00
3.437500000000000278e-02 4.742210000000000175e-03 3.896352096600946835e-01
3.125000000000000173e-03 1.727210000000000073e-03 2.462557160335070439e+00
0.000000000000000000e+00 1.183170000000000098e-03 2.563822113762684651e+00
0.000000000000000000e+00 1.958979999999999923e-03 3.237910911644539702e+00
0.000000000000000000e+00 5.311230000000000118e-03 1.291399228243563790e+00
9.374999999999999653e-03 1.757819999999999999e-03 1.913462245021851915e+00
3.125000000000000173e-03 1.308539999999999964e-03 1.631038879819426413e+00
0.000000000000000000e+00 1.856870000000000062e-05 9.710288025738145201e-01
1.562500000000000000e-02 2.236929999999999821e-03 1.730377668841994065e+00
9.374999999999999653e-03 7.794559999999999857e-04 2.388225091632898867e+00
3.125000000000000173e-03 1.035890000000000075e-02 1.030592385038413994e+00
0.000000000000000000e+00 2.441599999999999934e-04 2.962512978809568320e+00
0.000000000000000000e+00 2.288260000000000009e-05 4.821793409290225263e+00
0.000000000000000000e+00 4.906240000000000514e-04 3.353860830958411032e+00
3.125000000000000173e-03 1.051490000000000063e-01 4.314085336493395317e+00
0.000000000000000000e+00 1.894400000000000023e-04 3.904214711135177041e+00
1.874999999999999931e-02 1.167620000000000073e-03 3.732493740451705566e+00
0.000000000000000000e+00 4.512000000000000169e-04 2.396042523464832819e+00
0.000000000000000000e+00 7.992479999999999724e-03 1.682396234026956705e+00
0.000000000000000000e+00 7.207010000000000239e-04 1.691305120759099445e+00
0.000000000000000000e+00 1.638590000000000099e-03 4.729252255003381755e+00
2.500000000000000139e-02 2.399940000000000146e-03 1.057683379060169848e+00
0.000000000000000000e+00 2.278240000000000061e-05 1.502751575150018226e+00
3.125000000000000173e-03 2.171050000000000063e-02 3.416701081864699230e+00
3.125000000000000173e-03 4.802240000000000154e-03 4.329491075713293391e+00
3.125000000000000173e-03 2.943299999999999823e-03 4.605939383275017285e+00
4.374999999999999722e-02 9.252340000000000564e-02 2.238749580681499651e+00
3.125000000000000173e-03 2.942209999999999791e-03 2.025984501482112066e+00
0.000000000000000000e+00 5.585279999999999759e-04 1.119184782092390584e+00
0.000000000000000000e+00 9.831650000000000372e-04 4.290053165609802655e+00
1.874999999999999931e-02 2.919170000000000011e-03 3.752501836382021949e+00
1.874999999999999931e-02 2.528129999999999961e-03 2.915400579527214653e+00
0.000000000000000000e+00 4.645860000000000137e-04 4.739430133044855609e+00
3.125000000000000173e-03 2.516539999999999836e-03 4.150299335095911424e+00
0.000000000000000000e+00 3.448009999999999942e-04 1.496147919078468114e+00
0.000000000000000000e+00 1.135680000000000023e-03 1.556300279244293705e-01
6.250000000000000347e-03 1.005859999999999949e-01 2.768890876201274054e+00
0.000000000000000000e+00 2.456960000000000047e-02 4.494507970745537762e+00
2.500000000000000139e-02 1.585019999999999919e-03 3.972844395871444778e+00
0.000000000000000000e+00 5.305019999999999701e-03 3.517269384784120767e+00
1.874999999999999931e-02 3.109220000000000039e-02 3.964955277335780348e+00
9.374999999999999653e-03 2.036099999999999889e-03 1.172626580333433921e+00
0.000000000000000000e+00 1.801600000000000098e-04 7.801023985401778216e-02
2.187499999999999861e-02 1.808259999999999902e-03 4.196524656193850733e-01
0.000000000000000000e+00 3.992629999999999790e-02 1.864991447240725186e+00
0.000000000000000000e+00 5.299840000000000106e-03 2.636307216051524627e+00
0.000000000000000000e+00 1.758079999999999973e-03 1.915242534330179769e+00
0.000000000000000000e+00 3.168900000000000102e-03 4.187506043208655271e+00
0.000000000000000000e+00 1.143230000000000071e-03 7.409440997379646010e-01
0.000000000000000000e+00 9.867520000000000284e-04 8.498659230407534793e-01
0.000000000000000000e+00 2.891840000000000122e-03 4.962200365510761380e+00
0.000000000000000000e+00 2.015100000000000138e-03 4.208222051353872395e+00
0.000000000000000000e+00 1.515899999999999930e-03 3.133999224301555309e+00
0.000000000000000000e+00 5.000450000000000034e-03 2.908374126510779867e+00
0.000000000000000000e+00 6.321319999999999717e-02 4.492993634065060249e+00
0.000000000000000000e+00 4.082840000000000080e-02 5.530194298023843880e-01
9.374999999999999653e-03 1.899459999999999951e-03 2.149477047242235983e+00
6.250000000000000347e-03 9.656119999999999981e-02 1.528542970045992933e-01
2.500000000000000139e-02 4.727019999999999833e-02 1.366675778102335315e+00
2.500000000000000139e-02 3.733629999999999935e-03 1.630359876678747488e+00
0.000000000000000000e+00 2.456129999999999945e-03 8.980610593378357542e-01
6.250000000000000347e-03 1.899709999999999984e-03 1.347518748559205504e+00
3.125000000000000173e-03 1.104340000000000009e-02 4.570018944329038213e+00
0.000000000000000000e+00 7.789259999999999890e-04 4.638511168048436772e+00
3.125000000000000173e-03 1.052069999999999950e-01 2.144483859386916880e+00
0.000000000000000000e+00 7.392969999999999793e-04 4.409860726892250726e-01
0.000000000000000000e+00 3.864319999999999756e-04 4.298468878597835996e+00
0.000000000000000000e+00 8.919680000000000360e-04 4.474105374661809797e+00
3.125000000000000173e-03 4.431739999999999985e-03 1.531533877990068904e+00
0.000000000000000000e+00 1.511659999999999913e-02 4.520555049145896120e+00
2.187499999999999861e-02 2.721729999999999896e-03 4.628235496145892469e+00
6.250000000000000347e-03 1.618239999999999956e-03 3.238729149090779025e+00
0.000000000000000000e+00 2.887620000000000030e-03 1.600840341991201399e+00
3.125000000000000000e-02 3.821410000000000085e-02 1.031054865311727298e+00
3.125000000000000173e-03 3.766530000000000138e-03 3.047932147730482377e+00
2.812500000000000069e-02 2.332349999999999961e-03 4.331699714029458192e+00
2.812500000000000069e-02 3.181429999999999675e-02 1.290902051646666937e+00
6.250000000000000347e-03 9.710069999999999812e-02 4.877369080005578894e+00
3.125000000000000173e-03 4.487230000000000038e-03 4.492313002001014688e+00
3.125000000000000173e-03 4.202749999999999889e-03 6.709844356574828916e-01
1.562500000000000000e-02 2.935499999999999915e-02 5.538497977910489256e-01
0.000000000000000000e+00 2.750720000000000118e-04 3.112284308451496617e+00
2.500000000000000139e-02 2.334909999999999937e-03 2.872986869412441635e+00
2.187499999999999861e-02 1.896509999999999906e-03 1.632326860221950948e+00
1.874999999999999931e-02 2.951169999999999922e-03 1.549398972114159889e+00
6.250000000000000347e-03 9.595529999999999338e-02 2.610859001295886106e+00
0.000000000000000000e+00 1.655489999999999913e-03 3.296609949294894371e+00
0.000000000000000000e+00 1.824260000000000074e-03 4.514347183872351010e+00
0.000000000000000000e+00 1.286529999999999922e-03 4.743491415699699232e+00
7.499999999999999722e-02 9.220129999999999992e-02 2.052473118606011226e+00
0.000000000000000000e+00 1.080959999999999950e-03 4.408255349315642890e-01
2.500000000000000139e-02 1.876539999999999892e-03 4.995795754138340428e+00
2.812500000000000069e-02 2.419010000000000084e-03 1.380358256657351346e+00
0.000000000000000000e+00 5.273600000000000466e-04 4.694251944362722639e+00
0.000000000000000000e+00 7.296779999999999889e-04 3.847352470932035473e+00
0.000000000000000000e+00 1.111940000000000064e-03 2.836975745333425003e+00
3.749999999999999861e-02 9.185240000000000071e-02 4.828817128432848271e+00
0.000000000000000000e+00 1.120010000000000059e-03 1.955519737708805161e-01
0.000000000000000000e+00 9.668630000000000280e-02 2.167728952078642912e+00
2.500000000000000139e-02 3.164349999999999802e-03 4.899726665100435419e+00
0.000000000000000000e+00 9.551359999999999842e-04 4.548789961025892836e+00
1.250000000000000069e-02 2.116670000000000183e-03 1.052605915723279661e+00
2.500000000000000139e-02 1.732669999999999957e-03 2.629921600703477580e+00
0.000000000000000000e+00 3.570560000000000183e-04 4.516527037871265193e+00
0.000000000000000000e+00 1.712640000000000082e-03 3.971937331177905595e+00
0.000000000000000000e+00 1.539369999999999974e-02 1.835492829122764569e-02
0.000000000000000000e+00 2.300139999999999970e-05 3.064329239953505368e+00
0.000000000000000000e+00 5.206080000000000083e-03 2.038310999403733170e+00
1.562500000000000000e-02 1.791870000000000095e-03 1.028624924328880308e-01
0.000000000000000000e+00 1.580159999999999996e-04 3.034240641911656322e-02
0.000000000000000000e+00 1.054779999999999954e-03 2.645478359799703583e+00
1.562500000000000000e-02 1.064770000000000022e-01 4.705777513243846855e+00
6.562500000000000278e-02 9.239920000000000078e-02 2.760837411291618526e+00
9.374999999999999653e-03 1.242110000000000046e-03 4.148534232266440469e+00
0.000000000000000000e+00 2.566720000000000199e-03 4.614501581077199432e+00
3.125000000000000173e-03 4.981059999999999828e-03 2.316822313301232228e+00
2.187499999999999861e-02 9.138440000000000452e-02 1.110989963788073354e+00
0.000000000000000000e+00 1.911039999999999918e-04 3.323099791456929797e+00
0.000000000000000000e+00 1.018500000000000091e-03 3.924892829471962497e+00
0.000000000000000000e+00 8.868479999999999766e-04 3.453921114970763817e+00
6.250000000000000347e-03 1.395650000000000016e-03 4.339714854054122384e+00
0.000000000000000000e+00 9.401599999999999974e-04 2.908607451082103168e+00
0.000000000000000000e+00 3.397410000000000013e-02 2.940233916841827888e-01
0.000000000000000000e+00 4.048209999999999786e-04 2.826412777515246999e-01
0.000000000000000000e+00 3.760929999999999785e-04 9.173219703349511089e-01
2.500000000000000139e-02 2.897470000000000080e-03 9.852085085786577157e-01
3.125000000000000173e-03 1.706480000000000150e-02 3.234604510244296627e+00
0.000000000000000000e+00 1.027649999999999961e-03 5.109282449196506093e-02
0.000000000000000000e+00 5.162879999999999466e-04 1.458960231139506680e+00
6.250000000000000347e-03 1.207420000000000064e-03 3.091714069630657313e+00
0.000000000000000000e+00 5.358139999999999951e-03 9.658338814994621435e-01
3.125000000000000173e-03 1.548349999999999987e-03 2.329653142861187742e+00
0.000000000000000000e+00 7.777920000000000233e-04 6.174189056464474135e-01
2.812500000000000069e-02 9.195340000000000458e-02 3.605886999798990633e-01
0.000000000000000000e+00 2.972189999999999880e-04 2.169825399929554255e+00
3.125000000000000173e-03 2.445119999999999846e-03 2.751593692620601939e-01
0.000000000000000000e+00 1.338049999999999917e-03 4.956000375185174889e+00
1.874999999999999931e-02 9.601310000000000400e-02 2.835272361880913916e-02
3.125000000000000173e-03 4.171749999999999764e-02 2.861032851021634293e+00
0.000000000000000000e+00 3.973119999999999799e-04 2.815684760127085129e-01
6.250000000000000347e-03 1.000859999999999944e-02 2.078305184518509652e+00
6.250000000000000347e-03 1.014440000000000064e-01 4.119429894826769356e+00
0.000000000000000000e+00 6.490529999999999911e-02 1.799781891693621461e+00
0.000000000000000000e+00 1.787520000000000124e-04 9.993284572027266721e-01
6.250000000000000347e-03 1.638399999999999926e-02 6.573075000440042892e-01
1.250000000000000069e-02 1.876290000000000076e-03 3.399316460989620925e-02
0.000000000000000000e+00 2.305219999999999928e-05 2.065791163807477293e+00
0.000000000000000000e+00 3.205700000000000129e-03 3.736744565110555083e+00
1.562500000000000000e-02 3.618940000000000178e-03 1.878763438301271904e+00
1.250000000000000069e-02 2.908860000000000091e-03 4.473479711000717174e+00
6.250000000000000347e-03 9.823590000000000100e-02 1.949712435575310820e+00
1.874999999999999931e-02 9.287529999999999397e-02 2.493091203407190370e+00
7.187499999999999445e-02 2.451439999999999869e-02 4.217246939519528226e+00
0.000000000000000000e+00 6.603590000000000111e-04 5.167241138983064141e-01
3.125000000000000000e-02 9.109250000000000680e-02 2.693146688139970379e+00
1.874999999999999931e-02 2.816260000000000117e-03 2.541489886583765401e+00
0.000000000000000000e+00 2.680320000000000250e-04 1.780103678083303498e+00
0.000000000000000000e+00 1.786620000000000048e-03 3.520178847105837505e+00
0.000000000000000000e+00 6.724479999999999694e-04 2.928594346781746793e+00
3.125000000000000173e-03 7.847040000000000005e-04 4.594777512872846081e+00
0.000000000000000000e+00 1.753879999999999979e-03 3.583822660608377841e+00
0.000000000000000000e+00 9.184640000000000208e-04 2.999335812558005188e+00
0.000000000000000000e+00 4.094379999999999786e-04 3.189812292427156581e+00
0.000000000000000000e+00 2.931839999999999902e-04 1.281817562969538749e+00
9.374999999999999653e-03 1.761219999999999973e-03 4.414840476574691586e+00
0.000000000000000000e+00 2.507459999999999984e-03 5.633947644276027233e-01
9.374999999999999653e-03 5.305920000000000428e-03 1.730660880827024073e+00
2.187499999999999861e-02 2.138430000000000192e-03 6.113583944102091161e-01
0.000000000000000000e+00 4.427829999999999787e-03 3.558254502427480315e+00
0.000000000000000000e+00 3.731429999999999881e-04 1.943338456452436525e+00
3.125000000000000173e-03 3.745539999999999894e-03 1.874172853521506310e+00
0.000000000000000000e+00 5.891839999999999751e-04 4.200765906642066838e+00
2.500000000000000139e-02 4.018139999999999906e-02 2.526732102658177492e+00
3.125000000000000173e-03 2.041369999999999990e-02 1.773902288912276859e+00
1.874999999999999931e-02 2.247100000000000139e-03 1.907119808149251750e+00
0.000000000000000000e+00 9.938559999999999929e-04 4.788893118893175149e+00
0.000000000000000000e+00 1.160000000000000007e-03 2.628577705008663834e+00
0.000000000000000000e+00 1.514879999999999970e-04 1.745030109336107582e+00
0.000000000000000000e+00 3.071620000000000166e-03 2.225019575767284152e+00
3.125000000000000000e-02 2.008450000000000166e-03 1.165232697708481480e+00
0.000000000000000000e+00 8.583770000000000115e-04 4.624739396159679217e+00
3.125000000000000173e-03 3.013700000000000059e-02 3.751873042371048683e+00
3.125000000000000173e-03 2.419580000000000168e-03 2.845335891359856983e+00
0.000000000000000000e+00 4.425730000000000115e-03 1.422338172970214920e+00
0.000000000000000000e+00 1.330819999999999920e-03 6.899985617757070644e-01
0.000000000000000000e+00 2.213120000000000115e-04 4.384529258859690692e+00
0.000000000000000000e+00 9.692799999999999897e-04 3.467663596088288003e+00
3.125000000000000173e-03 2.080770000000000015e-03 4.944892491739828699e+00
2.812500000000000069e-02 1.076209999999999944e-01 4.313440521977113917e+00
9.374999999999999653e-03 9.489369999999999750e-02 2.117905142132242569e-01
0.000000000000000000e+00 1.964920000000000208e-03 2.444949138735331928e+00
1.562500000000000000e-02 2.592510000000000127e-03 2.993650791833868841e+00
2.187499999999999861e-02 2.467260000000000199e-03 3.350271317405173477e-02
0.000000000000000000e+00 1.982719999999999882e-04 3.457146891828966506e+00
9.374999999999999653e-03 2.308800000000000175e-03 1.679215540784879224e+00
2.187499999999999861e-02 1.790209999999999978e-03 1.758740209529417342e+00
2.187499999999999861e-02 3.235710000000000149e-03 2.858933126706939554e+00
2.812500000000000069e-02 1.424579999999999944e-03 2.782591785210635660e+00
0.000000000000000000e+00 2.936579999999999833e-03 3.235313230272125917e+00
0.000000000000000000e+00 3.658879999999999771e-04 3.566286229867162039e+00
0.000000000000000000e+00 3.612800000000000104e-04 1.290925821604778090e+00
0.000000000000000000e+00 1.163009999999999912e-03 1.543287381680813919e+00
3.125000000000000173e-03 4.572030000000000365e-03 3.782680232577582125e+00
3.125000000000000173e-03 7.830880000000000132e-03 2.612173670442113682e+00
3.125000000000000173e-03 5.154689999999999966e-03 9.223792524910490176e-01
1.562500000000000000e-02 3.263869999999999879e-03 2.560440643597853949e+00
1.250000000000000069e-02 2.032640000000000054e-03 3.560255735513060404e+00
0.000000000000000000e+00 1.686400000000000117e-04 2.216302603396698601e+00
6.250000000000000347e-03 1.034689999999999915e-02 2.027228582776135823e+00
0.000000000000000000e+00 1.701819999999999939e-03 1.386939871869110608e+00
0.000000000000000000e+00 2.319229999999999816e-03 3.549394258321589390e+00
0.000000000000000000e+00 3.038020000000000217e-03 2.273781314708497980e+00
3.125000000000000173e-03 3.787650000000000045e-03 2.635715862318089187e+00
3.125000000000000173e-03 4.391039999999999700e-03 4.155260464451596469e+00
0.000000000000000000e+00 1.095870000000000091e-03 3.674401632401106177e+00
6.250000000000000347e-03 1.027239999999999924e-02 1.182272007277510584e+00
0.000000000000000000e+00 4.991169999999999635e-03 4.809011801201114267e+00
0.000000000000000000e+00 7.346800000000000335e-04 3.710754259862201199e+00
0.000000000000000000e+00 2.273789999999999926e-03 4.109860408908797780e+00
0.000000000000000000e+00 5.341439999999999600e-04 4.441068792952101774e+00
0.000000000000000000e+00 2.765439999999999869e-04 9.951578143944089794e-01
0.000000000000000000e+00 3.696699999999999812e-03 4.960263757749119762e+00
0.000000000000000000e+00 9.985919999999999692e-04 3.224308549114768274e-01
9.374999999999999653e-03 2.192060000000000015e-03 1.395234761990810091e-01
2.187499999999999861e-02 9.877050000000000066e-03 2.282940309729215134e+00
0.000000000000000000e+00 2.421309999999999869e-03 1.837526651459848726e+00
6.250000000000000347e-03 4.936689999999999828e-02 1.900846876069643976e+00
0.000000000000000000e+00 1.802239999999999875e-04 3.297169294311778742e+00
3.125000000000000173e-03 2.285310000000000032e-03 2.109644852856984443e+00
0.000000000000000000e+00 1.153670000000000086e-03 4.906467421687123576e+00
0.000000000000000000e+00 1.552640000000000096e-04 4.726887626362681338e+00
0.000000000000000000e+00 1.061719999999999938e-03 3.744732000890080403e+00
6.250000000000000347e-03 9.625989999999999547e-02 1.135489982606191495e-01
3.125000000000000173e-03 6.903489999999999974e-03 3.104843835239950334e+00
3.125000000000000173e-03 9.711659999999999737e-02 2.504483770967652845e+00
6.250000000000000347e-03 3.734910000000000140e-03 4.142917717954299306e+00
1.250000000000000069e-02 2.025279999999999962e-03 1.931565389985310244e+00
0.000000000000000000e+00 2.863420000000000201e-03 4.933499488485135309e+00
9.374999999999999653e-03 2.576379999999999990e-02 3.218251149869296057e+00
0.000000000000000000e+00 1.051389999999999920e-03 2.710431850850834046e+00
0.000000000000000000e+00 1.030909999999999899e-03 1.879055081881597644e+00
0.000000000000000000e+00 1.063099999999999982e-03 1.103804057338605427e+00
2.812500000000000069e-02 4.778360000000000246e-02 3.721075272919533550e+00
0.000000000000000000e+00 2.573440000000000189e-03 4.763037594060198110e+00
2.500000000000000139e-02 1.735870000000000034e-03 2.402334071366690083e+00
3.125000000000000173e-03 1.436350000000000083e-03 1.599347458189525728e+00
0.000000000000000000e+00 1.505279999999999899e-03 3.321506733409984591e-01
0.000000000000000000e+00 5.689220000000000041e-03 4.381518225453393534e+00
3.125000000000000173e-03 7.546500000000000256e-03 2.720555664069101987e-01
0.000000000000000000e+00 1.756130000000000061e-03 2.621835631058937466e+00
3.125000000000000173e-03 9.802049999999999652e-02 3.460314689884381067e+00
0.000000000000000000e+00 2.618320000000000022e-02 2.780682753043443256e+00
0.000000000000000000e+00 1.852360000000000118e-02 2.820300500113998021e-01
0.000000000000000000e+00 1.923200000000000018e-04 2.950698657012015502e+00
2.812500000000000069e-02 2.881980000000000132e-03 1.464394935962038513e+00
0.000000000000000000e+00 6.809599999999999854e-04 3.766551825563790867e-01
1.250000000000000069e-02 1.969470000000000075e-03 3.702841698076255739e+00
3.125000000000000173e-03 2.210619999999999946e-03 4.133937911157364198e+00
1.562500000000000000e-02 2.383039999999999898e-03 2.144421835319781922e-01
1.250000000000000069e-02 1.756420000000000073e-03 3.896532609769835176e+00
0.000000000000000000e+00 5.109760000000000083e-04 2.942274751602402816e+00
0.000000000000000000e+00 4.003839999999999938e-04 2.186068344778202555e-01
0.000000000000000000e+00 1.478850000000000086e-03 2.073452774374810570e+00
0.000000000000000000e+00 5.391810000000000352e-03 1.882446105248801071e+00
7.499999999999999722e-02 9.264740000000000475e-02 2.257263917130157616e+00
1.250000000000000069e-02 9.676060000000000216e-02 3.228028373481236279e+00
0.000000000000000000e+00 1.078909999999999982e-03 4.087978888887337625e+00
6.250000000000000347e-03 1.387140000000000031e-03 4.348916843448612291e+00
0.000000000000000000e+00 5.285630000000000363e-03 7.924506484948873331e-01
1.562500000000000000e-02 2.585220000000000053e-03 1.824076015606898027e+00
0.000000000000000000e+00 1.117380000000000066e-03 4.229229616145180337e+00
0.000000000000000000e+00 3.058110000000000168e-03 7.543474664825394749e-01
6.250000000000000347e-03 1.065709999999999991e-01 1.847249079352064172e+00
0.000000000000000000e+00 1.262620000000000051e-04 1.137942009629520523e+00
1.562500000000000000e-02 3.047359999999999826e-03 4.836641040028182736e+00
2.500000000000000139e-02 3.026689999999999849e-03 2.899799492986940397e+00
0.000000000000000000e+00 9.266560000000000075e-03 3.443098979554667594e+00
3.125000000000000173e-03 2.993539999999999830e-03 4.397329734566234549e+00
0.000000000000000000e+00 1.551550000000000065e-03 1.297032799952659410e+00
0.000000000000000000e+00 1.967139999999999872e-04 2.323159503064903042e+00
0.000000000000000000e+00 0.000000000000000000e+00 2.254571213019092468e+00
0.000000000000000000e+00 2.025149999999999867e-03 4.552399346021337223e+00
1.874999999999999931e-02 2.488830000000000035e-03 4.882934307808349139e+00
0.000000000000000000e+00 5.154879999999999705e-03 1.492183769268948357e+00
0.000000000000000000e+00 9.307519999999999682e-04 3.296869628567844046e+00
9.374999999999999653e-03 1.988329999999999959e-02 8.379508744229674511e-01
2.187499999999999861e-02 1.698690000000000096e-03 2.357258660517498772e+00
0.000000000000000000e+00 5.433539999999999724e-03 2.627521416117071684e+00
0.000000000000000000e+00 4.250850000000000136e-04 2.211699272377884551e+00
9.374999999999999653e-03 9.639319999999999833e-02 1.306539854282775970e+00
0.000000000000000000e+00 1.310979999999999958e-02 3.431068532690007444e+00
3.125000000000000173e-03 3.508349999999999923e-03 2.255673014790771980e+00
3.125000000000000173e-03 7.430289999999999985e-03 3.999994797880637165e+00
0.000000000000000000e+00 9.221119999999999968e-04 3.716916384894897618e+00
0.000000000000000000e+00 9.936820000000000722e-04 3.071982666010531382e+00
9.374999999999999653e-03 1.180540000000000105e-03 2.539861574711510528e+00
6.250000000000000347e-03 1.318270000000000075e-03 2.774171238793354810e+00
9.374999999999999653e-03 5.647360000000000357e-04 4.706323359655731231e+00
3.125000000000000173e-03 4.477700000000000256e-03 2.917882726629739132e-02
0.000000000000000000e+00 4.958080000000000343e-04 1.987433152423335736e+00
0.000000000000000000e+00 7.288449999999999920e-04 5.476091000634725203e-01
6.250000000000000347e-03 3.045379999999999875e-03 3.362171047089988818e+00
9.374999999999999653e-03 9.219900000000000317e-02 1.735488026757520785e+00
0.000000000000000000e+00 6.470210000000000111e-04 4.457330555969795327e+00
0.000000000000000000e+00 5.858560000000000503e-04 1.647140626746512737e+00
0.000000000000000000e+00 1.046849999999999994e-03 4.015604173859895987e+00
0.000000000000000000e+00 2.055740000000000074e-05 1.056139852186414041e+00
5.000000000000000278e-02 9.268859999999999599e-02 4.253293333963072520e+00
6.250000000000000347e-03 1.065259999999999957e-01 2.956194038030695026e+00
3.125000000000000173e-03 4.865979999999999785e-03 3.934318253576203350e+00
0.000000000000000000e+00 4.443029999999999723e-03 1.728453116583139604e-01
2.187499999999999861e-02 9.246479999999999977e-02 2.454938785347971386e+00
0.000000000000000000e+00 1.095550000000000039e-03 2.714331033907229074e+00
9.374999999999999653e-03 1.911170000000000013e-03 4.413765964256691987e+00
3.125000000000000173e-03 4.507899999999999581e-03 2.736373336972870440e+00
5.312499999999999861e-02 9.046479999999999799e-02 4.460158465264019156e+00
2.187499999999999861e-02 3.792770000000000169e-02 2.787642130701275534e+00
0.000000000000000000e+00 2.776960000000000192e-04 5.114199598573382355e-01
0.000000000000000000e+00 2.405389999999999872e-03 1.518770616482453262e+00
6.250000000000000347e-03 9.695410000000000139e-02 2.097382162935765848e+00
0.000000000000000000e+00 1.191040000000000035e-04 4.665421773919245396e+00
0.000000000000000000e+00 1.482750000000000040e-02 4.028879729482347294e+00
2.500000000000000139e-02 2.188740000000000217e-03 4.545459965268966451e-01
3.125000000000000173e-03 9.526690000000000158e-02 2.337528954340449161e+00
0.000000000000000000e+00 6.634240000000000232e-04 1.088737257066212383e+00
0.000000000000000000e+00 9.757969999999999491e-03 6.975887661897062220e-01
2.187499999999999861e-02 2.744830000000000186e-03 2.920499934373236961e+00
0.000000000000000000e+00 2.264509999999999960e-03 2.064312771297079241e+00
0.000000000000000000e+00 2.295440000000000167e-05 4.048557491187894541e+00
2.187499999999999861e-02 3.163969999999999890e-03 3.869535250620736999e+00
2.500000000000000139e-02 2.507709999999999800e-03 7.641000868568864623e-01
2.500000000000000139e-02 9.257120000000000626e-02 7.001004015360356991e-01
1.562500000000000000e-02 2.093569999999999893e-03 2.302141588801802197e+00
1.250000000000000069e-02 3.614979999999999843e-03 2.572444574487993574e+00
9.374999999999999653e-03 1.951870000000000081e-03 1.082509120015042736e+00
0.000000000000000000e+00 9.861119999999999261e-04 1.730337382898555099e+00
1.562500000000000000e-02 4.013980000000000325e-02 1.368006848429448308e-01
0.000000000000000000e+00 1.004520000000000066e-03 3.515748817651664027e+00
2.812500000000000069e-02 2.541569999999999940e-03 1.693489791431185942e+00
0.000000000000000000e+00 1.654080000000000047e-03 4.360711561279394743e+00
0.000000000000000000e+00 1.624639999999999895e-03 3.595923856740440572e-01
0.000000000000000000e+00 4.382340000000000194e-03 5.866652185960519184e-01
3.437500000000000278e-02 6.942910000000000054e-03 8.198839547535174965e-01
0.000000000000000000e+00 2.045060000000000020e-03 1.628925622171530918e+00
0.000000000000000000e+00 4.311360000000000192e-03 1.562578070561610577e+00
1.874999999999999931e-02 1.977410000000000192e-03 1.280145049907821964e+00
1.250000000000000069e-02 2.346819999999999896e-03 2.913563353229586816e-01
2.500000000000000139e-02 2.745660000000000028e-03 9.532764063298571067e-01
0.000000000000000000e+00 1.161600000000000046e-03 1.339022229060617519e+00
2.187499999999999861e-02 1.934720000000000016e-03 1.777453017408368030e+00
2.812500000000000069e-02 9.336949999999999417e-02 4.051150848152039075e+00
0.000000000000000000e+00 3.211390000000000165e-04 3.781952021885755411e+00
0.000000000000000000e+00 4.678560000000000010e-04 2.739990890013404012e+00
0.000000000000000000e+00 8.014270000000000421e-03 2.123443938051571500e+00
0.000000000000000000e+00 1.712060000000000057e-03 3.074745923902526101e+00
3.125000000000000173e-03 4.315349999999999742e-02 1.860817836186375196e+00
0.000000000000000000e+00 1.296319999999999894e-03 3.184242983760059875e+00
3.125000000000000173e-03 1.059999999999999970e-01 1.175028702125899827e+00
0.000000000000000000e+00 3.817599999999999770e-04 2.831753357679860805e+00
3.125000000000000173e-03 1.964669999999999958e-03 1.432336762005625985e-01
0.000000000000000000e+00 3.587869999999999948e-02 4.557451248297702762e+00
0.000000000000000000e+00 0.000000000000000000e+00 4.309284599281425265e+00
2.812500000000000069e-02 9.368319999999999642e-04 1.938391552160689812e-01
9.374999999999999653e-03 2.364160000000000133e-03 2.713692092715858539e+00
2.500000000000000139e-02 2.385219999999999962e-03 3.055361265153301975e+00
0.000000000000000000e+00 8.642129999999999604e-04 1.070281206669588814e+00
2.187499999999999861e-02 2.811650000000000173e-03 2.894457542034325037e+00
5.312499999999999861e-02 4.184109999999999913e-02 1.931114568310733359e+00
0.000000000000000000e+00 2.299189999999999914e-02 2.617018980744374890e+00
6.250000000000000347e-03 9.893419999999999992e-02 6.820430765755208791e-01
3.437500000000000278e-02 9.271300000000000374e-02 9.608743305730466089e-01
0.000000000000000000e+00 2.333879999999999982e-02 2.871624184616240250e+00
0.000000000000000000e+00 7.947520000000000235e-04 4.946844790756696142e+00
0.000000000000000000e+00 4.460539999999999818e-03 3.063561185875189441e+00
3.125000000000000173e-03 2.033220000000000079e-03 2.989899312934682474e+00
0.000000000000000000e+00 1.499379999999999984e-02 4.338282483000665657e+00
6.250000000000000347e-03 1.902210000000000099e-03 4.368308267641232590e+00
3.125000000000000173e-03 4.915199999999999778e-03 3.553586614458873250e+00
0.000000000000000000e+00 7.680000000000000195e-04 4.609888973019258707e+00
0.000000000000000000e+00 2.327619999999999863e-03 2.292130904270633263e+00
0.000000000000000000e+00 1.010800000000000066e-03 8.515246520090624660e-01
9.374999999999999653e-03 9.481489999999999363e-02 3.918187999061979454e+00
0.000000000000000000e+00 6.500989999999999894e-03 2.093964508400079527e+00
6.250000000000000347e-03 1.453630000000000026e-03 1.755440978988686007e+00
0.000000000000000000e+00 5.359550000000000251e-03 4.335166708432257821e+00
0.000000000000000000e+00 6.490529999999999911e-02 4.592140684989692856e-01
0.000000000000000000e+00 3.078850000000000163e-03 3.800791224657964484e+00
6.250000000000000347e-03 9.854229999999999934e-02 1.413860305283896057e+00
0.000000000000000000e+00 6.764549999999999600e-04 1.107554797885172970e+00
0.000000000000000000e+00 9.793919999999999362e-04 2.033815138356824370e+00
0.000000000000000000e+00 2.545280000000000134e-04 4.480673856825117873e+00
0.000000000000000000e+00 2.007940000000000159e-03 8.480401494951156360e-01
2.500000000000000139e-02 1.214140000000000054e-03 1.904582272687458833e+00
1.562500000000000000e-02 2.033860000000000182e-03 1.958921991090801784e+00
0.000000000000000000e+00 9.386620000000000467e-04 3.479299318808222186e+00
2.187499999999999861e-02 2.569150000000000079e-03 1.155261550058608755e+00
3.125000000000000173e-03 4.315349999999999742e-02 3.398352378705967958e+00
3.125000000000000173e-03 4.586820000000000133e-03 2.818520669345319529e+00
2.500000000000000139e-02 9.286129999999999385e-02 1.185734756029373393e+00
2.500000000000000139e-02 1.767040000000000104e-03 3.347288707992081669e+00
0.000000000000000000e+00 7.087359999999999580e-04 1.074404440211406131e+00
6.250000000000000347e-03 8.215679999999999511e-04 1.633721205937382237e+00
1.250000000000000069e-02 1.413699999999999939e-03 2.259974176010428604e+00
0.000000000000000000e+00 5.000450000000000034e-03 1.080045000864644500e+00
0.000000000000000000e+00 1.138499999999999972e-03 2.567957529387964843e+00
9.374999999999999653e-03 2.598909999999999849e-03 3.073634560571520069e+00
1.874999999999999931e-02 1.070060000000000039e-01 1.386337385842346670e+00
0.000000000000000000e+00 5.637439999999999639e-03 3.458949372375860865e+00
0.000000000000000000e+00 1.953569999999999959e-02 4.965049416322579567e+00
0.000000000000000000e+00 4.286110000000000202e-04 1.277729594473148822e+00
0.000000000000000000e+00 2.382080000000000070e-04 4.067389307417309752e+00
9.374999999999999653e-03 2.129729999999999818e-03 3.550481096644682921e+00
3.749999999999999861e-02 4.185930000000000206e-02 2.546100635061776529e-01
1.562500000000000000e-02 1.918460000000000087e-03 3.914136436320452272e+00
5.937499999999999722e-02 1.444229999999999958e-01 3.689898814396451066e+00
3.125000000000000173e-03 5.437220000000000421e-03 3.282186096386141561e+00
0.000000000000000000e+00 3.156860000000000048e-03 8.455297664026084625e-02
0.000000000000000000e+00 7.887999999999999829e-04 3.573358687561179359e+00
2.187499999999999861e-02 4.423550000000000051e-03 3.372836878963447749e-01
6.250000000000000347e-03 1.812349999999999899e-03 1.497399273022886224e+00
3.125000000000000173e-03 4.420480000000000069e-03 2.461579838073861826e+00
6.250000000000000347e-03 2.387709999999999919e-03 1.544244003692761824e+00
1.874999999999999931e-02 5.201599999999999800e-03 3.841584350518927327e+00
0.000000000000000000e+00 2.298060000000000153e-05 4.501149730169756502e+00
1.874999999999999931e-02 1.992959999999999784e-03 3.892361698532326386e+00
0.000000000000000000e+00 4.099840000000000103e-04 2.636464324020904471e+00
0.000000000000000000e+00 6.610560000000000351e-04 4.398908573492335883e+00
2.812500000000000069e-02 2.562619999999999829e-03 3.445518608637504476e-01
6.250000000000000347e-03 3.282880000000000173e-03 2.876686620640078296e+00
1.874999999999999931e-02 1.919420000000000024e-03 4.005560856379013934e+00
0.000000000000000000e+00 1.069440000000000061e-03 2.081379524769930711e+00
9.374999999999999653e-03 1.706430000000000100e-03 4.917897154918732916e+00
0.000000000000000000e+00 7.328200000000000209e-04 4.663140884059692404e+00
1.250000000000000069e-02 1.659649999999999927e-03 2.852820525029779564e+00
3.125000000000000173e-03 2.396220000000000121e-03 3.363878120727810561e+00
0.000000000000000000e+00 1.045560000000000066e-03 2.951307953133084361e+00
0.000000000000000000e+00 3.206979999999999900e-03 4.209428388735021898e+00
6.250000000000000347e-03 1.698749999999999956e-03 4.726197940936575748e+00
3.125000000000000173e-03 3.643200000000000084e-03 3.329126401751982822e+00
3.125000000000000173e-03 4.535039999999999731e-03 8.633585654485076422e-02
3.125000000000000173e-03 3.753600000000000166e-03 1.322281244346894979e+00
1.562500000000000000e-02 1.827420000000000086e-02 3.751019838092284342e-02
3.125000000000000173e-03 3.428420000000000165e-03 7.462402066659173938e-01
0.000000000000000000e+00 9.799039999999999747e-04 2.987749860637292976e+00
0.000000000000000000e+00 1.066560000000000034e-03 3.915183436140292628e+00
0.000000000000000000e+00 2.143299999999999893e-03 2.511185559429074399e+00
0.000000000000000000e+00 9.811130000000000372e-04 2.676362488214751423e+00
0.000000000000000000e+00 1.622909999999999978e-03 2.634375878269037408e+00
3.125000000000000173e-03 3.844989999999999953e-03 4.134893761752482355e+00
0.000000000000000000e+00 2.415360000000000076e-03 2.830453940011581793e+00
0.000000000000000000e+00 2.214879999999999800e-03 2.188003219765642271e+00
2.500000000000000139e-02 3.941540000000000321e-02 4.348128090313511329e+00
0.000000000000000000e+00 2.647719999999999783e-04 3.696618431606001565e+00
3.125000000000000000e-02 5.882240000000000385e-04 2.721597398383300614e+00
3.125000000000000173e-03 1.505710000000000034e-02 2.557012383456944260e+00
0.000000000000000000e+00 3.046339999999999812e-03 3.312135723906315388e+00
0.000000000000000000e+00 4.077069999999999913e-04 2.842543148472378878e+00
3.125000000000000173e-03 1.009449999999999931e-01 1.141550873835152746e+00
0.000000000000000000e+00 3.788029999999999869e-02 1.405165835431838595e+00
0.000000000000000000e+00 6.100419999999999628e-03 4.666367855709119716e+00
0.000000000000000000e+00 2.167679999999999954e-03 4.863383251649041839e+00
0.000000000000000000e+00 3.774860000000000021e-02 1.482695191566522075e+00
2.187499999999999861e-02 1.799870000000000072e-03 1.546731907673093431e+00
9.374999999999999653e-03 9.657720000000000193e-02 1.936399349077413845e+00
0.000000000000000000e+00 2.403460000000000058e-03 2.972944465515515944e+00
6.250000000000000347e-03 1.057789999999999980e-01 5.270947523600799656e-02
2.187499999999999861e-02 2.787650000000000024e-03 4.395433151696346741e+00
3.125000000000000173e-03 8.960829999999999490e-03 9.493050910062317271e-01
2.187499999999999861e-02 2.620669999999999857e-03 7.414729286638771510e-01
1.250000000000000069e-02 2.831619999999999970e-03 1.242911883378871707e+00
6.250000000000000347e-03 1.841919999999999929e-03 2.008434464870991309e+00
