3.125000000000000173e-03 5.674180000000000022e-03 3.529075600578547967e+00
5.625000000000000139e-02 9.233700000000000241e-02 1.837603362076102975e+00
0.000000000000000000e+00 1.152379999999999941e-03 3.466066298100951570e+00
1.874999999999999931e-02 3.110780000000000056e-03 3.953741079068663566e+00
0.000000000000000000e+00 1.989950000000000052e-02 2.157622044383677995e+00
0.000000000000000000e+00 5.149950000000000361e-03 1.756196914008233412e+00
0.000000000000000000e+00 3.712260000000000212e-03 4.463697406470645834e-01
0.000000000000000000e+00 1.150140000000000017e-03 4.905836814811875612e+00
0.000000000000000000e+00 5.589580000000000243e-03 3.823875343399565807e+00
3.125000000000000173e-03 9.627850000000000297e-02 6.770675197753006636e-01
0.000000000000000000e+00 9.851529999999998968e-04 3.836815844311542989e+00
0.000000000000000000e+00 3.560230000000000165e-04 1.420442662843811599e+00
0.000000000000000000e+00 3.184769999999999962e-03 2.828646325624406543e-01
0.000000000000000000e+00 3.109180000000000017e-03 1.822295071928919930e+00
6.250000000000000347e-03 1.695359999999999923e-03 2.396349975600187143e-01
9.374999999999999653e-03 3.033600000000000012e-03 1.415872706313374252e+00
0.000000000000000000e+00 7.606520000000000078e-04 4.950518537800624230e+00
3.125000000000000173e-03 1.925349999999999978e-02 4.691074983655162178e+00
0.000000000000000000e+00 2.172990000000000078e-03 9.314501069418545942e-01
0.000000000000000000e+00 1.288839999999999951e-02 3.731026523078986745e+00
1.250000000000000069e-02 1.905470000000000037e-03 5.260992976296574586e-01
2.500000000000000139e-02 2.777410000000000122e-03 2.692487735727687514e+00
6.250000000000000347e-03 3.276799999999999852e-03 3.885584283421086749e+00
0.000000000000000000e+00 3.780810000000000008e-04 3.809814010300678344e+00
0.000000000000000000e+00 6.154879999999999726e-03 3.801353310322360013e+00
1.562500000000000000e-02 8.124479999999999896e-03 3.591133847128992862e+00
1.562500000000000000e-02 2.739389999999999967e-03 2.257866140814687839e+00
2.187499999999999861e-02 2.115239999999999898e-01 1.594796604422077380e-02
3.437500000000000278e-02 9.248449999999999727e-02 1.651263406908430209e+00
0.000000000000000000e+00 2.109739999999999896e-05 1.842268381903389152e+00
9.374999999999999653e-03 1.910849999999999962e-03 1.334021013066220007e+00
2.500000000000000139e-02 2.043199999999999791e-03 3.067426360702369514e+00
0.000000000000000000e+00 6.884480000000000330e-04 2.855754642282198885e-01
1.874999999999999931e-02 4.232829999999999926e-03 3.394705113306997202e+00
0.000000000000000000e+00 2.221159999999999923e-05 2.345391176341344419e+00
0.000000000000000000e+00 1.508280000000000081e-03 1.596963260981058008e+00
0.000000000000000000e+00 0.000000000000000000e+00 3.209520713016322802e-01
0.000000000000000000e+00 5.651840000000000423e-04 1.038474558548924787e+00
9.374999999999999653e-03 2.092350000000000199e-03 3.535483887173274553e+00
0.000000000000000000e+00 1.121980000000000069e-03 3.874681565492671398e-01
0.000000000000000000e+00 3.976960000000000087e-04 7.616363830586597716e-01
2.187499999999999861e-02 1.455810000000000090e-03 1.833114527603854071e+00
9.374999999999999653e-03 1.020850000000000056e-02 2.977953922950073107e+00
4.687500000000000000e-02 9.023019999999999652e-02 1.028045638981540222e+00
3.125000000000000173e-03 5.313219999999999575e-03 4.121251785163926318e-01
2.187499999999999861e-02 1.894019999999999948e-03 3.921550944076673595e+00
0.000000000000000000e+00 3.536379999999999992e-03 2.363051622718912892e+00
0.000000000000000000e+00 1.499139999999999934e-03 1.329351227557368231e-01
0.000000000000000000e+00 0.000000000000000000e+00 2.531728729305913639e+00
0.000000000000000000e+00 1.518659999999999975e-02 2.726030036748431584e+00
9.374999999999999653e-03 1.167070000000000086e-02 9.434784364509762877e-01
0.000000000000000000e+00 1.478850000000000086e-03 1.578490821428684576e+00
0.000000000000000000e+00 9.872049999999998968e-04 1.263407280380659525e+00
0.000000000000000000e+00 5.233920000000000195e-04 2.695028401479782065e-02
1.874999999999999931e-02 1.667649999999999905e-03 3.995511261758583732e+00
3.125000000000000173e-03 1.286460000000000034e-02 3.723864266069452089e+00
0.000000000000000000e+00 3.737599999999999993e-04 3.779889573361034927e+00
2.187499999999999861e-02 9.328609999999999680e-02 4.162910422021858459e+00
0.000000000000000000e+00 8.245839999999999507e-04 2.509961868951333663e+00
0.000000000000000000e+00 4.995979999999999692e-04 3.347655667133677682e+00
3.125000000000000173e-03 1.583599999999999938e-02 2.331216753498654981e+00
3.125000000000000000e-02 1.310719999999999941e-02 3.304904289038552267e+00
0.000000000000000000e+00 3.069570000000000198e-03 2.681388498579356572e+00
0.000000000000000000e+00 1.167620000000000073e-03 3.015569304686460672e+00
0.000000000000000000e+00 2.655419999999999916e-03 3.065006580975305539e+00
2.500000000000000139e-02 2.815230000000000163e-03 1.098991826761250401e+00
0.000000000000000000e+00 1.585280000000000109e-04 4.370331708120017700e-01
0.000000000000000000e+00 6.726250000000000284e-02 4.125396804041135290e+00
0.000000000000000000e+00 8.241989999999999603e-04 2.576070142017371722e+00
3.125000000000000173e-03 2.085249999999999864e-03 3.726023127430859283e+00
0.000000000000000000e+00 1.677700000000000068e-03 1.277846861220300223e+00
5.000000000000000278e-02 3.188679999999999987e-02 1.789367443092686916e+00
0.000000000000000000e+00 8.074620000000000018e-04 4.387612263204060170e+00
0.000000000000000000e+00 5.228109999999999789e-04 1.704551958687813951e+00
2.500000000000000139e-02 2.631300000000000045e-03 4.447776112800246651e+00
1.874999999999999931e-02 2.118220000000000103e-01 3.413418728942002600e-01
1.250000000000000069e-02 2.711550000000000071e-03 1.667490102137821228e+00
0.000000000000000000e+00 7.308969999999999920e-04 8.997335788238330911e-01
0.000000000000000000e+00 9.583999999999999854e-04 3.627849702002414745e+00
6.250000000000000347e-03 6.798079999999999531e-04 3.824913920141481682e+00
1.874999999999999931e-02 2.817730000000000061e-03 1.420885561333543601e+00
2.187499999999999861e-02 9.360739999999999339e-02 1.450119460941959870e+00
0.000000000000000000e+00 9.170040000000000135e-02 1.418915207659215971e+00
0.000000000000000000e+00 7.320509999999999474e-04 2.334799286509847693e-01
0.000000000000000000e+00 1.196350000000000104e-03 4.392628515006718359e+00
0.000000000000000000e+00 4.987000000000000330e-04 4.331953169923739466e+00
0.000000000000000000e+00 3.847039999999999813e-04 2.270559685281309914e+00
0.000000000000000000e+00 8.332800000000000450e-04 4.087055819072293872e+00
3.125000000000000000e-02 9.210150000000000281e-02 2.346956012012680226e+00
1.250000000000000069e-02 1.503039999999999975e-03 4.893965285122578557e+00
0.000000000000000000e+00 9.024319999999999955e-04 1.972747441310441774e+00
0.000000000000000000e+00 2.608769999999999839e-03 4.356586269125823030e+00
0.000000000000000000e+00 1.358660000000000033e-03 3.381804979098277819e+00
0.000000000000000000e+00 3.157120000000000022e-04 1.193684091695000893e+00
0.000000000000000000e+00 1.046520000000000002e-03 4.187464438541578460e+00
3.125000000000000173e-03 8.627249999999999502e-03 3.689801659818339186e+00
0.000000000000000000e+00 3.339630000000000007e-04 4.517726007928110299e+00
6.250000000000000347e-03 9.946239999999999422e-04 9.647022617753420182e-01
0.000000000000000000e+00 4.081730000000000427e-03 2.725572348388545230e+00
3.437500000000000278e-02 9.270159999999999512e-02 4.461550688264423137e+00
1.562500000000000000e-02 2.584379999999999837e-03 5.536421767493393542e-01
3.125000000000000173e-03 3.431710000000000142e-03 3.519154928181668751e+00
0.000000000000000000e+00 1.166460000000000023e-03 1.202907257866896895e+00
0.000000000000000000e+00 4.368640000000000023e-03 2.758462717962056221e+00
0.000000000000000000e+00 1.102630000000000060e-03 1.485080523389818996e+00
0.000000000000000000e+00 1.114500000000000039e-03 3.804593130191369355e+00
3.125000000000000173e-03 2.705860000000000036e-03 5.912854560640229407e-01
1.250000000000000069e-02 1.908100000000000030e-03 1.361526579458618436e+00
0.000000000000000000e+00 4.158510000000000136e-04 1.096272423637755233e+00
0.000000000000000000e+00 4.198900000000000202e-04 4.795227674417154695e+00
0.000000000000000000e+00 5.538429999999999569e-03 2.011313834520450650e-01
6.250000000000000347e-03 1.776129999999999896e-03 4.720261998312796692e+00
0.000000000000000000e+00 1.166440000000000012e-02 3.041614140405099587e+00
2.187499999999999861e-02 2.659260000000000096e-03 2.493894318384388242e+00
2.500000000000000139e-02 9.835329999999999767e-03 4.355443650112137632e+00
0.000000000000000000e+00 1.191940000000000057e-03 3.754122879019287318e+00
2.500000000000000139e-02 9.123950000000000116e-02 3.830891459128857868e+00
1.031249999999999944e-01 9.160580000000000112e-02 3.180489007500138854e+00
2.500000000000000139e-02 2.364859999999999879e-03 3.002545574743525236e+00
0.000000000000000000e+00 3.987420000000000200e-03 2.997568006558687159e+00
0.000000000000000000e+00 1.069480000000000040e-03 8.085132925454219244e-01
3.125000000000000173e-03 9.830780000000000768e-03 4.189683198026700417e+00
6.250000000000000347e-03 3.276799999999999852e-03 1.836747900395968580e+00
0.000000000000000000e+00 2.296859999999999893e-05 3.276582815284794670e+00
0.000000000000000000e+00 3.112960000000000033e-02 2.649142646877725937e+00
0.000000000000000000e+00 2.392960000000000074e-04 1.511865092168598768e+00
9.374999999999999653e-03 1.007080000000000058e-01 3.878655527648736001e+00
9.374999999999999653e-03 9.564910000000000079e-02 1.884995600535423588e+00
1.250000000000000069e-02 2.069309999999999986e-03 4.002789385627957941e+00
0.000000000000000000e+00 2.753789999999999884e-03 2.811562820709103683e+00
3.125000000000000173e-03 1.266109999999999979e-03 4.315147682123969375e+00
0.000000000000000000e+00 5.444219999999999615e-03 3.454790560288982793e+00
0.000000000000000000e+00 4.234169999999999883e-04 2.101055689980664720e+00
3.125000000000000173e-03 4.535360000000000433e-03 4.064308798159943947e+00
1.250000000000000069e-02 2.193469999999999882e-03 4.467330945875687576e+00
0.000000000000000000e+00 3.076989999999999933e-03 5.272733869482537639e-01
2.500000000000000139e-02 2.094910000000000175e-03 4.541871631573057400e+00
0.000000000000000000e+00 1.955580000000000165e-03 8.380860787603849893e-01
0.000000000000000000e+00 3.623869999999999956e-03 2.120886399627130992e-01
0.000000000000000000e+00 5.338879999999999841e-03 1.760162741969814038e+00
0.000000000000000000e+00 9.296849999999999732e-04 1.622545905067787508e+00
0.000000000000000000e+00 1.004289999999999914e-03 3.353153037243500556e+00
0.000000000000000000e+00 2.592829999999999961e-03 4.648913178318505146e+00
1.562500000000000000e-02 2.409539999999999946e-03 2.315555125004025605e+00
1.250000000000000069e-02 2.755329999999999845e-03 1.324767050682682523e+00
0.000000000000000000e+00 4.960640000000000535e-04 1.410057949130077981e+00
0.000000000000000000e+00 2.320550000000000000e-05 1.968598588300090491e+00
3.125000000000000173e-03 9.400149999999999478e-03 2.666088346966364764e+00
3.125000000000000173e-03 2.035780000000000055e-03 2.178295718437571971e+00
0.000000000000000000e+00 4.321279999999999935e-04 4.025248075944984905e+00
6.250000000000000347e-03 9.752009999999999845e-02 5.035884316615574230e-01
4.062500000000000139e-02 9.354030000000000677e-02 6.630295269324676388e-01
0.000000000000000000e+00 6.385920000000000008e-04 6.619149989600392470e-02
3.125000000000000173e-03 7.779419999999999391e-02 1.333103961426981288e+00
3.125000000000000173e-03 2.754939999999999993e-03 2.793230815999407923e+00
0.000000000000000000e+00 2.278560000000000085e-05 1.784093479050635755e-01
0.000000000000000000e+00 8.855679999999999889e-04 4.636613868604112731e+00
3.125000000000000000e-02 1.065649999999999931e-01 4.271697891341240449e+00
5.625000000000000139e-02 9.357269999999999477e-02 3.466193519591298955e+00
0.000000000000000000e+00 1.997119999999999798e-03 3.266070848932864479e+00
0.000000000000000000e+00 1.045109999999999919e-03 7.461551429133550517e-01
1.031249999999999944e-01 9.143830000000000013e-02 1.623757951891461992e+00
1.562500000000000000e-02 2.607679999999999807e-03 9.199917194347534410e-01
1.562500000000000000e-02 9.638040000000000496e-02 2.930273665027684604e+00
0.000000000000000000e+00 9.534280000000000532e-02 2.820461731188306231e+00
2.187499999999999861e-02 3.786820000000000203e-03 3.347600787917603515e+00
0.000000000000000000e+00 1.805220000000000088e-02 8.124973003038699071e-01
0.000000000000000000e+00 1.456379999999999958e-03 2.908697832302679309e+00
0.000000000000000000e+00 8.288640000000000113e-04 7.359979527456572690e-01
0.000000000000000000e+00 1.024720000000000015e-03 1.816678627235380095e+00
0.000000000000000000e+00 1.757309999999999951e-05 2.332292359333394849e+00
3.125000000000000173e-03 1.276230000000000073e-02 1.113729111667276950e+00
0.000000000000000000e+00 2.549609999999999897e-03 3.405976385669936768e+00
4.062500000000000139e-02 9.338470000000000104e-02 6.581316687644450658e-01
1.562500000000000000e-02 6.680580000000000199e-03 2.691947438218091015e+00
3.125000000000000000e-02 8.747480000000000186e-03 1.529172565892995106e+00
0.000000000000000000e+00 1.355899999999999944e-03 2.469083101561577287e+00
0.000000000000000000e+00 3.640899999999999866e-03 4.615371912173471536e+00
0.000000000000000000e+00 1.102530000000000003e-03 2.693282225139373320e+00
0.000000000000000000e+00 6.955959999999999921e-02 2.706832648116996864e-01
0.000000000000000000e+00 2.299159999999999854e-05 1.730163866132869543e+00
6.250000000000000347e-03 1.594560000000000075e-03 2.957944027417390487e+00
1.562500000000000000e-02 1.372930000000000070e-03 2.701975246223591753e+00
1.874999999999999931e-02 2.536259999999999817e-03 4.167007455341945388e+00
6.875000000000000555e-02 3.225510000000000183e-02 3.226316135167599075e+00
0.000000000000000000e+00 2.869589999999999988e-03 2.359787521469816518e+00
0.000000000000000000e+00 1.150909999999999997e-03 2.978012334039316755e+00
3.125000000000000173e-03 2.128829999999999958e-03 1.905081519955035274e+00
0.000000000000000000e+00 8.296490000000000115e-04 3.920046044183469913e+00
0.000000000000000000e+00 3.242430000000000138e-03 6.697384175549753182e-01
1.562500000000000000e-02 1.476099999999999938e-03 3.101070359756270545e+00
1.250000000000000069e-02 1.870209999999999971e-03 1.661965652097384671e+00
1.562500000000000000e-02 2.401340000000000072e-03 2.775952869267524381e+00
0.000000000000000000e+00 6.346430000000000127e-02 3.058418736593854881e+00
0.000000000000000000e+00 9.983629999999999415e-04 2.428270863063344276e+00
9.374999999999999653e-03 9.365759999999999363e-02 7.417820856851592426e-01
0.000000000000000000e+00 1.168450000000000044e-02 2.976261095172982873e+00
0.000000000000000000e+00 4.257900000000000009e-04 4.933005047537924348e+00
0.000000000000000000e+00 1.120640000000000004e-03 3.698602968000618940e+00
0.000000000000000000e+00 7.115950000000000226e-03 7.411727677871465803e-01
0.000000000000000000e+00 7.124289999999999920e-04 4.032063314098853546e+00
0.000000000000000000e+00 2.000959999999999891e-02 6.600909894466250316e-01
0.000000000000000000e+00 9.920639999999999667e-04 3.685797602707276521e+00
0.000000000000000000e+00 4.230330000000000136e-04 3.585021972079546870e+00
0.000000000000000000e+00 1.405119999999999937e-03 4.568861343945181730e+00
1.874999999999999931e-02 3.154500000000000186e-03 3.359841502024242033e+00
0.000000000000000000e+00 2.112639999999999885e-04 3.104807340850804120e+00
0.000000000000000000e+00 6.873559999999999696e-04 3.807441537545834809e+00
0.000000000000000000e+00 4.299579999999999787e-04 4.414173196173018177e+00
1.250000000000000069e-02 7.076479999999999576e-04 2.342972261140788603e+00
0.000000000000000000e+00 2.880189999999999920e-03 4.202439934453104264e+00
0.000000000000000000e+00 1.127870000000000001e-03 1.489018332645693388e+00
0.000000000000000000e+00 1.735039999999999976e-04 1.087552587939615734e+00
4.374999999999999722e-02 2.623839999999999853e-02 3.395603606524704166e+00
9.374999999999999653e-03 1.799809999999999995e-03 1.864285401377268503e+00
1.562500000000000000e-02 1.571710000000000034e-03 2.946437714209682479e+00
1.874999999999999931e-02 2.895490000000000130e-03 2.848667651539321000e+00
4.687500000000000000e-02 9.123610000000000053e-02 3.807250637012469685e+00
0.000000000000000000e+00 1.017019999999999990e-03 4.708565327525676691e-01
0.000000000000000000e+00 2.667979999999999918e-03 1.008356218689834272e+00
0.000000000000000000e+00 3.087359999999999931e-04 1.519148031585004333e+00
0.000000000000000000e+00 5.444929999999999735e-03 7.419192211674635606e-01
0.000000000000000000e+00 1.116419999999999912e-03 1.377741828620771436e+00
0.000000000000000000e+00 1.508149999999999942e-02 3.304411751528151697e+00
9.374999999999999653e-03 1.457149999999999938e-03 2.993518438510164970e+00
0.000000000000000000e+00 3.149180000000000122e-03 7.353967821224516310e-01
2.500000000000000139e-02 2.300739999999999903e-03 3.920303766257494438e+00
0.000000000000000000e+00 0.000000000000000000e+00 2.689636309434134676e-01
0.000000000000000000e+00 4.174720000000000037e-04 2.965961522752472490e+00
6.562500000000000278e-02 2.596330000000000165e-02 1.073063542056044151e+00
3.125000000000000173e-03 1.918190000000000173e-02 3.017992588370366658e+00
0.000000000000000000e+00 3.355900000000000202e-03 4.694233277660891268e+00
3.125000000000000173e-03 9.838600000000000123e-02 2.511790133166877936e+00
2.500000000000000139e-02 3.808189999999999926e-03 2.510757179539317985e+00
0.000000000000000000e+00 4.276500000000000136e-04 2.823001088517695933e+00
2.500000000000000139e-02 3.095740000000000037e-03 1.694554140486483451e+00
0.000000000000000000e+00 8.199039999999999887e-04 4.913838152768040812e-01
0.000000000000000000e+00 4.763650000000000349e-03 9.638567621196025836e-02
6.250000000000000347e-03 3.276799999999999852e-03 2.920950747912038903e+00
2.500000000000000139e-02 2.662530000000000192e-03 3.478734504079700862e+00
2.187499999999999861e-02 1.522820000000000033e-03 1.488075064361408240e+00
0.000000000000000000e+00 7.861599999999999838e-03 2.703254992666358270e+00
6.250000000000000347e-03 4.952899999999999664e-03 2.703492319822681234e-01
0.000000000000000000e+00 3.328380000000000141e-03 2.488521941326646836e+00
3.125000000000000173e-03 2.977449999999999975e-03 2.404367832814378492e+00
0.000000000000000000e+00 1.067580000000000048e-03 4.120366754047352309e+00
0.000000000000000000e+00 7.287160000000000208e-04 4.840436865913743780e+00
0.000000000000000000e+00 1.041260000000000015e-03 2.356397982437208327e+00
1.874999999999999931e-02 2.093059999999999886e-03 2.819225382530473389e+00
3.437500000000000278e-02 9.212670000000000581e-02 4.507285564321603211e+00
0.000000000000000000e+00 1.649220000000000070e-03 4.008331007048628436e+00
3.125000000000000173e-03 3.903100000000000059e-03 2.694954702100897936e+00
0.000000000000000000e+00 4.915839999999999880e-04 3.604801011638635089e+00
8.125000000000000278e-02 9.252539999999999376e-02 1.221648811802023449e+00
0.000000000000000000e+00 2.945660000000000119e-03 9.529439407540141183e-02
3.125000000000000173e-03 9.177720000000000322e-02 2.323766547780535596e+00
0.000000000000000000e+00 3.338879999999999799e-03 4.674043511275509211e+00
0.000000000000000000e+00 1.913029999999999939e-02 1.217410630083073375e+00
6.250000000000000347e-03 1.185319999999999950e-02 2.199268462862835616e-02
1.250000000000000069e-02 2.413250000000000031e-03 2.190162594825715736e+00
6.250000000000000347e-03 5.263170000000000175e-03 2.899795071252051493e+00
3.125000000000000173e-03 1.022099999999999918e-02 3.741151862837630127e+00
3.125000000000000173e-03 1.895940000000000038e-03 3.282851457828975583e+00
6.250000000000000347e-03 1.148029999999999971e-03 1.214166259234396694e+00
0.000000000000000000e+00 1.104960000000000100e-03 3.435622042336025750e+00
1.562500000000000000e-02 1.582850000000000012e-03 3.667934738983217535e+00
1.250000000000000069e-02 1.463300000000000061e-03 3.537212429449401618e+00
2.187499999999999861e-02 2.331329999999999947e-03 1.159405056143991253e+00
0.000000000000000000e+00 9.696639999999999643e-04 1.058956214985983912e+00
0.000000000000000000e+00 4.370109999999999967e-03 4.938887026610971898e-01
0.000000000000000000e+00 2.817919999999999800e-03 1.695482077319141911e+00
2.187499999999999861e-02 2.047359999999999805e-03 3.769722143469838027e+00
0.000000000000000000e+00 9.075199999999999847e-04 2.909838268826467456e+00
0.000000000000000000e+00 1.043459999999999960e-03 1.224248383023979869e+00
0.000000000000000000e+00 1.380219999999999928e-03 3.324476511450012328e+00
0.000000000000000000e+00 9.809919999999999751e-04 1.720130140867698998e+00
0.000000000000000000e+00 1.196739999999999957e-03 2.071519358878827433e+00
0.000000000000000000e+00 8.552959999999999643e-04 3.402025138403017568e+00
3.125000000000000173e-03 2.690049999999999820e-03 2.267460900808384139e+00
0.000000000000000000e+00 9.655039999999999499e-04 2.218523405447832442e+00
0.000000000000000000e+00 3.560869999999999942e-04 5.058247723841186039e-01
2.812500000000000069e-02 2.075009999999999962e-03 4.341663140731429671e+00
9.374999999999999653e-03 1.074880000000000002e-01 3.086292143544632438e+00
2.812500000000000069e-02 4.206020000000000418e-03 4.366203519348828443e+00
0.000000000000000000e+00 4.286760000000000136e-04 4.790596655976763429e+00
2.500000000000000139e-02 1.065770000000000051e-01 4.578890800267028993e+00
0.000000000000000000e+00 1.052669999999999908e-03 2.427287885145385626e+00
0.000000000000000000e+00 7.464089999999999614e-03 4.405915393118520207e-01
1.874999999999999931e-02 1.952830000000000017e-03 4.178479418007588819e+00
0.000000000000000000e+00 8.841600000000000457e-04 3.652447947669968276e+00
1.250000000000000069e-02 6.712320000000000135e-04 2.561402782463252592e+00
0.000000000000000000e+00 3.594879999999999842e-04 5.687879654024369236e-01
0.000000000000000000e+00 2.309000000000000085e-05 7.113853642485568063e-02
0.000000000000000000e+00 3.584260000000000137e-03 1.075500205368059570e+00
0.000000000000000000e+00 2.677760000000000058e-04 1.510265026715013059e+00
0.000000000000000000e+00 2.460930000000000062e-03 4.231559914745537831e+00
0.000000000000000000e+00 1.107649999999999954e-03 8.480968846217351587e-02
0.000000000000000000e+00 1.647579999999999878e-02 4.144162171406315487e+00
2.187499999999999861e-02 3.110079999999999876e-03 1.644796480274171024e+00
9.374999999999999653e-03 1.984520000000000034e-02 6.597682243273639280e-01
1.562500000000000000e-02 9.368260000000000476e-02 4.424379559659402439e+00
2.812500000000000069e-02 5.967619999999999869e-03 3.600359476402992698e+00
3.125000000000000173e-03 3.889689999999999901e-03 2.571904905041102918e+00
3.125000000000000173e-03 2.304459999999999929e-03 3.107402667443312616e+00
3.125000000000000173e-03 1.479310000000000000e-02 1.068184628577868445e+00
0.000000000000000000e+00 3.702399999999999788e-04 1.204130648943084303e+00
6.250000000000000347e-03 1.479119999999999914e-02 2.510232725314259561e+00
0.000000000000000000e+00 7.371809999999999474e-04 3.534442163148333371e+00
0.000000000000000000e+00 8.151039999999999805e-04 1.271064977625641745e+00
2.187499999999999861e-02 9.244629999999999515e-02 2.133288298788788007e-01
1.250000000000000069e-02 9.609890000000000099e-02 1.845327244529816335e+00
6.250000000000000347e-03 4.858499999999999971e-03 1.722209352330487775e+00
9.374999999999999653e-03 1.063790000000000048e-02 1.749951760255258337e+00
0.000000000000000000e+00 1.501549999999999933e-02 4.365367151900053422e+00
0.000000000000000000e+00 1.714140000000000160e-05 4.172153514464546298e+00
0.000000000000000000e+00 2.356210000000000075e-03 4.572455108675615776e+00
0.000000000000000000e+00 8.965120000000000250e-04 3.104698846246922272e+00
1.874999999999999931e-02 2.353790000000000136e-03 1.743318148236283616e-01
3.437500000000000278e-02 9.176380000000000647e-02 2.320096369531976510e+00
1.874999999999999931e-02 2.472320000000000073e-03 3.576562553208427087e+00
1.250000000000000069e-02 1.600899999999999936e-03 1.934482989257390706e+00
1.562500000000000000e-02 9.578920000000000490e-02 2.806810510613431564e+00
1.250000000000000069e-02 9.762709999999999444e-02 2.657415792353313932e+00
0.000000000000000000e+00 4.163830000000000309e-03 3.443491124962950067e+00
0.000000000000000000e+00 7.330130000000000239e-04 3.947073216689600095e+00
0.000000000000000000e+00 1.607679999999999895e-04 3.583457612266633507e+00
0.000000000000000000e+00 3.742080000000000059e-04 3.856589956004520481e+00
0.000000000000000000e+00 1.157760000000000082e-03 1.090007189655031183e+00
0.000000000000000000e+00 2.566220000000000133e-03 1.352410447594091236e+00
1.874999999999999931e-02 2.075780000000000160e-03 3.761992061444483504e+00
0.000000000000000000e+00 1.172929999999999980e-02 4.423407206045878226e+00
0.000000000000000000e+00 2.104960000000000121e-04 2.878612565865894091e+00
3.125000000000000173e-03 9.785370000000000179e-02 2.391612615882991122e+00
2.812500000000000069e-02 1.521470000000000027e-03 2.252319143562603987e+00
0.000000000000000000e+00 1.628160000000000078e-04 7.428051407073144041e-02
0.000000000000000000e+00 1.114430000000000021e-03 7.473945003412568733e-01
0.000000000000000000e+00 9.539200000000000283e-04 1.240303723814519365e+00
0.000000000000000000e+00 1.348929999999999921e-03 1.434783697783262202e+00
0.000000000000000000e+00 7.198670000000000112e-04 1.527232806222678096e+00
0.000000000000000000e+00 1.275459999999999962e-03 3.159143759261196394e+00
0.000000000000000000e+00 4.023680000000000073e-04 1.427422323550638916e+00
3.125000000000000173e-03 3.572990000000000194e-02 3.239193806055586933e+00
0.000000000000000000e+00 3.435329999999999894e-03 1.580104719485024400e+00
3.125000000000000173e-03 9.357439999999999855e-03 2.462100820744367313e-01
0.000000000000000000e+00 1.497760000000000064e-02 4.089179566939428412e+00
9.374999999999999653e-03 1.678660000000000005e-03 2.261794550107853574e+00
3.125000000000000173e-03 1.711419999999999955e-03 3.681642079169160198e+00
3.125000000000000173e-03 4.722050000000000206e-03 1.173208911574315394e+00
0.000000000000000000e+00 9.593750000000000498e-04 2.012288243098626417e+00
3.125000000000000173e-03 8.133759999999999862e-04 1.639460459954725113e+00
0.000000000000000000e+00 5.050239999999999677e-04 2.496539701535703593e+00
1.250000000000000069e-02 4.869059999999999708e-03 3.177846520101285099e-01
0.000000000000000000e+00 3.581060000000000059e-03 2.747739518260460478e+00
0.000000000000000000e+00 1.183100000000000080e-03 2.454493811234536693e+00
0.000000000000000000e+00 1.178819999999999911e-03 1.807104170675918997e+00
3.125000000000000173e-03 2.043969999999999988e-03 1.458915013254336035e+00
0.000000000000000000e+00 1.264159999999999937e-02 1.388133379575546389e+00
0.000000000000000000e+00 1.234239999999999947e-03 4.212349555274659707e+00
4.687500000000000000e-02 9.044950000000000212e-02 1.030652118116768712e+00
3.125000000000000173e-03 4.314880000000000104e-03 1.252575596310399053e+00
0.000000000000000000e+00 1.197450000000000077e-02 2.579858962975856596e+00
6.250000000000000347e-03 1.599549999999999930e-03 9.096964544363794758e-01
0.000000000000000000e+00 9.704960000000000539e-04 2.512684182480553474e+00
6.250000000000000347e-03 4.835650000000000365e-03 4.347764419991638540e+00
0.000000000000000000e+00 4.471039999999999802e-04 3.922719046427574519e+00
0.000000000000000000e+00 6.966469999999999607e-02 3.308770887253377868e+00
1.562500000000000000e-02 5.701630000000000066e-03 1.459506150375203815e+00
2.187499999999999861e-02 2.246979999999999984e-03 2.476477220038170834e+00
3.125000000000000173e-03 6.256000000000000276e-04 3.633010803997532179e+00
0.000000000000000000e+00 3.836159999999999809e-04 1.863240080585966130e+00
0.000000000000000000e+00 3.873919999999999881e-03 2.529249816413561724e+00
0.000000000000000000e+00 7.502110000000000202e-03 4.680377289676417085e+00
3.125000000000000173e-03 1.959869999999999841e-03 1.459415394975759339e+00
0.000000000000000000e+00 3.393980000000000000e-03 3.998775492602070880e+00
0.000000000000000000e+00 5.670570000000000428e-04 1.433914529989488429e-01
0.000000000000000000e+00 4.015509999999999913e-04 4.993614461978361341e+00
0.000000000000000000e+00 5.348030000000000145e-03 2.232374067614828927e+00
0.000000000000000000e+00 7.789259999999999890e-04 3.313820787565926018e+00
0.000000000000000000e+00 2.984960000000000044e-03 1.003047301028092253e+00
2.812500000000000069e-02 2.245500000000000100e-03 3.585419676506435671e+00
0.000000000000000000e+00 1.305219999999999948e-03 4.628347497531563270e+00
0.000000000000000000e+00 1.028159999999999968e-03 4.793025069351763534e+00
0.000000000000000000e+00 4.266879999999999913e-04 3.342217223942920867e+00
2.500000000000000139e-02 2.840829999999999918e-03 5.918706005661578118e-02
0.000000000000000000e+00 1.178999999999999927e-03 3.277067801191909879e+00
0.000000000000000000e+00 5.445179999999999985e-03 1.125260151043310231e+00
0.000000000000000000e+00 1.122689999999999973e-03 4.931151316609298618e+00
2.812500000000000069e-02 2.770750000000000209e-03 4.929852756629399479e+00
1.562500000000000000e-02 2.642620000000000038e-03 6.120537774667239583e-01
0.000000000000000000e+00 7.373730000000000432e-04 3.250532993384363856e+00
1.874999999999999931e-02 2.179519999999999895e-03 2.270005494041667404e+00
2.187499999999999861e-02 1.455810000000000090e-03 4.681686670819640739e+00
0.000000000000000000e+00 1.193950000000000046e-02 2.951039060523452662e+00
0.000000000000000000e+00 5.621120000000000283e-04 7.313785579324677544e-01
6.250000000000000347e-03 9.722390000000000199e-02 1.661008897056126532e+00
0.000000000000000000e+00 1.205249999999999941e-03 5.905549510181851147e-02
1.250000000000000069e-02 1.733439999999999937e-03 3.549798980514045965e+00
0.000000000000000000e+00 1.116989999999999997e-03 2.504796545379497807e+00
0.000000000000000000e+00 8.561969999999999477e-04 3.561892585573814607e+00
3.125000000000000000e-02 2.650500000000000078e-03 1.444695035228542146e+00
3.749999999999999861e-02 9.926379999999999926e-02 1.679893166804145022e+00
9.374999999999999653e-03 1.765950000000000072e-03 3.608447014741278824e+00
3.125000000000000000e-02 2.329019999999999788e-03 4.895784177848576668e+00
2.187499999999999861e-02 3.706370000000000064e-03 2.589097415210293018e+00
1.250000000000000069e-02 2.008639999999999905e-03 2.033157567149123324e+00
2.812500000000000069e-02 3.632509999999999819e-03 4.690393051577218309e+00
9.687500000000000278e-02 9.237140000000000628e-02 4.961087031949496406e+00
2.187499999999999861e-02 9.381570000000000534e-03 3.121303951397751852e+00
0.000000000000000000e+00 3.957060000000000091e-03 2.142300506024560569e+00
3.125000000000000173e-03 6.293759999999999589e-04 2.471458882146022606e+00
0.000000000000000000e+00 1.087869999999999896e-03 2.544902470615209022e+00
6.250000000000000347e-03 1.678400000000000031e-03 3.151978183845111081e-01
0.000000000000000000e+00 2.184470000000000162e-02 3.274993796128386592e+00
0.000000000000000000e+00 7.325640000000000016e-04 1.213391180100948930e+00
0.000000000000000000e+00 9.344639999999999761e-04 2.484683973643786903e+00
0.000000000000000000e+00 2.218239999999999795e-03 1.827056161271733536e+00
9.374999999999999653e-03 7.446399999999999721e-04 4.745612183678240115e+00
0.000000000000000000e+00 2.807040000000000013e-04 8.799226988321862120e-02
0.000000000000000000e+00 4.529980000000000291e-03 2.669409747190376159e+00
0.000000000000000000e+00 2.770839999999999783e-04 1.082867443394788687e+00
0.000000000000000000e+00 6.027710000000000359e-03 4.092791216998966419e+00
1.250000000000000069e-02 7.986880000000000021e-03 4.380726619885498607e+00
9.374999999999999653e-03 1.396480000000000074e-03 2.698018027244927453e+00
0.000000000000000000e+00 2.143299999999999893e-03 4.565182698036541531e+00
0.000000000000000000e+00 3.098780000000000198e-03 3.163373663088062671e+00
3.125000000000000173e-03 2.791249999999999981e-02 3.629881547460605873e+00
0.000000000000000000e+00 2.564719999999999847e-02 3.658292085710024288e-01
3.125000000000000173e-03 1.463560000000000035e-02 4.913408742355525938e+00
0.000000000000000000e+00 9.576429999999999925e-04 4.860478941751188664e+00
0.000000000000000000e+00 7.498239999999999550e-04 3.132303705075441425e+00
0.000000000000000000e+00 4.060390000000000201e-04 2.775322627200322412e+00
2.812500000000000069e-02 3.237820000000000194e-03 4.938712319704764653e+00
6.250000000000000347e-03 3.276799999999999852e-03 2.863631868252002999e+00
0.000000000000000000e+00 4.078080000000000095e-04 2.699178655687361150e+00
0.000000000000000000e+00 9.160320000000000008e-04 3.098157835359995893e+00
0.000000000000000000e+00 5.283340000000000258e-02 2.647331868377666986e-01
6.250000000000000347e-03 1.019079999999999986e-02 5.094011934769149264e-01
1.562500000000000000e-02 8.124479999999999896e-03 5.556568480292894963e-01
9.374999999999999653e-03 9.947889999999999511e-02 3.807971299219626182e+00
1.250000000000000069e-02 7.883519999999999764e-04 4.579149857761304787e+00
2.812500000000000069e-02 2.904640000000000000e-03 8.141219355712719929e-01
1.562500000000000000e-02 1.713340000000000045e-03 7.079497142871155058e-01
0.000000000000000000e+00 3.607680000000000262e-04 8.922630879227461120e-01
0.000000000000000000e+00 2.293659999999999991e-05 4.098427427517561838e+00
6.250000000000000347e-03 6.577920000000000338e-04 5.262859194461017021e-01
0.000000000000000000e+00 9.720319999999999525e-04 4.482482595262061942e+00
3.125000000000000173e-03 1.933429999999999871e-02 4.928475524537569541e+00
6.250000000000000347e-03 2.028349999999999945e-03 3.321175183667221198e+00
1.562500000000000000e-02 3.016080000000000150e-02 6.218372913118530576e-01
3.125000000000000173e-03 4.975779999999999960e-03 4.006737733205564034e+00
0.000000000000000000e+00 5.878399999999999554e-04 2.226284691672360427e+00
0.000000000000000000e+00 1.328830000000000029e-03 7.850564519175340372e-01
1.874999999999999931e-02 2.056259999999999859e-03 7.448881802591111878e-01
1.250000000000000069e-02 2.052350000000000094e-03 8.649189938235180009e-01
0.000000000000000000e+00 3.851519999999999879e-04 1.001145345011386745e+00
0.000000000000000000e+00 2.252389999999999961e-05 7.394640227291149337e-01
2.500000000000000139e-02 2.965440000000000176e-03 8.604755754535708956e-01
9.374999999999999653e-03 4.528639999999999576e-03 3.275703375610097723e+00
1.250000000000000069e-02 1.695550000000000095e-03 3.013892178674225875e+00
3.125000000000000173e-03 4.822400000000000124e-03 1.104801048869903379e+00
0.000000000000000000e+00 9.145759999999999307e-03 2.525669792238706801e+00
0.000000000000000000e+00 6.825600000000000243e-04 1.389237327399432509e+00
0.000000000000000000e+00 4.082560000000000160e-04 4.681233678813311982e+00
2.812500000000000069e-02 3.792699999999999978e-03 1.343127068445142847e+00
0.000000000000000000e+00 1.516800000000000114e-04 4.445855002998460925e+00
6.250000000000000347e-03 3.458500000000000203e-03 1.882521343910446454e+00
0.000000000000000000e+00 3.305599999999999793e-04 3.120851287403860308e+00
1.562500000000000000e-02 2.284539999999999835e-03 2.518166356997664668e+00
2.500000000000000139e-02 1.167580000000000007e-02 1.171792481948201736e+00
2.812500000000000069e-02 3.490940000000000102e-03 3.601894085023922720e+00
0.000000000000000000e+00 3.957249999999999830e-03 2.608853804866074988e+00
1.250000000000000069e-02 1.052629999999999955e-01 3.026327198141826047e-01
1.250000000000000069e-02 5.523140000000000167e-03 2.094534341608706107e+00
0.000000000000000000e+00 1.116800000000000014e-04 1.457528223571047388e+00
1.562500000000000000e-02 3.642820000000000173e-03 3.214817113793688730e+00
6.250000000000000347e-03 1.767729999999999996e-02 6.966537200475964031e-01
3.749999999999999861e-02 9.186020000000000296e-02 7.395057579912878154e-01
6.250000000000000347e-03 1.332669999999999992e-03 1.545387218395750661e+00
0.000000000000000000e+00 9.578879999999999470e-04 4.161994111485302739e+00
0.000000000000000000e+00 1.626879999999999982e-04 1.573340937338523648e+00
1.250000000000000069e-02 1.324469999999999988e-02 4.951490379672179865e-01
1.874999999999999931e-02 3.480449999999999950e-03 8.438219101709859560e-01
3.125000000000000173e-03 2.723839999999999942e-03 3.898297129338784472e+00
2.500000000000000139e-02 2.121919999999999796e-03 2.306782663235207753e+00
0.000000000000000000e+00 3.187900000000000022e-03 3.119046900568497094e+00
2.500000000000000139e-02 2.998139999999999833e-03 1.098333612655975067e+00
0.000000000000000000e+00 1.635200000000000065e-03 1.880735886892178632e+00
1.562500000000000000e-02 9.159000000000000474e-02 3.607674578045347413e+00
0.000000000000000000e+00 4.070400000000000060e-04 2.545011685903866283e+00
6.250000000000000347e-03 1.807299999999999966e-03 3.989894146666305819e+00
0.000000000000000000e+00 3.736559999999999881e-04 1.839466309055254323e+00
0.000000000000000000e+00 2.731090000000000037e-04 2.630224859429437068e+00
0.000000000000000000e+00 1.509630000000000086e-03 3.469197291395836658e+00
3.125000000000000173e-03 1.184380000000000068e-03 1.694111031751074359e+00
9.374999999999999653e-03 1.706620000000000055e-03 6.565833148219235582e-01
0.000000000000000000e+00 7.498879999999999869e-04 3.410562301957798415e+00
0.000000000000000000e+00 9.588869999999999338e-03 2.577846301356265357e+00
0.000000000000000000e+00 9.386880000000000224e-04 2.840872591254431256e+00
3.125000000000000173e-03 1.666369999999999917e-03 4.666283166210915212e+00
1.874999999999999931e-02 8.194369999999999432e-03 4.007399446275861088e-01
9.374999999999999653e-03 2.335869999999999874e-03 4.745573113830670042e-01
0.000000000000000000e+00 8.177860000000000337e-04 4.830802296201987645e+00
0.000000000000000000e+00 1.804100000000000105e-03 7.301168888844838945e-01
3.125000000000000173e-03 1.685819999999999983e-03 4.005732011563472916e+00
0.000000000000000000e+00 5.619009999999999803e-03 1.815126963331766818e+00
6.250000000000000347e-03 1.811069999999999911e-03 2.274756117349957307e+00
0.000000000000000000e+00 7.287160000000000208e-04 2.480658626169544689e+00
0.000000000000000000e+00 9.068569999999999539e-04 3.656169213855100075e+00
2.812500000000000069e-02 3.659139999999999962e-03 2.137770073990983732e+00
0.000000000000000000e+00 3.004220000000000154e-03 4.191185029485658298e+00
0.000000000000000000e+00 3.083520000000000184e-03 3.254035111799807867e-01
0.000000000000000000e+00 1.789819999999999909e-03 4.097063031950819223e+00
3.125000000000000173e-03 1.206400000000000050e-03 2.484375559471687200e+00
0.000000000000000000e+00 1.122820000000000068e-03 4.385137737864973850e+00
0.000000000000000000e+00 3.305650000000000038e-04 1.053444859409033540e+00
0.000000000000000000e+00 4.433089999999999774e-03 1.664484262588783459e-01
0.000000000000000000e+00 1.352059999999999981e-03 3.677831634053634335e+00
0.000000000000000000e+00 3.756799999999999810e-04 6.656189527922756755e-01
0.000000000000000000e+00 3.451389999999999927e-03 2.546195360442952804e+00
2.812500000000000069e-02 2.597379999999999828e-03 4.130689935176536487e+00
1.250000000000000069e-02 2.763900000000000124e-03 3.439275339912781781e+00
1.562500000000000000e-02 1.099579999999999958e-03 4.341614342034866958e+00
0.000000000000000000e+00 4.187780000000000322e-03 2.836204072583551117e+00
1.874999999999999931e-02 2.326780000000000081e-03 2.839896862491038121e+00
3.125000000000000173e-03 2.359299999999999939e-03 3.770128642481246350e-01
6.250000000000000347e-03 1.332949999999999934e-02 1.311473478380726476e+00
2.500000000000000139e-02 4.754039999999999655e-02 4.325754406895889304e+00
1.250000000000000069e-02 2.561230000000000104e-02 1.238319633120557484e+00
0.000000000000000000e+00 2.137539999999999839e-03 2.812642100593188310e+00
2.187499999999999861e-02 9.175750000000000572e-02 1.181904820302454695e+00
0.000000000000000000e+00 3.401130000000000125e-02 8.166026954966082441e-01
6.250000000000000347e-03 1.819649999999999913e-03 3.906734572233876879e+00
0.000000000000000000e+00 4.609089999999999715e-03 7.780405771002085746e-02
1.562500000000000000e-02 2.161539999999999989e-03 2.521219183974334310e+00
0.000000000000000000e+00 1.937969999999999970e-02 4.596464514328713946e+00
2.500000000000000139e-02 9.506499999999999673e-02 2.373174792621538742e+00
3.125000000000000000e-02 2.419520000000000091e-03 1.115847629017164166e+00
0.000000000000000000e+00 1.192170000000000035e-02 4.967406938267799887e+00
3.125000000000000173e-03 2.640319999999999820e-03 2.320601914708115387e+00
0.000000000000000000e+00 1.084480000000000079e-03 3.225567454078809293e-01
0.000000000000000000e+00 3.635709999999999897e-03 8.140773639432097308e-01
6.250000000000000347e-03 1.194510000000000016e-02 4.788975756578700782e+00
3.125000000000000173e-03 3.768749999999999878e-02 1.863287266667614350e+00
0.000000000000000000e+00 1.392580000000000033e-03 3.294110461958847491e+00
6.250000000000000347e-03 3.276799999999999852e-03 3.155704048984765642e+00
0.000000000000000000e+00 2.195260000000000093e-03 1.822450137308595952e+00
1.250000000000000069e-02 1.252159999999999992e-03 4.174988635423697581e+00
0.000000000000000000e+00 1.191260000000000062e-02 4.218839891873654713e-01
2.812500000000000069e-02 1.963900000000000194e-03 9.351406241036336331e-01
2.187499999999999861e-02 3.217659999999999791e-03 3.105061505204333550e+00
1.562500000000000000e-02 1.263809999999999977e-03 2.453611214737109414e+00
0.000000000000000000e+00 2.293599999999999860e-05 4.602859484278943647e+00
0.000000000000000000e+00 1.322620000000000046e-03 2.718418984009527417e+00
9.374999999999999653e-03 1.941489999999999883e-02 2.242207927586213678e+00
0.000000000000000000e+00 6.729919999999999696e-04 1.821325531143252352e+00
2.812500000000000069e-02 3.082559999999999814e-03 4.072224353256298501e-01
3.125000000000000173e-03 1.435840000000000076e-03 3.610562338426583473e+00
2.187499999999999861e-02 7.830719999999999348e-03 2.390086580595724541e+00
0.000000000000000000e+00 9.891929999999999733e-04 1.033926960823609686e+00
2.500000000000000139e-02 2.133949999999999909e-03 4.800392769147726391e+00
0.000000000000000000e+00 4.252770000000000009e-04 3.434131043261563931e+00
3.437500000000000278e-02 9.035659999999999178e-03 1.588304214953127902e+00
9.374999999999999653e-03 2.007099999999999856e-02 4.249847098181616545e+00
0.000000000000000000e+00 3.172480000000000092e-04 4.751645482471952953e+00
0.000000000000000000e+00 5.544130000000000412e-03 9.644080149264366852e-01
0.000000000000000000e+00 3.395839999999999796e-03 4.638877667745912703e+00
1.874999999999999931e-02 1.059309999999999974e-01 2.530443867899534016e+00
0.000000000000000000e+00 3.413310000000000129e-03 4.096867416858914090e+00
9.374999999999999653e-03 9.272469999999999324e-02 3.171431265618283479e+00
1.874999999999999931e-02 2.716350000000000188e-03 4.391294398085935136e+00
6.250000000000000347e-03 5.585220000000000115e-03 2.181883156743078089e+00
0.000000000000000000e+00 5.380730000000000235e-04 4.492824400588429912e-01
1.250000000000000069e-02 5.901250000000000245e-03 2.840275430065579254e+00
0.000000000000000000e+00 3.131650000000000145e-03 1.694567568307400851e+00
0.000000000000000000e+00 2.528190000000000038e-03 1.202429533688587515e+00
1.031249999999999944e-01 8.060530000000000472e-02 3.719519836420804193e+00
3.125000000000000173e-03 4.640130000000000123e-03 1.523586841962892180e+00
0.000000000000000000e+00 2.200580000000000157e-03 3.235732808179109021e+00
6.250000000000000000e-02 4.847019999999999801e-02 4.790942102988891449e+00
0.000000000000000000e+00 7.324999999999999697e-04 2.656232128511208934e+00
0.000000000000000000e+00 9.407359999999999594e-04 4.002656390748125403e+00
1.562500000000000000e-02 2.099070000000000189e-03 3.101952996009078589e+00
2.187499999999999861e-02 6.256770000000000040e-03 6.528408720078121563e-01
2.187499999999999861e-02 2.116010000000000113e-01 2.402060320929422677e+00
6.250000000000000347e-03 1.989410000000000137e-02 2.769245289399341337e-01
9.374999999999999653e-03 2.265730000000000088e-03 3.830588407762880010e+00
2.187499999999999861e-02 2.071100000000000198e-03 1.768530671732401860e+00
0.000000000000000000e+00 4.014080000000000165e-04 4.025583774306510598e+00
2.500000000000000139e-02 5.974590000000000109e-03 2.061644142708553673e+00
2.812500000000000069e-02 3.213890000000000063e-03 2.166411253857218000e+00
6.250000000000000347e-03 5.419969999999999649e-03 1.255132280118520516e+00
3.125000000000000173e-03 5.674180000000000022e-03 4.758507010268001380e+00
0.000000000000000000e+00 2.644989999999999841e-03 1.465743154823095917e-01
0.000000000000000000e+00 1.215809999999999894e-03 4.875894780155026531e+00
1.562500000000000000e-02 2.373500000000000176e-03 2.242215798297835239e+00
0.000000000000000000e+00 4.289960000000000106e-04 3.912837160657984370e+00
0.000000000000000000e+00 4.995200000000000421e-04 1.935403055706045983e+00
0.000000000000000000e+00 1.913540000000000033e-03 4.262386798911300900e+00
2.187499999999999861e-02 4.227200000000000402e-03 1.377361244604042412e+00
0.000000000000000000e+00 3.766460000000000120e-03 2.629300039727484606e+00
0.000000000000000000e+00 2.180539999999999909e-03 2.296227101888640654e+00
0.000000000000000000e+00 1.023809999999999998e-03 3.357723338181214601e+00
3.125000000000000173e-03 4.474879999999999657e-03 1.049379271923930323e+00
0.000000000000000000e+00 7.740800000000000155e-04 3.941869501267744713e+00
6.250000000000000347e-03 9.873659999999999382e-03 2.015002079841306859e+00
1.874999999999999931e-02 2.351300000000000178e-03 4.644049958742140660e+00
0.000000000000000000e+00 1.202619999999999948e-03 4.920967116558999876e+00
0.000000000000000000e+00 5.748539999999999900e-03 2.379362170554321754e+00
0.000000000000000000e+00 9.830399999999999121e-04 6.601213151854384842e-01
0.000000000000000000e+00 3.994350000000000136e-04 3.682996310395234563e+00
3.125000000000000173e-03 1.638399999999999926e-03 1.779932521657286992e+00
2.187499999999999861e-02 2.123069999999999905e-03 1.961616026573763660e+00
0.000000000000000000e+00 1.915070000000000053e-03 2.834589739089008908e+00
0.000000000000000000e+00 2.884540000000000107e-03 4.961133839369696652e+00
1.250000000000000069e-02 1.419200000000000019e-03 3.319965788031718379e+00
3.125000000000000173e-03 1.011599999999999999e-01 8.381501618890230265e-02
1.093750000000000000e-01 8.142580000000000651e-02 2.583398340725810538e+00
3.125000000000000173e-03 6.257279999999999830e-04 4.251482217326580049e+00
0.000000000000000000e+00 3.897600000000000088e-04 8.259221767373292611e-01
0.000000000000000000e+00 1.558460000000000010e-03 3.254301739664657411e+00
3.125000000000000173e-03 9.730740000000000223e-02 3.343965265209941862e+00
0.000000000000000000e+00 7.073630000000000239e-04 2.255980019417092919e+00
2.187499999999999861e-02 9.513879999999999559e-02 4.900023802983644927e+00
0.000000000000000000e+00 2.289540000000000105e-05 3.504044456196864665e+00
1.250000000000000069e-02 1.503489999999999905e-03 4.883434715227302547e+00
1.562500000000000000e-02 2.337220000000000096e-03 7.499152105997380913e-01
0.000000000000000000e+00 9.940479999999999802e-04 2.982521107403109717e+00
0.000000000000000000e+00 2.111420000000000137e-03 4.378687902198547199e+00
1.874999999999999931e-02 2.521919999999999978e-03 1.458048614041396185e+00
0.000000000000000000e+00 2.200349999999999875e-02 1.646090651928766579e-01
0.000000000000000000e+00 1.184900000000000016e-03 2.076305950550079160e+00
0.000000000000000000e+00 8.652160000000000319e-04 3.651809473765364356e+00
2.500000000000000139e-02 9.298510000000000109e-02 3.796230588056721977e+00
2.187499999999999861e-02 9.677819999999999478e-02 3.878251050829391922e+00
1.874999999999999931e-02 2.122529999999999972e-01 9.808455125527920648e-01
6.250000000000000347e-03 9.794500000000000428e-02 3.507104611884117151e+00
0.000000000000000000e+00 3.403519999999999831e-04 2.477620412400305394e-01
1.874999999999999931e-02 2.164929999999999806e-03 4.798465442744727305e+00
3.125000000000000173e-03 9.562239999999999846e-04 4.841727737231066087e+00
0.000000000000000000e+00 5.715199999999999491e-04 4.258057448342814411e+00
