1.250000000000000069e-02 1.053100000000000008e-01 2.473427572666392349e-01
0.000000000000000000e+00 1.140860000000000051e-03 4.015792560274004330e+00
0.000000000000000000e+00 1.633279999999999921e-04 4.802078416807298744e+00
0.000000000000000000e+00 4.851010000000000218e-03 9.064619327544315430e-01
2.812500000000000069e-02 6.276260000000000172e-02 2.359833387592180642e+00
0.000000000000000000e+00 2.247650000000000071e-05 4.576043393025781114e+00
0.000000000000000000e+00 1.258299999999999957e-03 1.162911436047518343e+00
0.000000000000000000e+00 1.022340000000000054e-03 1.502167880178882253e+00
6.250000000000000347e-03 1.767080000000000040e-02 1.010870177508784273e+00
6.250000000000000347e-03 3.547719999999999867e-03 4.467498066316215599e+00
0.000000000000000000e+00 2.771009999999999966e-03 4.335957626996111980e-01
0.000000000000000000e+00 1.555069999999999977e-03 1.327468431495109069e+00
0.000000000000000000e+00 7.789259999999999890e-04 3.168458663967282929e-01
1.562500000000000000e-02 2.557180000000000043e-03 1.630481842695073347e+00
1.874999999999999931e-02 4.442059999999999759e-02 2.161058198480251491e+00
0.000000000000000000e+00 1.142900000000000079e-03 2.160661620797875493e+00
0.000000000000000000e+00 2.574529999999999787e-03 8.271172804230259024e-01
0.000000000000000000e+00 2.220670000000000109e-03 1.737951846340107132e+00
0.000000000000000000e+00 5.253760000000000331e-04 1.612599337311214631e+00
0.000000000000000000e+00 1.820159999999999866e-04 3.183291420044618736e+00
0.000000000000000000e+00 3.611520000000000008e-04 2.708871706833807735e+00
2.500000000000000139e-02 2.556220000000000107e-03 2.279541683401211660e+00
2.500000000000000139e-02 1.749630000000000065e-03 7.866759039009962873e-02
2.187499999999999861e-02 2.297860000000000093e-03 4.411788866809674303e+00
1.562500000000000000e-02 3.240189999999999997e-03 3.772648211941648455e+00
0.000000000000000000e+00 3.749760000000000094e-04 3.557127810242402433e+00
0.000000000000000000e+00 1.021769999999999970e-03 1.275208793823393583e+00
1.874999999999999931e-02 1.464000000000000024e-03 6.140318006546297003e-01
0.000000000000000000e+00 5.652100000000000180e-03 1.398001240762976050e+00
0.000000000000000000e+00 2.182170000000000203e-03 5.966428665884088156e-01
0.000000000000000000e+00 2.266840000000000136e-05 3.188844033018829460e+00
0.000000000000000000e+00 3.911039999999999742e-04 9.780248706954314253e-01
0.000000000000000000e+00 6.293680000000000108e-02 6.712478755527273577e-02
1.250000000000000069e-02 1.873150000000000075e-03 1.671418639969323827e+00
2.812500000000000069e-02 2.249630000000000032e-02 2.075678563939720167e+00
0.000000000000000000e+00 1.641410000000000048e-03 3.317997323174950886e+00
0.000000000000000000e+00 1.214140000000000054e-03 1.240062930565009491e+00
9.374999999999999653e-03 1.006039999999999990e-01 3.789814018359475956e+00
3.125000000000000173e-03 9.576010000000000078e-02 6.911305872723733090e-01
0.000000000000000000e+00 4.538109999999999714e-03 3.709248936141844588e+00
0.000000000000000000e+00 6.963569999999999482e-02 2.754041224402226096e+00
0.000000000000000000e+00 7.441709999999999601e-04 2.217252226556815087e-01
9.374999999999999653e-03 1.272829999999999968e-03 1.272794306651399143e+00
0.000000000000000000e+00 3.921019999999999887e-03 4.999418992361357006e+00
0.000000000000000000e+00 1.626239999999999934e-04 2.998885814182701282e+00
6.250000000000000347e-03 1.907990000000000033e-02 2.999401414137814470e+00
0.000000000000000000e+00 1.317620000000000076e-02 2.460680680190155734e+00
0.000000000000000000e+00 6.174719999999999862e-04 2.672744417609121292e+00
1.562500000000000000e-02 1.514689999999999960e-03 3.236382661134562078e+00
0.000000000000000000e+00 1.494019999999999983e-03 1.866938241841984869e+00
0.000000000000000000e+00 3.472880000000000129e-04 2.067656633308744496e+00
0.000000000000000000e+00 1.147460000000000103e-03 2.446924917887743245e+00
6.250000000000000347e-03 5.713659999999999746e-03 2.119548062816822842e+00
6.250000000000000347e-03 1.072199999999999959e-01 1.293449181745137677e+00
3.125000000000000173e-03 3.188929999999999976e-03 4.750454721790599244e+00
6.250000000000000347e-03 2.707460000000000075e-03 1.682301603795377076e+00
0.000000000000000000e+00 0.000000000000000000e+00 2.005583477830797712e+00
0.000000000000000000e+00 2.223099999999999989e-03 3.698918234257891235e+00
2.500000000000000139e-02 9.637120000000000755e-03 4.003264441172882826e+00
1.562500000000000000e-02 1.818050000000000091e-03 3.248543851135634153e+00
0.000000000000000000e+00 1.822759999999999936e-01 4.799982666747882654e+00
3.125000000000000173e-03 1.107839999999999910e-03 1.431775786990538979e+00
0.000000000000000000e+00 0.000000000000000000e+00 1.383831450055820866e+00
0.000000000000000000e+00 1.786180000000000059e-03 3.082706436112639281e+00
1.874999999999999931e-02 1.699650000000000032e-03 1.056495897591698263e+00
0.000000000000000000e+00 2.906879999999999924e-04 3.922935636493992018e+00
0.000000000000000000e+00 9.929129999999999987e-04 8.922834037944477048e-01
3.125000000000000173e-03 5.344129999999999887e-03 1.554403078345803380e+00
1.562500000000000000e-02 9.287579999999999447e-02 3.702206008615869681e+00
4.374999999999999722e-02 9.307819999999999983e-02 2.699188397596649747e+00
0.000000000000000000e+00 1.092880000000000067e-03 1.807895552487923219e+00
3.125000000000000173e-03 4.303099999999999807e-03 1.082241903009572681e+00
0.000000000000000000e+00 4.439300000000000190e-03 6.144646166038336688e-01
0.000000000000000000e+00 3.342840000000000134e-04 1.765890130024417193e+00
1.874999999999999931e-02 1.760449999999999992e-03 3.626321100621309856e+00
0.000000000000000000e+00 1.002749999999999952e-03 8.422697825539376959e-01
0.000000000000000000e+00 3.145020000000000107e-03 3.066083255876621561e+00
0.000000000000000000e+00 1.683580000000000059e-03 1.448951689825660472e+00
9.374999999999999653e-03 4.438530000000000426e-03 1.990496752423360327e+00
6.250000000000000347e-03 1.739330000000000086e-03 3.196023799912830032e+00
0.000000000000000000e+00 5.238849999999999757e-03 1.215535604069200470e+00
1.562500000000000000e-02 1.542720000000000029e-03 2.966154976366879303e+00
0.000000000000000000e+00 5.289599999999999771e-04 1.346462922341122859e+00
0.000000000000000000e+00 1.662079999999999916e-04 3.568989813531942445e+00
0.000000000000000000e+00 2.278900000000000153e-05 3.706891204194164846e+00
0.000000000000000000e+00 3.530879999999999913e-04 1.844104404927866092e+00
0.000000000000000000e+00 3.928639999999999737e-03 4.002496220492523626e+00
0.000000000000000000e+00 2.657469999999999884e-03 2.851030181039023059e+00
0.000000000000000000e+00 3.394370000000000026e-02 3.558110098430900869e+00
0.000000000000000000e+00 1.729410000000000018e-03 4.437641397686407529e+00
7.812500000000000000e-02 9.201040000000000607e-02 2.581324441973583017e+00
3.125000000000000000e-02 1.073380000000000029e-01 2.203445348952150162e+00
0.000000000000000000e+00 1.128770000000000077e-03 3.052906091508089670e-01
0.000000000000000000e+00 9.715839999999999459e-04 1.846004879483811756e+00
1.874999999999999931e-02 3.669570000000000037e-03 8.472494277318753930e-01
0.000000000000000000e+00 1.231260000000000080e-03 4.422180914990957667e+00
0.000000000000000000e+00 2.500739999999999994e-03 4.245397270715977278e+00
1.874999999999999931e-02 9.184599999999999709e-02 3.678781805418768869e+00
2.500000000000000139e-02 2.583939999999999848e-03 1.841378835707165873e+00
1.250000000000000069e-02 2.423489999999999932e-03 3.784003685419616403e+00
3.125000000000000173e-03 4.404840000000000144e-02 6.313426204397404318e-01
3.125000000000000173e-03 2.307009999999999963e-03 4.270392394476441922e+00
1.562500000000000000e-02 2.232959999999999980e-03 1.520914801656369608e+00
0.000000000000000000e+00 4.960000000000000216e-04 4.476646735632551888e+00
0.000000000000000000e+00 1.080769999999999995e-03 1.316897612899043501e+00
2.187499999999999861e-02 2.577020000000000179e-03 4.763442013535648556e+00
3.125000000000000000e-02 3.529440000000000008e-03 1.846252461909978937e+00
0.000000000000000000e+00 2.947579999999999992e-03 9.199006694074346457e-01
0.000000000000000000e+00 5.031890000000000234e-04 8.309294933874139533e-01
0.000000000000000000e+00 2.190459999999999977e-03 7.649541483354166393e-01
0.000000000000000000e+00 5.891709999999999656e-03 4.907751343866030957e+00
0.000000000000000000e+00 1.939039999999999861e-02 2.971926626030846563e+00
2.187499999999999861e-02 3.248379999999999931e-03 3.483125050210950313e+00
1.250000000000000069e-02 1.048059999999999964e-01 3.127886738041516956e+00
3.125000000000000173e-03 1.638399999999999926e-03 1.985223660016876668e+00
0.000000000000000000e+00 3.006079999999999950e-03 6.767288053630099443e-01
0.000000000000000000e+00 1.401539999999999947e-03 1.188862011466430557e+00
0.000000000000000000e+00 9.463679999999999488e-04 1.543171294934419624e+00
0.000000000000000000e+00 1.121660000000000018e-03 2.618418361849901732e+00
2.812500000000000069e-02 2.486589999999999894e-03 4.704474136330678569e+00
2.812500000000000069e-02 3.018320000000000031e-02 1.834509612261665090e+00
3.437500000000000278e-02 7.308799999999999845e-03 3.373562258179330087e-01
0.000000000000000000e+00 1.801600000000000098e-04 3.282284413782744714e+00
0.000000000000000000e+00 4.147600000000000202e-04 3.498026126994349561e+00
0.000000000000000000e+00 2.727740000000000199e-03 3.770390744086691726e+00
0.000000000000000000e+00 8.906880000000000483e-04 2.109157522570546117e+00
0.000000000000000000e+00 9.597440000000000051e-04 2.725111015976358964e+00
0.000000000000000000e+00 1.404480000000000051e-03 3.127982310103238461e+00
6.250000000000000347e-03 2.176580000000000008e-03 4.799870945858771165e+00
0.000000000000000000e+00 8.966399999999999804e-04 1.347802859886035876e+00
0.000000000000000000e+00 7.369240000000000209e-04 3.506861844772966030e+00
0.000000000000000000e+00 5.564929999999999877e-02 1.366923264390580872e+00
1.562500000000000000e-02 1.302020000000000087e-03 3.897091752740479365e+00
2.187499999999999861e-02 3.982979999999999680e-03 2.548897384374595454e+00
0.000000000000000000e+00 2.279300000000000014e-05 1.616874508154422685e+00
0.000000000000000000e+00 3.646079999999999894e-03 4.458234621399428832e+00
0.000000000000000000e+00 3.892480000000000245e-04 5.915052988766256181e-01
1.562500000000000000e-02 6.319230000000000333e-03 2.503107058401548457e+00
0.000000000000000000e+00 4.165560000000000009e-04 6.560762970827344054e-01
0.000000000000000000e+00 2.988610000000000051e-03 7.940365844660923766e-01
0.000000000000000000e+00 2.937540000000000203e-03 4.428013733667380158e+00
3.125000000000000000e-02 1.310719999999999941e-02 3.115369728689642237e+00
2.500000000000000139e-02 3.576380000000000097e-03 2.715528631535022885e+00
6.250000000000000347e-03 9.417029999999999845e-02 1.445639775057975918e+00
0.000000000000000000e+00 1.786919999999999828e-02 2.869564331565114923e+00
3.125000000000000173e-03 1.420610000000000102e-03 2.080373839998097996e+00
0.000000000000000000e+00 9.002510000000000243e-04 4.922733982023661525e+00
0.000000000000000000e+00 9.601920000000000116e-04 1.526052124791287934e+00
1.874999999999999931e-02 2.119039999999999986e-03 3.871093555043525480e-01
0.000000000000000000e+00 8.747930000000000116e-04 1.547661221338092030e+00
0.000000000000000000e+00 2.048379999999999819e-03 3.588226858727506574e+00
0.000000000000000000e+00 1.838269999999999921e-03 4.444532610835013386e+00
0.000000000000000000e+00 4.435199999999999820e-04 3.426430617336396978e+00
0.000000000000000000e+00 3.445340000000000208e-02 4.993035133590721486e+00
9.374999999999999653e-03 1.602050000000000045e-03 3.501518523886576473e-01
1.250000000000000069e-02 2.344380000000000075e-03 3.143922856734164828e+00
0.000000000000000000e+00 9.319040000000000006e-04 3.220592637947184311e+00
1.874999999999999931e-02 2.263740000000000197e-03 3.841555248026713443e+00
6.250000000000000347e-03 1.773819999999999954e-03 1.870025469613761260e+00
0.000000000000000000e+00 1.117120000000000092e-03 4.548147587343194687e+00
0.000000000000000000e+00 7.444910000000000113e-04 2.979517465822857147e+00
3.125000000000000173e-03 1.864580000000000013e-03 2.078856752788132978e-01
0.000000000000000000e+00 4.320639999999999724e-03 4.685529922406933556e-01
3.125000000000000173e-03 4.010819999999999663e-02 8.427083359481346569e-01
0.000000000000000000e+00 2.891710000000000114e-02 3.847461544916709109e+00
1.562500000000000000e-02 3.083010000000000177e-03 3.533261518304481541e+00
0.000000000000000000e+00 1.195260000000000072e-03 1.015013494169633823e+00
3.749999999999999861e-02 1.072860000000000064e-01 3.670820596762061072e+00
0.000000000000000000e+00 9.364479999999999896e-04 1.647912788382823290e+00
0.000000000000000000e+00 1.042989999999999933e-03 3.778787608538357823e+00
0.000000000000000000e+00 1.355089999999999984e-03 4.072914138810503459e+00
1.250000000000000069e-02 2.377859999999999870e-03 2.197412067573856209e+00
0.000000000000000000e+00 1.507840000000000092e-03 2.335148352518179315e-01
0.000000000000000000e+00 2.274709999999999926e-02 1.440215954903245610e-01
0.000000000000000000e+00 4.822339999999999613e-03 2.972557998596308426e+00
0.000000000000000000e+00 3.245699999999999801e-03 2.825341578164608514e-02
3.749999999999999861e-02 2.505929999999999963e-02 2.147069142782445095e+00
4.374999999999999722e-02 9.696979999999999489e-02 4.777460846109271575e-01
0.000000000000000000e+00 2.777470000000000199e-03 1.753727100213405166e+00
3.125000000000000173e-03 7.624139999999999737e-03 4.766096089880624831e+00
6.250000000000000347e-03 1.057410000000000017e-01 5.678859069741926113e-01
0.000000000000000000e+00 3.582719999999999742e-04 3.273312666828488204e+00
0.000000000000000000e+00 1.209599999999999938e-04 4.000306240517693013e+00
2.187499999999999861e-02 2.989949999999999899e-03 2.192236095752175373e+00
1.562500000000000000e-02 2.249790000000000210e-03 1.591508117148878743e+00
0.000000000000000000e+00 9.991679999999999312e-04 4.789673428779082975e+00
6.250000000000000347e-03 1.663100000000000038e-03 3.015711823900038002e+00
0.000000000000000000e+00 4.327800000000000136e-04 1.069079704138908404e+00
2.187499999999999861e-02 2.339650000000000063e-02 4.268084816347553989e+00
0.000000000000000000e+00 4.131569999999999882e-04 3.348617944088126741e+00
2.812500000000000069e-02 1.442560000000000066e-03 2.464214031236591218e+00
1.250000000000000069e-02 1.779580000000000007e-03 2.351034633770466176e+00
0.000000000000000000e+00 2.455489999999999843e-03 3.329756869648392126e+00
0.000000000000000000e+00 1.444540000000000017e-03 4.957228681649280766e+00
0.000000000000000000e+00 0.000000000000000000e+00 3.650354276789680164e+00
0.000000000000000000e+00 3.538180000000000144e-03 1.256806599411686598e+00
0.000000000000000000e+00 2.742019999999999961e-03 4.893104034744352404e+00
2.187499999999999861e-02 1.054429999999999951e-01 6.166489351347953507e-01
0.000000000000000000e+00 4.050780000000000136e-04 4.151511037144784311e+00
2.812500000000000069e-02 2.504259999999999906e-03 1.187946634426285675e+00
0.000000000000000000e+00 2.307290000000000062e-05 1.243399978244811299e+00
3.125000000000000173e-03 1.839549999999999909e-03 8.012187241752066758e-01
0.000000000000000000e+00 1.763839999999999972e-04 2.486651542569495721e-02
2.187499999999999861e-02 4.916099999999999637e-03 7.995328118388145278e-01
0.000000000000000000e+00 2.277559999999999925e-05 4.836675529374630855e+00
3.125000000000000173e-03 9.207690000000000319e-02 2.561076102770458274e+00
0.000000000000000000e+00 3.603200000000000196e-04 4.146728119960600978e+00
0.000000000000000000e+00 1.727560000000000109e-05 1.387050711933202063e+00
0.000000000000000000e+00 3.840129999999999932e-02 3.442878903151048053e+00
0.000000000000000000e+00 5.800379999999999946e-03 4.432062040893691268e+00
6.250000000000000347e-03 4.078850000000000184e-03 8.950542742137168606e-01
0.000000000000000000e+00 3.255420000000000189e-03 3.590191237993483053e+00
0.000000000000000000e+00 9.640960000000000068e-04 3.434520233422868163e+00
1.250000000000000069e-02 1.255739999999999981e-03 1.749171657423864712e-01
0.000000000000000000e+00 2.750339999999999990e-03 6.819319343654312027e-01
0.000000000000000000e+00 3.094910000000000196e-03 2.888120523991386079e+00
3.125000000000000173e-03 1.451899999999999892e-03 1.595855070394032182e+00
9.374999999999999653e-03 2.227709999999999933e-03 1.229208962055757803e+00
0.000000000000000000e+00 3.014980000000000004e-03 1.709479779899769625e+00
0.000000000000000000e+00 1.144260000000000025e-03 1.768961160282328526e-01
0.000000000000000000e+00 4.887419999999999959e-03 1.541348817230651758e+00
0.000000000000000000e+00 1.411329999999999920e-03 2.420333092538167197e+00
0.000000000000000000e+00 7.251259999999999824e-04 4.904779905462495648e+00
2.500000000000000139e-02 2.756610000000000050e-03 6.301978447598555189e-02
6.562500000000000278e-02 9.130299999999999527e-02 1.122992644084307434e+00
2.500000000000000139e-02 2.641469999999999929e-03 1.431901091240558976e+00
0.000000000000000000e+00 1.328959999999999907e-03 2.576979042205847392e+00
2.812500000000000069e-02 3.456220000000000125e-02 1.380501217133438541e+00
0.000000000000000000e+00 8.992899999999999635e-04 2.649652611768971155e-01
0.000000000000000000e+00 3.779839999999999914e-04 4.837601570812715579e+00
0.000000000000000000e+00 5.142179999999999885e-04 1.848428882728520017e-01
1.562500000000000000e-02 1.175400000000000056e-02 4.589432221233249898e+00
3.125000000000000173e-03 4.304579999999999691e-03 4.806183265755544554e+00
1.250000000000000069e-02 1.066030000000000033e-01 1.278534390730672765e+00
1.562500000000000000e-02 5.792409999999999573e-03 1.793235922144368333e+00
2.500000000000000139e-02 2.217600000000000127e-03 1.915579497466827874e+00
0.000000000000000000e+00 9.258240000000000046e-04 4.955342524443008045e+00
6.250000000000000347e-03 9.719719999999999749e-02 4.617977209048621745e+00
3.125000000000000173e-03 1.023860000000000048e-02 1.015172510430566444e+00
0.000000000000000000e+00 5.592960000000000336e-04 5.691723313321572775e-02
0.000000000000000000e+00 3.025610000000000192e-03 4.814043559124395522e+00
0.000000000000000000e+00 4.459059999999999933e-03 4.306725460439228215e+00
6.250000000000000347e-03 5.533180000000000390e-03 5.486903953562266567e-01
0.000000000000000000e+00 4.827009999999999634e-03 3.235694001308101697e+00
1.874999999999999931e-02 3.519940000000000048e-03 3.283378739123859802e+00
1.874999999999999931e-02 1.860220000000000103e-03 3.025302541731661243e+00
1.874999999999999931e-02 1.521280000000000071e-03 4.368935829957783845e+00
1.562500000000000000e-02 2.039490000000000140e-03 3.021311589676663356e+00
3.125000000000000173e-03 1.638399999999999926e-03 2.137841494136160314e+00
2.812500000000000069e-02 2.725249999999999808e-03 3.713026962290857824e+00
0.000000000000000000e+00 1.562410000000000014e-02 2.651549196762665872e+00
1.562500000000000000e-02 1.703300000000000040e-03 1.832678986185748427e+00
0.000000000000000000e+00 7.995759999999999760e-04 3.645148483318034760e+00
3.125000000000000173e-03 4.520320000000000414e-03 2.154465912922920445e+00
0.000000000000000000e+00 3.801090000000000024e-03 4.059099043416038555e+00
1.250000000000000069e-02 1.681280000000000057e-03 1.117167892598128764e+00
1.562500000000000000e-02 2.205949999999999925e-03 1.379992238158717743e+00
1.874999999999999931e-02 2.824380000000000033e-03 3.680435915766290478e+00
0.000000000000000000e+00 9.735040000000000360e-04 2.572118012438054713e+00
1.874999999999999931e-02 1.886910000000000106e-03 2.534883590404999776e+00
3.125000000000000173e-03 4.317760000000000348e-03 2.839453430170385317e+00
1.250000000000000069e-02 1.600899999999999936e-03 3.662632889214891385e+00
3.125000000000000173e-03 1.246309999999999953e-02 9.553086954184880630e-01
1.250000000000000069e-02 1.430140000000000100e-03 4.133629173024299774e+00
2.187499999999999861e-02 2.933569999999999928e-03 1.820633375093722695e+00
0.000000000000000000e+00 1.019909999999999957e-03 1.094124638419731621e+00
0.000000000000000000e+00 2.274959999999999984e-05 2.730184530412357979e+00
0.000000000000000000e+00 1.087489999999999984e-03 2.812579646547782808e+00
0.000000000000000000e+00 2.625919999999999904e-03 1.404386309855877313e+00
3.125000000000000173e-03 9.997419999999999918e-02 8.808575271090124392e-01
0.000000000000000000e+00 7.305120000000000016e-04 1.944686645239277478e+00
1.874999999999999931e-02 1.694079999999999935e-03 2.643253049258595055e+00
0.000000000000000000e+00 1.988660000000000032e-05 4.252090311917514853e+00
6.250000000000000347e-03 3.511999999999999931e-03 2.643446771380313365e+00
0.000000000000000000e+00 3.104770000000000186e-03 1.529207529306180646e+00
0.000000000000000000e+00 2.829700000000000097e-03 1.925699382079325561e+00
0.000000000000000000e+00 2.172859999999999982e-03 1.754328395869549917e+00
2.500000000000000139e-02 1.202579999999999968e-02 5.547255985349358598e-01
0.000000000000000000e+00 9.880320000000000161e-04 3.646616791088396425e+00
1.562500000000000000e-02 2.718019999999999811e-03 6.238561930648478526e-01
3.125000000000000173e-03 6.367359999999999860e-03 2.623621765968525033e+00
1.250000000000000069e-02 3.277429999999999927e-02 4.316920881170792867e+00
0.000000000000000000e+00 8.661120000000000450e-04 2.771131035948465104e+00
0.000000000000000000e+00 3.789789999999999912e-04 3.863804829044507727e+00
0.000000000000000000e+00 1.068989999999999914e-03 1.483965877188863081e+00
0.000000000000000000e+00 3.795199999999999984e-04 7.414772392475654783e-01
0.000000000000000000e+00 9.281279999999999608e-04 3.301366378930075118e+00
1.562500000000000000e-02 7.253820000000000233e-03 2.440534479706911952e+00
3.125000000000000173e-03 4.489410000000000102e-03 1.295904149072501621e+00
0.000000000000000000e+00 5.399039999999999916e-03 1.621958453157906765e-01
0.000000000000000000e+00 9.739520000000000425e-04 9.551855997765418271e-01
1.250000000000000069e-02 1.077560000000000046e-01 2.946355641523659141e+00
1.562500000000000000e-02 2.221120000000000039e-03 7.271241018006324719e-01
2.812500000000000069e-02 4.775669999999999915e-02 4.004199245150951825e+00
2.812500000000000069e-02 2.373249999999999926e-03 4.509268217842021809e-01
0.000000000000000000e+00 3.791709999999999785e-04 5.872767712534965323e-01
0.000000000000000000e+00 1.172510000000000045e-02 9.194127867542395416e-01
6.250000000000000347e-03 2.479269999999999998e-03 1.212911454469052241e+00
1.874999999999999931e-02 2.283260000000000064e-03 1.990113443880018318e+00
0.000000000000000000e+00 1.819649999999999913e-03 4.791388986843614362e-01
0.000000000000000000e+00 8.794239999999999609e-04 2.458272477926298549e+00
2.187499999999999861e-02 1.885500000000000023e-03 4.036699028720602378e+00
9.374999999999999653e-03 9.762350000000000194e-02 2.940220587241002992e+00
0.000000000000000000e+00 5.749439999999999759e-03 1.816076010966971577e+00
2.812500000000000069e-02 1.021379999999999901e-03 2.405962574722310787e+00
0.000000000000000000e+00 2.605439999999999774e-04 9.524537723507614517e-01
1.250000000000000069e-02 1.871609999999999940e-02 1.824842858618848096e+00
0.000000000000000000e+00 2.294810000000000141e-05 4.165877146767022587e+00
0.000000000000000000e+00 1.748479999999999902e-04 3.368985865268884883e+00
0.000000000000000000e+00 1.331199999999999994e-04 3.251637660920972284e+00
0.000000000000000000e+00 1.103489999999999940e-03 9.052784547542658267e-02
0.000000000000000000e+00 2.278169999999999908e-05 4.095785813417438526e+00
0.000000000000000000e+00 5.204380000000000204e-04 6.869094014935533954e-01
0.000000000000000000e+00 7.337179999999999570e-04 3.643697647626375158e+00
0.000000000000000000e+00 6.477379999999999596e-03 2.629173001175724611e+00
6.250000000000000347e-03 9.558690000000000242e-02 4.643889035857723613e+00
3.125000000000000173e-03 2.942909999999999970e-03 1.921330304482170570e+00
0.000000000000000000e+00 3.100100000000000165e-03 4.637985355068542148e+00
6.562500000000000278e-02 9.168650000000000411e-02 1.918760350806394843e+00
0.000000000000000000e+00 2.320510000000000021e-03 1.738399141066040432e+00
0.000000000000000000e+00 6.584349999999999665e-04 1.353678646937562124e+00
0.000000000000000000e+00 3.923840000000000162e-04 3.084817492353967960e+00
9.374999999999999653e-03 1.703740000000000029e-03 7.027952815512306106e-01
0.000000000000000000e+00 7.391049999999999920e-04 2.797859605924413184e-01
0.000000000000000000e+00 7.740530000000000240e-04 3.763336741912861605e+00
0.000000000000000000e+00 2.874690000000000058e-03 1.045018194598124062e+00
6.250000000000000347e-03 7.503870000000000158e-03 3.004558917755972836e-01
2.812500000000000069e-02 3.173179999999999838e-03 3.562836252298802187e+00
1.874999999999999931e-02 2.846270000000000137e-03 1.377872856290851544e-01
0.000000000000000000e+00 2.032899999999999811e-03 1.472523033615952937e+00
9.374999999999999653e-03 1.923650000000000056e-03 4.412538424552901795e+00
6.250000000000000347e-03 1.877699999999999942e-03 3.475994499939363269e+00
6.250000000000000347e-03 1.493659999999999953e-02 3.194162635323870347e+00
0.000000000000000000e+00 2.181009999999999977e-05 1.345670120117139046e+00
0.000000000000000000e+00 2.826880000000000148e-04 2.523331240406136988e+00
0.000000000000000000e+00 3.911680000000000062e-04 4.880156617004645092e+00
3.125000000000000173e-03 1.604289999999999970e-03 2.515162353201993994e-01
3.125000000000000173e-03 1.630780000000000077e-03 2.064632604585513675e+00
3.125000000000000173e-03 3.605339999999999847e-03 3.454798944495412361e+00
0.000000000000000000e+00 2.303040000000000122e-03 2.697980758098307064e+00
1.874999999999999931e-02 2.429249999999999986e-03 2.793133930768318951e+00
0.000000000000000000e+00 3.770879999999999783e-04 1.692793087446362144e+00
3.125000000000000173e-03 1.144829999999999893e-03 2.754794054329239295e+00
1.874999999999999931e-02 9.461519999999999653e-02 4.807970616098685035e+00
0.000000000000000000e+00 8.152959999999999678e-04 3.744119391202996194e+00
0.000000000000000000e+00 7.048620000000000016e-04 7.993505751284557537e-01
0.000000000000000000e+00 5.000469999999999915e-04 2.199985003975545972e+00
0.000000000000000000e+00 4.140549999999999786e-04 1.760871472086938949e+00
0.000000000000000000e+00 1.723519999999999924e-04 2.502859281775346556e+00
0.000000000000000000e+00 5.962339999999999567e-04 1.830913504236594935e+00
1.874999999999999931e-02 8.446270000000000513e-03 1.181386482375440528e+00
5.312499999999999861e-02 4.078299999999999981e-02 4.791777165432097974e+00
0.000000000000000000e+00 1.046719999999999899e-03 3.103440300106860672e+00
0.000000000000000000e+00 3.613889999999999811e-03 9.631722858982011415e-01
0.000000000000000000e+00 4.057830000000000009e-04 7.004203054752133895e-01
0.000000000000000000e+00 1.678910000000000038e-03 9.740885472269961154e-01
6.562500000000000278e-02 9.240070000000000228e-02 4.825753667517878931e+00
0.000000000000000000e+00 2.741819999999999848e-03 3.761099685911446944e+00
0.000000000000000000e+00 4.352159999999999883e-04 4.658185288916883771e+00
0.000000000000000000e+00 2.966400000000000113e-03 6.917932239345148115e-01
0.000000000000000000e+00 5.694020000000000158e-03 1.689975066297632056e+00
1.874999999999999931e-02 1.805629999999999909e-03 9.688218970567585853e-01
9.374999999999999653e-03 2.035459999999999787e-03 2.775082173723892431e+00
0.000000000000000000e+00 3.542279999999999973e-04 4.863961902814700977e+00
1.250000000000000069e-02 1.854139999999999998e-03 1.130231669221492652e+00
0.000000000000000000e+00 4.019839999999999785e-04 8.027563051626701585e-01
0.000000000000000000e+00 9.934720000000000183e-04 2.384652450081205632e+00
0.000000000000000000e+00 4.250200000000000202e-04 3.903123359825475980e+00
9.374999999999999653e-03 5.116800000000000341e-03 2.400447057891892833e+00
0.000000000000000000e+00 5.412480000000000329e-04 1.489583865899563042e+00
3.125000000000000173e-03 6.998779999999999585e-03 8.534239186230918595e-01
1.874999999999999931e-02 1.487620000000000045e-03 2.279919776455225477e+00
0.000000000000000000e+00 2.865340000000000074e-03 4.303411407594004423e-01
0.000000000000000000e+00 5.119809999999999812e-03 1.680541871807391674e+00
0.000000000000000000e+00 1.351679999999999906e-04 1.302832085620880154e+00
0.000000000000000000e+00 3.613120000000000047e-03 4.514645204779753840e+00
9.374999999999999653e-03 1.677440000000000094e-03 4.403529504935114858e+00
2.812500000000000069e-02 1.063449999999999951e-01 3.231564285470277298e+00
0.000000000000000000e+00 2.716750000000000068e-02 1.073396874021445013e+00
1.250000000000000069e-02 4.868220000000000360e-03 4.130258949996942874e+00
3.125000000000000173e-03 9.688280000000000503e-02 1.740832633892150483e+00
4.062500000000000139e-02 7.799740000000000319e-03 2.622286269738036690e+00
0.000000000000000000e+00 4.254050000000000106e-04 3.794417438959325040e+00
1.874999999999999931e-02 2.026430000000000071e-03 3.746918746215657237e+00
0.000000000000000000e+00 7.353210000000000432e-04 1.613444905412614316e-01
0.000000000000000000e+00 4.727940000000000137e-04 2.356804760909577467e+00
0.000000000000000000e+00 4.182230000000000105e-04 7.507652200758124783e-01
3.125000000000000173e-03 2.977599999999999952e-03 1.587566512363208782e+00
2.500000000000000139e-02 2.436610000000000078e-03 5.535623978443399151e-01
0.000000000000000000e+00 3.285380000000000071e-03 1.140274475249531516e+00
3.125000000000000173e-03 2.061320000000000166e-02 3.320659760346040823e+00
0.000000000000000000e+00 2.221760000000000141e-03 2.867816255810788029e+00
0.000000000000000000e+00 9.911799999999999257e-04 2.604514994001344341e+00
3.125000000000000173e-03 2.321789999999999791e-03 1.437496728082380937e+00
0.000000000000000000e+00 6.279940000000000348e-03 2.950457708697475034e+00
2.187499999999999861e-02 9.191539999999999433e-02 2.162081631157120487e+00
0.000000000000000000e+00 8.641919999999999550e-04 2.963731503934821099e+00
2.500000000000000139e-02 9.098169999999999868e-02 5.163620776617960928e-01
1.250000000000000069e-02 1.742719999999999903e-03 2.213644146419574410e-01
3.125000000000000173e-03 8.990130000000000690e-03 1.954622625060286722e+00
6.875000000000000555e-02 9.183170000000000222e-02 4.589291674583751757e+00
9.374999999999999653e-03 1.103299999999999984e-03 2.897243341876272638e+00
6.250000000000000347e-03 3.276799999999999852e-02 4.548886146757314286e+00
0.000000000000000000e+00 1.434429999999999993e-03 2.778733088626328840e+00
2.500000000000000139e-02 1.211970000000000061e-02 1.852320163077270543e+00
1.874999999999999931e-02 2.296579999999999889e-03 8.932874040531774140e-01
6.250000000000000347e-03 9.844379999999999797e-02 2.527142848153445254e+00
6.875000000000000555e-02 9.345799999999999941e-02 4.367710264843608137e+00
2.500000000000000139e-02 2.858429999999999912e-03 3.558380178414432660e+00
2.187499999999999861e-02 1.550530000000000051e-03 6.656692531516406053e-01
1.250000000000000069e-02 9.230249999999999566e-02 1.203063726735332128e+00
2.812500000000000069e-02 3.099610000000000039e-03 1.935913912317527963e+00
0.000000000000000000e+00 6.264320000000000088e-04 6.458724779861918508e-01
9.374999999999999653e-03 9.245369999999999977e-02 4.550303849210501461e+00
6.250000000000000347e-03 2.144379999999999984e-03 1.606785190638247318e+00
0.000000000000000000e+00 7.804160000000000307e-04 2.164202194470097318e+00
0.000000000000000000e+00 1.716479999999999937e-04 3.004586618077671911e+00
0.000000000000000000e+00 2.287390000000000134e-05 4.599429665983160831e+00
3.125000000000000173e-03 1.322510000000000005e-02 2.711184927707798842e+00
3.125000000000000173e-03 4.482370000000000278e-03 4.017136376591120772e+00
0.000000000000000000e+00 3.883900000000000026e-03 3.326000231252235206e-01
6.250000000000000347e-03 9.127869999999999734e-03 2.501381250473166951e-02
0.000000000000000000e+00 2.638079999999999787e-04 4.842644791886981714e+00
9.374999999999999653e-03 1.272319999999999961e-03 1.797606820316719478e+00
0.000000000000000000e+00 6.247040000000000145e-04 2.585275663772272470e+00
1.031249999999999944e-01 9.225619999999999654e-02 1.451096895374852647e+00
0.000000000000000000e+00 2.712000000000000001e-03 4.266028026233285253e+00
0.000000000000000000e+00 3.068930000000000095e-03 1.330494647186851065e+00
0.000000000000000000e+00 1.024210000000000008e-03 2.121034412179385598e+00
3.125000000000000173e-03 4.559940000000000174e-03 7.973205948751393990e-02
0.000000000000000000e+00 9.068159999999999589e-04 2.574797205155295643e+00
6.250000000000000347e-03 1.874940000000000070e-03 4.701173334394569636e+00
3.125000000000000173e-03 7.565439999999999665e-03 8.518399323240966048e-01
2.500000000000000139e-02 3.972490000000000049e-02 4.695190017485689760e-01
1.562500000000000000e-02 1.232929999999999963e-02 3.922842713323158925e+00
0.000000000000000000e+00 7.224959999999999889e-04 1.647039943643771043e+00
1.250000000000000069e-02 5.280700000000000151e-03 3.324935872734916309e+00
1.250000000000000069e-02 1.775989999999999860e-02 3.827866239249606117e+00
0.000000000000000000e+00 1.490299999999999958e-03 1.178524847882900239e-01
0.000000000000000000e+00 1.690110000000000093e-03 3.533212604112279553e+00
1.874999999999999931e-02 3.931359999999999716e-02 4.186123865463298621e+00
0.000000000000000000e+00 9.843840000000000402e-04 1.225367600027321036e+00
1.562500000000000000e-02 1.692160000000000062e-03 4.455477483567057639e+00
0.000000000000000000e+00 1.044290000000000019e-03 1.380939266195787551e+00
1.250000000000000069e-02 1.056070000000000064e-01 1.022686417563205996e+00
0.000000000000000000e+00 9.296000000000000443e-04 6.071548698476147976e-01
6.250000000000000347e-03 9.583010000000000139e-02 2.964136676257179026e+00
0.000000000000000000e+00 1.253449999999999920e-03 1.016606960599308884e-01
0.000000000000000000e+00 7.239710000000000112e-04 8.073911371815728488e-01
3.125000000000000173e-03 4.323969999999999897e-03 2.988342974576871924e+00
1.874999999999999931e-02 3.512700000000000111e-03 1.704491742951064648e+00
0.000000000000000000e+00 5.008699999999999611e-03 4.649645857721679043e+00
0.000000000000000000e+00 4.288639999999999922e-04 1.697867049361229119e-01
1.874999999999999931e-02 4.512060000000000029e-03 3.527267474495698885e-01
0.000000000000000000e+00 7.212780000000000016e-04 4.926360163919968116e+00
0.000000000000000000e+00 3.702019999999999877e-03 1.889362966126495458e-01
0.000000000000000000e+00 1.334850000000000056e-03 4.132329159676293884e+00
1.250000000000000069e-02 1.335940000000000088e-03 1.303457224635211187e+00
0.000000000000000000e+00 5.692159999999999928e-04 1.006774834897860682e+00
0.000000000000000000e+00 0.000000000000000000e+00 6.720838236425641377e-01
1.562500000000000000e-02 3.731459999999999812e-03 2.013199550232791069e+00
0.000000000000000000e+00 2.146910000000000138e-03 6.378186868769858409e-01
0.000000000000000000e+00 1.556029999999999913e-03 4.968072392832895146e-01
1.250000000000000069e-02 2.837629999999999840e-03 1.369322771573140862e+00
0.000000000000000000e+00 8.910079999999999910e-04 1.326842036538239400e+00
0.000000000000000000e+00 1.702399999999999964e-04 2.734966414216376762e+00
0.000000000000000000e+00 3.060289999999999799e-03 2.333948963209567573e+00
3.125000000000000173e-03 2.092929999999999791e-03 1.817406491255374457e-01
6.250000000000000347e-03 3.276799999999999852e-02 2.001868735658760112e+00
0.000000000000000000e+00 3.014779999999999890e-03 2.163456304378830186e-01
1.562500000000000000e-02 3.756919999999999704e-02 3.112456857105049046e+00
0.000000000000000000e+00 2.566210000000000192e-03 2.632799747235133658e+00
0.000000000000000000e+00 1.325889999999999925e-03 2.883328098774802672e+00
0.000000000000000000e+00 9.836800000000000144e-04 1.870906382817992153e+00
0.000000000000000000e+00 2.147650000000000080e-03 2.777130687163636757e+00
2.500000000000000139e-02 7.904960000000000805e-03 4.989374926853141545e+00
3.125000000000000173e-03 1.609919999999999927e-03 2.199286460443524938e+00
3.125000000000000000e-02 2.002240000000000183e-03 1.260479895048673971e+00
2.187499999999999861e-02 1.061300000000000021e-01 2.846871987257000747e+00
0.000000000000000000e+00 3.080380000000000184e-03 4.445941815890695814e+00
0.000000000000000000e+00 7.300629999999999793e-04 3.191357172242875073e+00
0.000000000000000000e+00 9.828479999999999248e-04 3.090687235172084879e-01
0.000000000000000000e+00 1.080900000000000090e-03 1.195214743635848453e+00
0.000000000000000000e+00 1.144829999999999893e-03 4.321281133587786982e+00
1.250000000000000069e-02 9.208249999999999769e-02 1.169250817052333691e+00
2.500000000000000139e-02 9.240750000000000353e-02 3.890649788171400836e+00
0.000000000000000000e+00 3.071420000000000053e-03 2.523199560358687421e+00
6.250000000000000347e-03 5.091649999999999648e-03 3.432431206295563975e+00
6.250000000000000347e-03 9.597609999999999475e-02 3.071266165358587763e+00
3.125000000000000173e-03 1.167939999999999907e-03 2.835881076241939525e+00
0.000000000000000000e+00 1.392449999999999938e-03 2.978079754081206065e+00
3.125000000000000173e-03 1.596669999999999904e-03 4.809545965299061976e+00
0.000000000000000000e+00 1.018749999999999907e-03 4.304544125601733384e+00
0.000000000000000000e+00 1.328959999999999907e-03 2.545863571017630278e+00
0.000000000000000000e+00 4.233469999999999595e-03 1.614221535244969585e-01
6.250000000000000347e-03 1.365120000000000049e-03 1.596996503760356179e-01
2.187499999999999861e-02 4.445759999999999990e-03 1.756246739135830515e-01
0.000000000000000000e+00 4.477140000000000113e-03 2.126197470001578438e+00
0.000000000000000000e+00 1.960289999999999949e-02 1.847745631190609306e+00
1.562500000000000000e-02 9.416679999999999495e-02 2.607594090512812102e+00
0.000000000000000000e+00 4.402559999999999807e-04 1.469176755368117870e-01
2.187499999999999861e-02 1.821570000000000003e-03 3.895136371689063015e+00
2.187499999999999861e-02 2.559490000000000202e-03 3.461612596475895920e+00
3.125000000000000173e-03 9.645579999999999432e-02 4.293417704596075302e-01
0.000000000000000000e+00 5.851010000000000238e-03 1.164501967858003750e+00
6.250000000000000347e-03 4.816130000000000064e-03 4.202296128813792997e+00
3.125000000000000173e-03 4.435330000000000349e-03 9.942895149854719117e-01
6.250000000000000347e-03 1.725729999999999972e-03 1.090484374357532094e+00
1.250000000000000069e-02 9.882810000000000206e-02 3.247254578112108714e+00
2.187499999999999861e-02 2.663679999999999867e-03 1.266325639847759588e+00
0.000000000000000000e+00 9.427199999999999729e-04 3.281337205581580374e+00
0.000000000000000000e+00 2.967619999999999807e-03 4.743620956681157352e+00
2.500000000000000139e-02 3.121860000000000173e-03 3.676562390808060243e+00
3.125000000000000173e-03 1.241219999999999910e-03 1.718180521154462514e+00
0.000000000000000000e+00 5.024639999999999922e-04 3.987056454268734562e+00
9.374999999999999653e-03 5.023919999999999775e-02 3.665548202634055786e-01
0.000000000000000000e+00 1.070980000000000022e-03 3.247805384534272033e+00
2.812500000000000069e-02 1.726459999999999974e-03 3.701505628345930221e-01
0.000000000000000000e+00 1.074819999999999985e-03 9.043280177818185939e-01
2.500000000000000139e-02 4.715389999999999859e-02 1.577585345367701342e+00
3.437500000000000278e-02 9.219670000000000643e-02 1.154859567332966019e+00
3.125000000000000173e-03 1.915199999999999932e-03 1.422653539827149594e+00
3.125000000000000000e-02 1.310719999999999941e-02 9.716699953383439725e-01
9.374999999999999653e-03 9.173470000000000235e-02 2.067117077261437785e-01
0.000000000000000000e+00 3.491619999999999750e-04 3.519565767659935673e+00
0.000000000000000000e+00 5.051520000000000316e-04 2.759015354557281086e+00
2.187499999999999861e-02 1.719229999999999977e-03 1.303178608641859970e+00
5.937499999999999722e-02 9.329590000000000105e-02 2.932130680068525397e+00
2.500000000000000139e-02 2.291839999999999850e-03 2.083034815912857773e+00
0.000000000000000000e+00 1.481019999999999993e-03 1.022366513458227821e+00
3.125000000000000173e-03 5.243330000000000039e-03 2.073200326002461402e+00
0.000000000000000000e+00 9.272319999999999477e-04 3.514081712298163573e+00
0.000000000000000000e+00 2.069119999999999868e-04 8.275859213407682491e-01
0.000000000000000000e+00 2.141439999999999880e-04 3.852958039435256499e+00
2.812500000000000069e-02 3.088259999999999790e-03 2.908938944775948165e+00
3.125000000000000173e-03 3.412029999999999924e-03 4.295660780923032940e-01
0.000000000000000000e+00 6.630589999999999574e-03 1.274941683050623720e+00
0.000000000000000000e+00 1.624320000000000061e-04 4.625595742123225662e+00
3.125000000000000173e-03 2.933840000000000059e-02 4.873494801955549072e+00
0.000000000000000000e+00 1.274500000000000025e-03 8.364546422665963821e-01
3.437500000000000278e-02 9.179859999999999409e-02 2.301149199516680177e+00
0.000000000000000000e+00 9.751039999999999664e-04 2.736885682738872116e+00
0.000000000000000000e+00 3.688960000000000134e-04 3.231268454249026867e+00
3.125000000000000173e-03 9.525909999999999933e-02 9.173480458376753743e-01
2.500000000000000139e-02 3.168260000000000000e-03 4.326504639746653336e-02
2.187499999999999861e-02 3.259070000000000196e-03 8.213108942449531824e-01
1.250000000000000069e-02 5.596480000000000031e-03 6.940470490383554569e-01
3.125000000000000173e-03 4.766079999999999796e-03 6.720766359549373847e-01
0.000000000000000000e+00 1.040579999999999934e-03 3.691123781802088111e+00
2.812500000000000069e-02 4.763420000000000154e-02 1.391759168116212253e+00
0.000000000000000000e+00 3.843200000000000067e-04 3.282509299761794175e+00
1.874999999999999931e-02 9.186690000000000134e-02 2.397205441530520176e+00
0.000000000000000000e+00 2.632320000000000059e-03 2.810469958527672674e-01
0.000000000000000000e+00 1.508119999999999947e-02 4.835296944323040691e+00
0.000000000000000000e+00 1.517059999999999980e-03 3.390766113189247921e+00
0.000000000000000000e+00 3.390660000000000202e-02 2.354825343914025204e+00
0.000000000000000000e+00 4.813220000000000107e-04 4.779118488191746117e+00
0.000000000000000000e+00 0.000000000000000000e+00 2.007824579596144687e+00
0.000000000000000000e+00 2.181759999999999928e-04 3.223022295901608381e+00
1.562500000000000000e-02 1.316930000000000010e-03 3.249918048752506561e+00
1.250000000000000069e-02 2.252800000000000115e-03 4.767833309826869481e+00
1.562500000000000000e-02 1.993119999999999961e-02 7.596534967160056828e-01
0.000000000000000000e+00 1.505749999999999970e-02 2.961948517613603560e+00
0.000000000000000000e+00 9.974009999999999734e-04 2.911710625580883782e+00
0.000000000000000000e+00 2.201959999999999836e-05 3.240045271289032414e+00
3.125000000000000173e-03 9.808740000000000514e-02 8.098956984619798405e-01
1.562500000000000000e-02 1.504780000000000006e-01 3.410437589949098403e+00
0.000000000000000000e+00 2.323690000000000109e-05 2.948397473751991349e+00
0.000000000000000000e+00 1.049660000000000003e-03 4.003240878365896371e+00
0.000000000000000000e+00 4.461180000000000137e-04 5.735036323441833339e-01
0.000000000000000000e+00 9.205700000000000688e-03 1.456487984903190203e+00
0.000000000000000000e+00 2.257830000000000031e-05 1.297017621985473435e+00
0.000000000000000000e+00 1.243650000000000007e-03 3.537322932148935450e+00
0.000000000000000000e+00 1.011579999999999988e-03 2.956361768939823609e+00
0.000000000000000000e+00 2.237439999999999828e-03 3.265332922815877836e+00
0.000000000000000000e+00 2.656190000000000113e-03 2.470368854119614710e+00
0.000000000000000000e+00 7.067580000000000390e-03 6.113674434795429713e-01
0.000000000000000000e+00 8.523520000000000141e-04 4.151256257352975432e+00
0.000000000000000000e+00 6.820980000000000142e-04 1.533009182908323664e+00
0.000000000000000000e+00 2.566210000000000192e-03 4.733334455608448899e+00
1.874999999999999931e-02 2.571899999999999794e-03 4.660909203799878942e-01
0.000000000000000000e+00 1.164670000000000028e-03 1.245471243887672497e+00
0.000000000000000000e+00 1.834820000000000027e-03 3.687811908290589136e-01
0.000000000000000000e+00 4.035840000000000174e-04 2.957758909198654473e-01
0.000000000000000000e+00 9.652480000000000391e-04 4.354374838193655783e+00
0.000000000000000000e+00 8.510669999999999477e-04 1.025429227350138195e+00
3.125000000000000173e-03 1.273780000000000051e-02 4.104883181021230953e+00
6.250000000000000347e-03 3.276799999999999852e-02 4.519827040690572062e+00
0.000000000000000000e+00 2.531260000000000020e-03 2.446738001914016358e+00
0.000000000000000000e+00 9.840930000000000510e-02 1.991350887538700487e+00
0.000000000000000000e+00 1.093849999999999944e-03 3.893199734417509550e+00
0.000000000000000000e+00 1.030869999999999920e-03 3.536616234943789738e+00
1.250000000000000069e-02 4.436040000000000122e-02 8.991717173137181440e-01
0.000000000000000000e+00 9.528959999999999514e-04 3.624046469212012678e+00
0.000000000000000000e+00 1.027539999999999964e-03 2.020488906925481665e+00
0.000000000000000000e+00 7.271130000000000431e-04 4.492356554523121659e+00
0.000000000000000000e+00 2.272639999999999817e-03 3.484042608367827309e+00
0.000000000000000000e+00 1.074749999999999968e-03 9.826455991770022269e-01
9.374999999999999653e-03 2.448189999999999828e-03 2.419971193050786340e+00
2.187499999999999861e-02 1.775979999999999920e-02 4.738722268912801461e+00
0.000000000000000000e+00 1.611460000000000106e-03 4.954791116513018068e+00
0.000000000000000000e+00 3.878399999999999730e-04 4.049757359629770015e+00
2.500000000000000139e-02 2.315980000000000122e-02 6.119625470662010125e-01
0.000000000000000000e+00 1.163360000000000002e-03 3.117110425131941476e-01
0.000000000000000000e+00 1.114940000000000028e-03 1.866219545700898985e+00
0.000000000000000000e+00 2.923579999999999842e-03 1.730197803822400182e+00
0.000000000000000000e+00 1.709629999999999960e-03 2.732848067626140853e+00
0.000000000000000000e+00 1.058619999999999917e-03 4.858317009151053023e-01
0.000000000000000000e+00 4.273290000000000009e-04 4.928567898385141532e+00
1.874999999999999931e-02 1.110340000000000025e-03 2.397410227432019258e+00
0.000000000000000000e+00 1.166750000000000035e-03 2.826482271491848941e+00
0.000000000000000000e+00 2.957500000000000059e-03 2.751146747225044376e+00
3.125000000000000173e-03 1.263299999999999970e-03 3.280294063229613144e+00
2.187499999999999861e-02 2.329279999999999979e-03 2.484696853562889940e-01
0.000000000000000000e+00 1.176280000000000034e-02 3.893979310205754718e+00
0.000000000000000000e+00 3.874559999999999983e-04 1.518416584367319189e+00
0.000000000000000000e+00 1.187459999999999991e-03 4.433586884912092074e+00
2.500000000000000139e-02 9.170570000000000110e-02 2.610587718948790936e+00
0.000000000000000000e+00 1.927020000000000122e-02 4.439636381714835878e+00
0.000000000000000000e+00 3.458500000000000203e-03 1.230480683240540163e+00
0.000000000000000000e+00 2.045120000000000098e-03 3.496168375157798103e+00
3.125000000000000000e-02 3.070209999999999953e-02 2.058952679796584029e+00
0.000000000000000000e+00 1.428030000000000055e-03 3.820191675211502158e+00
0.000000000000000000e+00 2.763709999999999951e-03 3.923761935286734115e+00
0.000000000000000000e+00 5.273339999999999625e-03 2.987215014342100794e+00
6.250000000000000347e-03 9.797570000000000237e-03 1.755487297840373495e+00
0.000000000000000000e+00 1.049660000000000003e-03 3.262081297242659161e+00
1.250000000000000069e-02 1.888960000000000075e-03 1.718502985468908228e+00
0.000000000000000000e+00 5.036799999999999481e-04 3.918225156150783484e+00
2.187499999999999861e-02 2.886140000000000146e-03 2.586385315995125111e+00
0.000000000000000000e+00 3.786880000000000172e-04 1.925532175218768183e+00
6.250000000000000347e-03 2.681540000000000052e-03 1.177408204419770898e+00
1.874999999999999931e-02 3.202299999999999938e-03 4.215454180533173556e+00
0.000000000000000000e+00 2.685440000000000093e-04 2.619882360359875761e+00
0.000000000000000000e+00 3.126020000000000187e-03 4.043667069732558517e+00
4.374999999999999722e-02 9.265479999999999550e-02 4.886082816327220080e+00
3.125000000000000173e-03 1.527939999999999984e-03 1.881644894651725020e+00
1.562500000000000000e-02 2.991360000000000199e-03 9.589664538886044642e-01
3.125000000000000173e-03 4.639299999999999848e-03 2.605274664540601748e+00
0.000000000000000000e+00 2.269620000000000133e-05 4.519951253550528847e+00
