6.250000000000000347e-03 1.291779999999999968e-03 4.961113900375960561e+00
1.562500000000000000e-02 9.178400000000000447e-02 1.578255889270586687e+00
3.125000000000000173e-03 1.158619999999999962e-02 1.478607355226619458e+00
9.374999999999999653e-03 1.737019999999999927e-03 8.965153824088384349e-01
0.000000000000000000e+00 8.785120000000000212e-04 2.553404743797518250e+00
3.125000000000000000e-02 6.785919999999999973e-03 1.801381380282760958e+00
3.125000000000000173e-03 4.143550000000000184e-03 9.182574807190346800e-01
0.000000000000000000e+00 9.821439999999998990e-04 3.480143422405838294e+00
5.000000000000000278e-02 1.061659999999999965e-01 5.939117898576834476e-01
1.562500000000000000e-02 1.295299999999999924e-02 2.851573178464139158e+00
0.000000000000000000e+00 3.915519999999999808e-04 4.772736301318797558e+00
0.000000000000000000e+00 7.335259999999999697e-04 4.787628035114311231e+00
3.125000000000000173e-03 5.012609999999999809e-03 2.649426008715583425e+00
0.000000000000000000e+00 1.847009999999999971e-02 1.727306040714515323e+00
0.000000000000000000e+00 1.182320000000000072e-02 4.244233370018895002e+00
6.250000000000000347e-03 2.413360000000000158e-02 4.466011136110854984e+00
6.250000000000000347e-03 3.111619999999999837e-03 2.669109985442938981e+00
0.000000000000000000e+00 9.798400000000000241e-05 1.029006049131048206e-01
2.812500000000000069e-02 6.736190000000000407e-03 1.204188862015455719e+00
3.125000000000000173e-03 4.817980000000000353e-03 7.192220739004850927e-01
3.125000000000000173e-03 2.444290000000000004e-03 1.694851426141057882e+00
6.250000000000000347e-03 2.455940000000000206e-03 2.587247010923421797e+00
2.187499999999999861e-02 6.916740000000000214e-03 3.153610995071653544e+00
0.000000000000000000e+00 3.016960000000000063e-04 3.360504066945441792e+00
0.000000000000000000e+00 1.710079999999999999e-04 4.901159712662062073e-01
0.000000000000000000e+00 3.381800000000000084e-02 4.099178426202697345e+00
0.000000000000000000e+00 2.060859999999999862e-03 3.106619182619594355e+00
0.000000000000000000e+00 3.765179999999999916e-03 1.429121339025633652e+00
6.250000000000000000e-02 2.630069999999999977e-02 6.224526485646580953e-01
1.874999999999999931e-02 2.559870000000000114e-03 3.096111317243427363e-01
6.250000000000000347e-03 1.559870000000000093e-03 1.512833974652126212e+00
3.125000000000000173e-03 1.818179999999999970e-03 1.540470903064125041e+00
0.000000000000000000e+00 1.986559999999999899e-04 4.133642377360581044e+00
1.250000000000000069e-02 1.914370000000000091e-03 4.354262359846398311e+00
0.000000000000000000e+00 1.119039999999999965e-03 4.686897328630148962e+00
1.250000000000000069e-02 5.986939999999999623e-03 9.747210687622287484e-01
2.187499999999999861e-02 2.045570000000000027e-03 1.734995932251932604e+00
6.250000000000000347e-03 4.170749999999999978e-03 2.019914353199194768e+00
3.125000000000000173e-03 9.708719999999999850e-02 4.229445506450187686e+00
0.000000000000000000e+00 7.452309999999999490e-02 1.009588944507699981e+00
3.125000000000000173e-03 4.433789999999999953e-03 2.888548348688875667e+00
0.000000000000000000e+00 6.815359999999999474e-04 3.669891159494556465e+00
1.562500000000000000e-02 1.894080000000000026e-03 2.993999666349115074e+00
0.000000000000000000e+00 7.322430000000000432e-04 2.403296050226064295e+00
1.874999999999999931e-02 1.625219999999999920e-03 1.688409922244092920e+00
9.374999999999999653e-03 3.515649999999999938e-03 4.185577007238242331e+00
0.000000000000000000e+00 6.796570000000000389e-02 2.059764454963637803e+00
2.500000000000000139e-02 4.028249999999999886e-02 3.707754873855431121e+00
0.000000000000000000e+00 1.764810000000000133e-05 1.291153487409817835e+00
0.000000000000000000e+00 1.084289999999999907e-03 4.361503216484782897e+00
2.187499999999999861e-02 2.791859999999999828e-02 3.913314263553973493e+00
0.000000000000000000e+00 8.515810000000000176e-04 4.352978581382754619e+00
2.500000000000000139e-02 1.306530000000000018e-02 2.888784440058849157e+00
0.000000000000000000e+00 4.480829999999999882e-03 3.039319615360069449e+00
0.000000000000000000e+00 6.519980000000000220e-02 4.995222604612915340e+00
1.562500000000000000e-02 2.710719999999999796e-03 3.361006172435007766e+00
0.000000000000000000e+00 1.986430000000000140e-02 1.661362153225875993e-01
0.000000000000000000e+00 1.125949999999999911e-03 3.340657352315503203e+00
6.250000000000000347e-03 2.928510000000000054e-03 2.933962704776951647e+00
2.187499999999999861e-02 2.069950000000000088e-03 7.632903104807209349e-01
3.125000000000000173e-03 1.062880000000000075e-02 9.955704398500142549e-01
0.000000000000000000e+00 5.083260000000000035e-03 4.182992741162795625e+00
3.125000000000000173e-03 1.879100000000000084e-03 1.602880735431361225e+00
1.031249999999999944e-01 8.110950000000000104e-02 2.196904057172726521e+00
0.000000000000000000e+00 1.172909999999999925e-02 1.243443730814649539e+00
0.000000000000000000e+00 7.268570000000000239e-04 2.978521557398056796e+00
0.000000000000000000e+00 7.249329999999999793e-04 1.054906919438803214e+00
0.000000000000000000e+00 3.957150000000000251e-02 1.098033761529554342e-01
1.874999999999999931e-02 2.174720000000000212e-03 4.579121762029716436e+00
2.500000000000000139e-02 1.755709999999999953e-03 1.382864033200055243e+00
1.250000000000000069e-02 4.437570000000000056e-03 7.180251367181678113e-01
3.437500000000000278e-02 9.966980000000000284e-02 7.740446929300082157e-01
3.125000000000000173e-03 4.353659999999999648e-03 3.920547031355410716e+00
0.000000000000000000e+00 6.161319999999999644e-03 4.219751321969999580e+00
0.000000000000000000e+00 1.181830000000000033e-02 1.293887443239621904e-01
0.000000000000000000e+00 5.210879999999999549e-04 2.443656837735799670e+00
2.500000000000000139e-02 1.408640000000000066e-03 4.200740345028247669e-01
0.000000000000000000e+00 1.763599999999999890e-02 1.349064181645530658e+00
1.562500000000000000e-02 1.586109999999999950e-03 1.850921038967173748e-01
5.000000000000000278e-02 3.615399999999999864e-02 3.677960494709471728e+00
0.000000000000000000e+00 2.453610000000000166e-03 4.884417458936331613e+00
2.812500000000000069e-02 2.596750000000000100e-02 2.593634376897169247e+00
0.000000000000000000e+00 2.051330000000000167e-02 3.092872956966719489e+00
2.187499999999999861e-02 5.300540000000000286e-03 2.046608317668494159e+00
1.874999999999999931e-02 8.773760000000000239e-03 9.647155886496872057e-01
0.000000000000000000e+00 1.160839999999999962e-02 6.021408817619550158e-01
0.000000000000000000e+00 1.168970000000000078e-02 4.488111649658534930e+00
1.250000000000000069e-02 3.828740000000000181e-03 3.877341989578693582e+00
2.187499999999999861e-02 2.865860000000000022e-03 6.023006006667885881e-02
0.000000000000000000e+00 4.456689999999999914e-04 9.118829441013787118e-01
0.000000000000000000e+00 2.165250000000000074e-03 3.100931731270281766e+00
0.000000000000000000e+00 3.254589999999999914e-03 1.607893058541960407e+00
0.000000000000000000e+00 1.190270000000000000e-03 2.809752555420544695e+00
0.000000000000000000e+00 7.984860000000000525e-04 2.421589044360096032e+00
1.874999999999999931e-02 9.329360000000000430e-02 4.904724205554627403e+00
0.000000000000000000e+00 2.303250000000000013e-05 3.491509498507218812e+00
0.000000000000000000e+00 1.080769999999999995e-03 7.928784469465705032e-01
0.000000000000000000e+00 1.200509999999999902e-03 3.123728621070214206e+00
0.000000000000000000e+00 2.292800000000000138e-05 2.386828804414231620e-01
1.562500000000000000e-02 1.147460000000000103e-03 2.269302864377666484e+00
0.000000000000000000e+00 3.523029999999999912e-04 3.658271446002239191e+00
1.250000000000000069e-02 2.372420000000000084e-03 3.221679303187991561e+00
6.250000000000000347e-03 9.166779999999999373e-02 2.210401449511878447e-01
0.000000000000000000e+00 1.790270000000000056e-03 4.088017210895801057e+00
1.562500000000000000e-02 5.090240000000000216e-03 4.791528066283313514e+00
0.000000000000000000e+00 2.059389999999999919e-03 3.631227898045809699e+00
6.250000000000000347e-03 1.747330000000000064e-03 6.134042483966528625e-01
2.812500000000000069e-02 6.984899999999999616e-03 4.129736746405490599e+00
6.250000000000000347e-03 9.368840000000000501e-02 9.562130409550578802e-01
9.374999999999999653e-03 1.820479999999999971e-03 4.781509036800994039e+00
0.000000000000000000e+00 1.855939999999999934e-03 3.864980999673206519e+00
3.125000000000000173e-03 4.772860000000000297e-03 2.667689926166501024e+00
0.000000000000000000e+00 3.023999999999999778e-04 3.729614708853641769e+00
2.500000000000000139e-02 2.395580000000000018e-03 1.131195566705440303e+00
1.874999999999999931e-02 2.291259999999999825e-03 1.386356044183070679e+00
0.000000000000000000e+00 1.506240000000000053e-03 4.241805406553375235e+00
0.000000000000000000e+00 2.315409999999999910e-05 3.114826263005015861e+00
0.000000000000000000e+00 2.267459999999999788e-03 3.075594656647704372e+00
2.500000000000000139e-02 2.864259999999999983e-03 2.941687948193254964e+00
0.000000000000000000e+00 1.845759999999999892e-03 4.806589814480161094e-01
0.000000000000000000e+00 2.235819999999999881e-05 1.208005099512752256e+00
2.187499999999999861e-02 2.498499999999999853e-03 1.644243621548798773e+00
3.125000000000000173e-03 1.731820000000000017e-03 2.395773327691412824e+00
3.125000000000000173e-03 1.856259999999999985e-03 1.849614110880880569e+00
0.000000000000000000e+00 3.411449999999999899e-03 4.647526984863143085e+00
0.000000000000000000e+00 2.869440000000000011e-03 2.724057761424543145e+00
1.562500000000000000e-02 2.975869999999999817e-03 2.264156300373729280e+00
0.000000000000000000e+00 3.888000000000000180e-04 9.349162676466510336e-01
2.500000000000000139e-02 9.544319999999999584e-04 2.141726771468688728e+00
0.000000000000000000e+00 2.351100000000000065e-03 3.741302605703128670e+00
0.000000000000000000e+00 5.972599999999999567e-04 1.377290487008342890e+00
0.000000000000000000e+00 7.169820000000000143e-04 3.669050628403333292e+00
0.000000000000000000e+00 1.003650000000000028e-03 2.694818080138938754e-01
2.187499999999999861e-02 7.201919999999999676e-03 4.050748973866300062e+00
0.000000000000000000e+00 2.248590000000000099e-05 8.250303238400674699e-01
0.000000000000000000e+00 9.635839999999999683e-04 2.035914861588217217e-01
0.000000000000000000e+00 1.216510000000000074e-03 1.770117925900424050e+00
9.374999999999999653e-03 2.724419999999999967e-03 4.908631436049767593e+00
3.125000000000000173e-03 4.574779999999999645e-03 3.324092032591454693e+00
0.000000000000000000e+00 7.127490000000000431e-04 4.243712193588814685e+00
2.812500000000000069e-02 9.222729999999999817e-02 2.526819889234213967e+00
0.000000000000000000e+00 1.210340000000000027e-02 1.481773708278516510e+00
0.000000000000000000e+00 4.128879999999999703e-03 4.276639098831081398e+00
1.562500000000000000e-02 2.052350000000000094e-03 4.334304619041281725e+00
0.000000000000000000e+00 1.029980000000000001e-03 2.773682987877488237e+00
6.250000000000000347e-03 9.711419999999999775e-02 2.402008009039610759e+00
0.000000000000000000e+00 4.247640000000000009e-04 3.557786109356317894e+00
0.000000000000000000e+00 4.228400000000000106e-04 4.886098946346274730e+00
2.187499999999999861e-02 2.100219999999999865e-03 4.803820163753896866e-01
0.000000000000000000e+00 1.013950000000000008e-03 4.377312160790217455e+00
2.187499999999999861e-02 1.153269999999999990e-02 4.671428973399034845e+00
1.874999999999999931e-02 1.273980000000000078e-03 1.873060331078328922e+00
4.374999999999999722e-02 9.170200000000000573e-02 4.673652357702197335e+00
3.125000000000000173e-03 4.747839999999999699e-03 2.521880220923294225e+00
0.000000000000000000e+00 6.427520000000000152e-04 1.470927767988694512e+00
0.000000000000000000e+00 4.257900000000000009e-04 3.946013199569292640e-01
1.562500000000000000e-02 2.302339999999999942e-03 2.847395523933573092e+00
0.000000000000000000e+00 9.130240000000000187e-04 3.950510273184766330e+00
2.812500000000000069e-02 6.482939999999999536e-02 5.167869502032507167e-01
0.000000000000000000e+00 4.160960000000000006e-03 2.906750914843043265e+00
0.000000000000000000e+00 9.183359999999999570e-04 1.985847941234079039e+00
0.000000000000000000e+00 2.278099999999999917e-03 4.609834278464502333e+00
9.374999999999999653e-03 2.776579999999999847e-03 4.215031259381335715e+00
0.000000000000000000e+00 2.171199999999999866e-03 5.287779431636974170e-01
0.000000000000000000e+00 7.897629999999999668e-04 2.780206934696786814e+00
1.250000000000000069e-02 4.727549999999999635e-03 2.456913505861263447e-01
2.187499999999999861e-02 2.691069999999999834e-03 6.500738470846423311e-02
0.000000000000000000e+00 0.000000000000000000e+00 2.802811097774488669e+00
3.125000000000000173e-03 5.230030000000000096e-03 1.672103238697091321e+00
3.125000000000000173e-03 4.360580000000000185e-03 4.761661231180434939e+00
3.125000000000000173e-03 4.906179999999999569e-03 3.055672615770172129e+00
0.000000000000000000e+00 3.524270000000000180e-02 3.675380212820065662e+00
3.125000000000000173e-03 4.688529999999999781e-02 6.893385293447884532e-01
1.874999999999999931e-02 2.899269999999999972e-02 2.953789950006045384e+00
0.000000000000000000e+00 9.654400000000000264e-04 1.249016240956386525e+00
2.812500000000000069e-02 2.504580000000000174e-03 4.832950880792169501e-01
0.000000000000000000e+00 2.058879999999999912e-04 5.255291643386067468e-01
0.000000000000000000e+00 2.535100000000000200e-03 9.292527314577525566e-02
0.000000000000000000e+00 4.289960000000000106e-04 4.803260193783471799e+00
0.000000000000000000e+00 1.583299999999999942e-03 3.133780624009702143e-01
9.374999999999999653e-03 1.754939999999999972e-03 2.618865224034225392e+00
0.000000000000000000e+00 1.079040000000000077e-03 3.712065018542242800e+00
0.000000000000000000e+00 8.787060000000000400e-04 3.738120384296883092e+00
0.000000000000000000e+00 3.547840000000000021e-03 9.385367481063933148e-01
0.000000000000000000e+00 1.154440000000000067e-03 4.644795342746260935e+00
9.374999999999999653e-03 9.311129999999999407e-02 5.691502866960751472e-01
0.000000000000000000e+00 1.178320000000000062e-02 2.171844415079472235e+00
3.125000000000000173e-03 5.269819999999999713e-03 4.811174232010221985e+00
0.000000000000000000e+00 1.794880000000000000e-03 4.212677534684853065e+00
2.187499999999999861e-02 1.898299999999999901e-03 3.664511859247979064e+00
3.125000000000000173e-03 7.786379999999999864e-03 1.364874460076659357e-01
0.000000000000000000e+00 4.384869999999999914e-04 4.164774182360162058e+00
1.562500000000000000e-02 1.899580000000000105e-03 6.775972040624861359e-01
2.500000000000000139e-02 1.878080000000000071e-03 4.903114805239921381e+00
2.500000000000000139e-02 2.971580000000000141e-03 9.475525559779041096e-02
3.125000000000000173e-03 1.867839999999999952e-03 9.404408326387930783e-01
0.000000000000000000e+00 2.758590000000000000e-03 1.540926927714727057e+00
3.125000000000000173e-03 5.230030000000000096e-03 7.824246255625111335e-02
3.437500000000000278e-02 9.261329999999999563e-02 2.365091907541111427e-01
0.000000000000000000e+00 1.066820000000000008e-03 4.750223103152843684e+00
1.874999999999999931e-02 3.187900000000000022e-03 4.374926279141120311e+00
1.874999999999999931e-02 2.397960000000000022e-02 2.391005270261107540e+00
0.000000000000000000e+00 4.030080000000000012e-04 3.440178195795751126e-01
1.562500000000000000e-02 2.324029999999999933e-03 1.772446512823070419e+00
3.125000000000000173e-03 4.349949999999999997e-03 4.886581382851867161e+00
0.000000000000000000e+00 8.019840000000000519e-04 3.220370083526437277e+00
0.000000000000000000e+00 2.907900000000000155e-03 2.424757422910394755e+00
0.000000000000000000e+00 5.861669999999999598e-04 1.313407890416516954e+00
0.000000000000000000e+00 8.271360000000000171e-04 3.570166173816909705e+00
3.125000000000000173e-03 4.304900000000000393e-03 4.570945840734835786e-01
0.000000000000000000e+00 1.259160000000000054e-03 8.624934324050859136e-01
0.000000000000000000e+00 1.863620000000000077e-03 1.270996973338032632e+00
1.250000000000000069e-02 2.008830000000000077e-03 4.129781977513501623e+00
3.125000000000000173e-03 4.558139999999999588e-03 1.475939040763328158e+00
0.000000000000000000e+00 1.676420000000000080e-03 2.240312987618667151e+00
0.000000000000000000e+00 1.125700000000000095e-03 1.870797524611090834e+00
2.187499999999999861e-02 9.533010000000000095e-02 3.578231532491621181e+00
1.874999999999999931e-02 2.162879999999999837e-03 2.747241026839714273e+00
9.374999999999999653e-03 2.631810000000000052e-02 1.424717695755685076e+00
3.125000000000000173e-03 4.449540000000000092e-03 4.845126293571659915e+00
1.250000000000000069e-02 1.780799999999999918e-03 2.381539958062152351e+00
0.000000000000000000e+00 1.939290000000000111e-02 4.468777894006167983e+00
3.125000000000000000e-02 1.056219999999999937e-01 2.796233838357869983e-01
0.000000000000000000e+00 6.660480000000000306e-04 1.260705918162963179e-01
3.125000000000000173e-03 4.301120000000000290e-03 4.524462897594010435e+00
0.000000000000000000e+00 1.717570000000000078e-03 1.801466470804398146e+00
2.500000000000000139e-02 2.913409999999999958e-03 1.786205773345949765e+00
0.000000000000000000e+00 1.790270000000000056e-03 1.738994599705355748e+00
0.000000000000000000e+00 4.454439999999999615e-03 1.696316217311333752e+00
1.874999999999999931e-02 9.512710000000000610e-02 1.854839153274460806e+00
4.374999999999999722e-02 9.302199999999999358e-02 2.018992838448185889e+00
2.500000000000000139e-02 9.148309999999999775e-02 4.887686430363019419e+00
0.000000000000000000e+00 1.575360000000000042e-03 5.761031272640515510e-01
0.000000000000000000e+00 3.725529999999999814e-02 6.891828759071977339e-01
0.000000000000000000e+00 4.234049999999999619e-03 2.512312551812711625e+00
2.187499999999999861e-02 1.789950000000000005e-03 1.464207585799759403e+00
3.125000000000000173e-03 1.859140000000000011e-03 1.751003073647432906e+00
0.000000000000000000e+00 1.047809999999999931e-03 2.735610085039902550e+00
0.000000000000000000e+00 0.000000000000000000e+00 3.859941223177538294e+00
9.374999999999999653e-03 2.426240000000000081e-03 1.577972988971023227e+00
3.125000000000000000e-02 7.956859999999999628e-03 3.775104578047077553e+00
2.187499999999999861e-02 1.356479999999999969e-03 3.289532496555653829e+00
0.000000000000000000e+00 5.604220000000000035e-03 2.800565498704549183e-01
5.937499999999999722e-02 2.649730000000000141e-02 1.807770121239853811e+00
2.812500000000000069e-02 2.023039999999999821e-03 1.357577369778169007e+00
1.874999999999999931e-02 1.166050000000000073e-02 4.071487614737745453e-02
0.000000000000000000e+00 8.957439999999999673e-04 3.489508655436425855e+00
2.812500000000000069e-02 3.052290000000000038e-03 4.526384383069983031e+00
3.125000000000000173e-03 1.754820000000000034e-03 2.237072517506200064e-01
3.125000000000000173e-03 1.483529999999999918e-02 3.811504647936321710e+00
0.000000000000000000e+00 4.201470000000000009e-04 1.994174208608700649e+00
2.812500000000000069e-02 4.562049999999999786e-03 1.286379877281868644e+00
3.125000000000000173e-03 3.429699999999999936e-03 1.452312938546659327e+00
0.000000000000000000e+00 9.940030000000000306e-04 2.105687445120196788e-01
0.000000000000000000e+00 1.513220000000000016e-02 4.899492492621416950e+00
0.000000000000000000e+00 1.170620000000000037e-03 4.367296632390736733e+00
0.000000000000000000e+00 1.119420000000000094e-03 5.590458478979665191e-01
0.000000000000000000e+00 8.727680000000000030e-04 4.156386789735871945e-01
3.125000000000000173e-03 7.588739999999999375e-02 1.038699721204580095e+00
0.000000000000000000e+00 4.929470000000000032e-03 3.444054894073533379e+00
0.000000000000000000e+00 3.966719999999999860e-04 3.287686101961235341e+00
0.000000000000000000e+00 2.234960000000000028e-05 1.844629186142100474e+00
6.250000000000000347e-03 1.388029999999999950e-03 1.246395582608739172e+00
3.125000000000000173e-03 1.915969999999999913e-03 4.765608656952641908e+00
1.874999999999999931e-02 2.402109999999999836e-03 1.235238223727288531e+00
3.125000000000000173e-03 4.996160000000000358e-03 4.568735381071572732e+00
0.000000000000000000e+00 1.178749999999999893e-03 4.244777917779271270e+00
0.000000000000000000e+00 9.859840000000000791e-04 4.642198631029560651e+00
0.000000000000000000e+00 8.187480000000000018e-04 1.585595256043003110e+00
0.000000000000000000e+00 7.253820000000000016e-04 9.935798444902477211e-01
1.562500000000000000e-02 2.686909999999999819e-03 3.688487497444171481e+00
9.374999999999999653e-03 9.777160000000000017e-02 2.105258920108008081e+00
0.000000000000000000e+00 6.449799999999999978e-02 2.625158022727436258e+00
1.874999999999999931e-02 8.855740000000000833e-03 1.910082884948896442e+00
2.812500000000000069e-02 3.012030000000000176e-03 1.626325154531845119e+00
1.562500000000000000e-02 6.936509999999999898e-03 4.746134150319257117e+00
0.000000000000000000e+00 1.195650000000000011e-02 1.226653271143662405e+00
0.000000000000000000e+00 2.579459999999999999e-03 4.090941819135413660e+00
2.812500000000000069e-02 2.284990000000000198e-03 2.126478452274727093e+00
3.125000000000000173e-03 4.688320000000000161e-03 2.999709022111368029e+00
2.187499999999999861e-02 2.123710000000000007e-03 1.932163007955265410e+00
6.250000000000000347e-03 1.072350000000000039e-02 8.714518253850550566e-01
0.000000000000000000e+00 4.442580000000000010e-04 1.630728641855474503e+00
0.000000000000000000e+00 2.864459999999999880e-04 2.550267525152676296e+00
1.562500000000000000e-02 1.622780000000000099e-03 2.122495418075414975e+00
2.187499999999999861e-02 9.411680000000000046e-02 4.687610659356752585e+00
6.250000000000000347e-03 2.219650000000000095e-03 3.006919688625151910e+00
5.000000000000000278e-02 2.642190000000000163e-02 2.841615177194018571e+00
0.000000000000000000e+00 9.034880000000000341e-04 4.763151475213986075e+00
0.000000000000000000e+00 1.639680000000000130e-04 7.213605943754208827e-01
6.250000000000000347e-03 4.505340000000000039e-03 5.579803281265460768e-01
3.437500000000000278e-02 9.581710000000000227e-02 2.149634284582090160e+00
0.000000000000000000e+00 9.838080000000000783e-04 2.236359332446772541e+00
0.000000000000000000e+00 7.598079999999999461e-04 3.305897816593361238e+00
6.250000000000000347e-03 3.693339999999999818e-03 4.613556193068612643e+00
3.125000000000000173e-03 1.876419999999999954e-03 3.254978837461265151e+00
1.250000000000000069e-02 5.250369999999999863e-03 1.263948740035051310e+00
1.874999999999999931e-02 1.980539999999999818e-03 3.804729927084897767e+00
0.000000000000000000e+00 1.645699999999999941e-03 1.034577108424920011e+00
2.812500000000000069e-02 7.174019999999999703e-03 4.132720886681396699e+00
0.000000000000000000e+00 9.944319999999999549e-04 3.132499267801680531e-03
1.874999999999999931e-02 1.298410000000000016e-02 4.629860162883836061e+00
9.374999999999999653e-03 1.799419999999999926e-03 3.836932675646460122e+00
3.125000000000000173e-03 2.080770000000000015e-03 3.164465962591879844e+00
0.000000000000000000e+00 3.760929999999999785e-04 2.497186059212934239e+00
0.000000000000000000e+00 5.147709999999999786e-03 4.271952615336337189e+00
0.000000000000000000e+00 1.006079999999999963e-04 3.735495985819849984e+00
2.187499999999999861e-02 9.106069999999999443e-02 2.528701819679520124e+00
1.562500000000000000e-02 1.736960000000000066e-03 2.064283812979541555e+00
0.000000000000000000e+00 4.184160000000000136e-04 3.233054807819745857e+00
2.500000000000000139e-02 1.903809999999999921e-03 2.268437660358639807e+00
1.562500000000000000e-02 9.468999999999999639e-02 1.323136924516028490e+00
0.000000000000000000e+00 5.136210000000000081e-02 2.805783095323032938e+00
0.000000000000000000e+00 5.780219999999999976e-03 1.474641956847233981e+00
0.000000000000000000e+00 1.331129999999999987e-02 1.665891928998745719e+00
0.000000000000000000e+00 9.840639999999999891e-04 4.937729221477969332e+00
3.125000000000000173e-03 2.172540000000000148e-03 3.863047330775398747e-01
0.000000000000000000e+00 1.429380000000000060e-03 1.071054213392048204e+00
2.500000000000000139e-02 3.068669999999999905e-03 3.547554036347908557e+00
3.125000000000000173e-03 4.606780000000000423e-03 4.021493139626223012e+00
0.000000000000000000e+00 5.677440000000000177e-04 3.360456437801842888e+00
0.000000000000000000e+00 6.462520000000000460e-04 4.676871915952697023e+00
0.000000000000000000e+00 4.341120000000000070e-04 4.853414905098734522e+00
0.000000000000000000e+00 2.274809999999999994e-05 4.073055597784344783e+00
0.000000000000000000e+00 0.000000000000000000e+00 2.682459722521179479e+00
3.125000000000000000e-02 3.589309999999999723e-02 3.148865240661863574e+00
0.000000000000000000e+00 9.571199999999999977e-04 3.934540670201002843e+00
1.250000000000000069e-02 2.272580000000000173e-03 2.810570731703927017e+00
2.500000000000000139e-02 2.188480000000000026e-03 2.930473137131262451e+00
0.000000000000000000e+00 2.834049999999999851e-03 4.445915457436409923e+00
1.250000000000000069e-02 2.548030000000000173e-03 5.636133865240144925e-02
0.000000000000000000e+00 4.173900000000000136e-04 3.370973948109071472e+00
3.125000000000000173e-03 2.445359999999999895e-02 5.631773187801469849e-01
3.125000000000000000e-02 3.589309999999999723e-02 3.566951390997231464e+00
6.250000000000000347e-03 1.058349999999999985e-01 4.916509565908167012e-01
5.937499999999999722e-02 9.254270000000000551e-02 2.316745762440217682e+00
0.000000000000000000e+00 7.495040000000000122e-04 1.483347617127698914e+00
0.000000000000000000e+00 1.076350000000000006e-03 4.161021724180000270e+00
0.000000000000000000e+00 1.705729999999999920e-03 3.065260413658427829e+00
0.000000000000000000e+00 4.701570000000000402e-03 2.161812756817082626e+00
0.000000000000000000e+00 9.822719999999999629e-04 6.884259291040845108e-01
0.000000000000000000e+00 1.064190000000000014e-03 4.388885888870914798e+00
0.000000000000000000e+00 5.933460000000000123e-02 2.190959271554458354e+00
1.250000000000000069e-02 1.504899999999999988e-03 4.163666254631023023e+00
3.125000000000000173e-03 3.314109999999999886e-03 4.076284075780830740e+00
0.000000000000000000e+00 4.173250000000000202e-04 2.447926328948605068e+00
3.125000000000000173e-03 1.474950000000000046e-02 1.781970231616685219e+00
0.000000000000000000e+00 1.138050000000000042e-03 5.459453473172282134e-01
2.500000000000000139e-02 9.333859999999999379e-02 4.549952542332667882e+00
2.812500000000000069e-02 9.272840000000000249e-02 2.363197293513669806e+00
0.000000000000000000e+00 1.000000000000000021e-03 1.292616161670425257e+00
2.500000000000000139e-02 9.898759999999999504e-02 4.917994743227130705e+00
1.250000000000000069e-02 2.245500000000000100e-03 3.933000294412318798e+00
2.500000000000000139e-02 1.696510000000000032e-03 4.398862775329447139e+00
0.000000000000000000e+00 6.420669999999999850e-03 1.264525475470024141e+00
0.000000000000000000e+00 9.359999999999999831e-04 4.703658302445763439e+00
1.250000000000000069e-02 1.066209999999999944e-03 2.134818139674374837e+00
0.000000000000000000e+00 6.338349999999999540e-02 1.462990363455755727e+00
6.250000000000000347e-03 1.053489999999999982e-01 6.842210941743731567e-01
1.250000000000000069e-02 9.684610000000000440e-02 1.242146544067210812e+00
3.437500000000000278e-02 1.027319999999999969e-02 4.804330034718989673e+00
3.125000000000000173e-03 4.964879999999999641e-03 4.754897206551546240e+00
0.000000000000000000e+00 4.147840000000000186e-04 2.871068469712614757e+00
0.000000000000000000e+00 4.171520000000000067e-04 3.520568635348058528e+00
0.000000000000000000e+00 1.021320000000000040e-03 3.066905902468541445e+00
2.187499999999999861e-02 2.070849999999999948e-03 3.228480610071904788e+00
6.250000000000000347e-03 9.952969999999999873e-02 4.735505450882028455e+00
0.000000000000000000e+00 3.869300000000000105e-04 4.278004157217467629e+00
7.499999999999999722e-02 8.110370000000000079e-02 4.715776800615527620e+00
3.125000000000000173e-03 4.389310000000000433e-03 1.870886710018106580e+00
0.000000000000000000e+00 3.206529999999999971e-03 4.327749472652449469e+00
3.437500000000000278e-02 7.104189999999999811e-03 1.424325336078639648e+00
5.625000000000000139e-02 3.997789999999999677e-02 6.017508304057411772e-01
0.000000000000000000e+00 1.001729999999999938e-03 4.968470490585178645e+00
3.125000000000000173e-03 1.955520000000000088e-03 1.119758560336945319e+00
9.374999999999999653e-03 1.890619999999999974e-03 8.441351822118220438e-01
0.000000000000000000e+00 6.052349999999999744e-03 4.194148917317991554e+00
0.000000000000000000e+00 4.032640000000000204e-04 3.421586983489777634e+00
6.250000000000000347e-03 5.661570000000000318e-03 2.267538014240078059e+00
0.000000000000000000e+00 4.463360000000000417e-03 2.978915829146202565e+00
3.125000000000000173e-03 2.202369999999999935e-03 1.756661823582994941e+00
1.250000000000000069e-02 1.505980000000000079e-03 4.217993954634730036e-01
0.000000000000000000e+00 4.032640000000000204e-04 4.151717713655274977e+00
3.125000000000000173e-03 9.933670000000000000e-02 3.213082206674933161e-02
6.250000000000000347e-03 9.008330000000000504e-02 1.222215050786196189e-01
3.125000000000000000e-02 6.500670000000000222e-05 2.582282424013564892e+00
2.812500000000000069e-02 2.133440000000000059e-01 4.382269778063943910e+00
0.000000000000000000e+00 4.304709999999999787e-04 1.316995184248298534e-01
1.250000000000000069e-02 1.504319999999999963e-03 9.050362188084637438e-02
0.000000000000000000e+00 9.112960000000000244e-04 2.718092039640506830e+00
1.874999999999999931e-02 1.827389999999999917e-03 2.332849496568327741e+00
0.000000000000000000e+00 2.271849999999999941e-05 1.587202414015610463e+00
0.000000000000000000e+00 2.543039999999999884e-03 4.147815548900424254e+00
0.000000000000000000e+00 1.186500000000000055e-03 6.749570117440922834e-01
3.125000000000000000e-02 2.125809999999999922e-01 1.433979893276223772e+00
0.000000000000000000e+00 2.986180000000000171e-03 2.566402588778891047e+00
0.000000000000000000e+00 7.607679999999999911e-04 4.623570646107880933e+00
3.125000000000000173e-03 2.073020000000000071e-03 2.775196233568804072e+00
1.250000000000000069e-02 7.699840000000000330e-04 3.552376850146065745e+00
0.000000000000000000e+00 3.821440000000000058e-04 2.857688802856219290e+00
0.000000000000000000e+00 9.411839999999999659e-04 4.509566144046941005e+00
0.000000000000000000e+00 5.803369999999999970e-04 3.160090778140688172e+00
0.000000000000000000e+00 4.237380000000000009e-04 4.258910898968260916e+00
9.374999999999999653e-03 2.323330000000000187e-03 2.034203264623779539e-02
0.000000000000000000e+00 5.638400000000000009e-03 4.416655273422177785e+00
0.000000000000000000e+00 6.262720000000000266e-03 3.695083819797229108e+00
1.874999999999999931e-02 1.841600000000000095e-03 2.282738755097609484e+00
3.125000000000000173e-03 9.695679999999999923e-03 5.302572830692603434e-01
0.000000000000000000e+00 2.704699999999999986e-03 5.273158246728942844e-01
2.187499999999999861e-02 2.475520000000000151e-03 2.808472537562072269e+00
6.250000000000000347e-03 1.067110000000000003e-01 8.462024556393715757e-01
0.000000000000000000e+00 7.229570000000000267e-03 2.444705558062140405e+00
0.000000000000000000e+00 4.148889999999999913e-04 2.298926830340631611e+00
0.000000000000000000e+00 1.739969999999999972e-03 5.385839078876164532e-01
9.374999999999999653e-03 2.186179999999999807e-03 3.131111478549077454e+00
1.250000000000000069e-02 2.204799999999999816e-03 6.806262498809634298e-01
0.000000000000000000e+00 3.742330000000000201e-04 2.044788226051503344e+00
0.000000000000000000e+00 1.309889999999999969e-03 3.833515728157310676e+00
0.000000000000000000e+00 1.153790000000000024e-03 4.519492266915531076e+00
0.000000000000000000e+00 3.045250000000000214e-03 3.968761220976166015e+00
0.000000000000000000e+00 9.824639999999999502e-04 8.191239168047736996e-01
0.000000000000000000e+00 0.000000000000000000e+00 1.039984999969634671e+00
3.125000000000000173e-03 1.140350000000000044e-03 2.282018445980349419e+00
0.000000000000000000e+00 4.344470000000000233e-04 1.851906680697029683e-01
0.000000000000000000e+00 6.926019999999999746e-03 2.332155662249974171e+00
4.062500000000000139e-02 9.450210000000000554e-02 2.232447299406806085e+00
1.874999999999999931e-02 2.105730000000000102e-03 4.142138718616911186e-01
5.000000000000000278e-02 9.188380000000000158e-02 1.189614650575652188e+00
0.000000000000000000e+00 1.631169999999999929e-03 2.814737801479125334e+00
1.562500000000000000e-02 1.423920000000000047e-02 2.198613782680606921e+00
0.000000000000000000e+00 8.983040000000000512e-04 3.296200484290256583e+00
3.125000000000000173e-03 1.628990000000000082e-03 2.941097017419404658e+00
0.000000000000000000e+00 3.333119999999999963e-04 2.265250193223865338e+00
1.874999999999999931e-02 1.528959999999999998e-03 1.715682566583352386e+00
3.125000000000000173e-03 1.723099999999999979e-03 3.100687088711555628e+00
3.125000000000000173e-03 5.184700000000000419e-03 4.358739987571938812e+00
1.250000000000000069e-02 2.208320000000000161e-03 3.503898637818952277e+00
1.062499999999999972e-01 9.873500000000000332e-02 1.508309383217640409e+00
3.125000000000000173e-03 1.874240000000000107e-03 4.268081482689182415e+00
2.187499999999999861e-02 2.309439999999999844e-03 3.077873810439315516e+00
2.500000000000000139e-02 2.272000000000000148e-03 3.189873273887987359e+00
0.000000000000000000e+00 2.273809999999999834e-05 4.531751680485379907e+00
2.187499999999999861e-02 2.220800000000000204e-03 6.005186622929314932e-02
0.000000000000000000e+00 1.823360000000000107e-04 2.590138030750023468e+00
2.500000000000000139e-02 3.051579999999999918e-03 2.105774471528112368e+00
0.000000000000000000e+00 9.549439999999999968e-04 2.802183813661656142e+00
9.374999999999999653e-03 9.777160000000000017e-02 9.610050458124752559e-01
0.000000000000000000e+00 8.766719999999999981e-04 1.445736281437677295e+00
0.000000000000000000e+00 1.876990000000000039e-03 4.542070614658932470e+00
0.000000000000000000e+00 9.907320000000000276e-04 7.772348548538560165e-01
0.000000000000000000e+00 4.658110000000000028e-03 1.698342877916921179e+00
0.000000000000000000e+00 4.145679999999999786e-04 1.887594306162654334e-01
0.000000000000000000e+00 4.021760000000000200e-04 4.816309340695737795e+00
3.125000000000000173e-03 6.666189999999999616e-02 5.076779936187364450e-01
0.000000000000000000e+00 6.962690000000000112e-04 1.702004928345715040e+00
3.125000000000000173e-03 5.142660000000000287e-03 4.739804554974897499e+00
3.125000000000000000e-02 8.105470000000000036e-03 4.025361873909507615e+00
2.812500000000000069e-02 9.306849999999999845e-02 4.206193287664550695e+00
8.749999999999999445e-02 4.131139999999999812e-02 2.707939508938272510e+00
0.000000000000000000e+00 4.139519999999999832e-04 2.939792858641880446e+00
0.000000000000000000e+00 9.542399999999999710e-04 9.904830811019676995e-01
0.000000000000000000e+00 2.712319999999999835e-03 3.937311986185378032e+00
0.000000000000000000e+00 2.269189999999999868e-05 1.669614145097531033e+00
0.000000000000000000e+00 1.376190000000000009e-03 2.604429402769340207e+00
1.562500000000000000e-02 2.322620000000000066e-03 3.002394338999198053e-01
2.500000000000000139e-02 2.855550000000000102e-03 6.617609031822713206e-01
3.125000000000000173e-03 9.642480000000000495e-02 4.337126725036747565e+00
2.500000000000000139e-02 9.291620000000000434e-02 1.514312373866070205e+00
2.187499999999999861e-02 7.004100000000000083e-03 3.621296099032640825e+00
3.125000000000000173e-03 4.296379999999999817e-03 4.678366640280972710e+00
2.812500000000000069e-02 2.331010000000000113e-03 3.052678318453439843e+00
3.125000000000000173e-03 4.551170000000000215e-03 3.075967194358053103e+00
9.374999999999999653e-03 9.326030000000000431e-02 4.588526831002385897e+00
0.000000000000000000e+00 1.640380000000000093e-03 2.345808079854827088e+00
3.125000000000000173e-03 1.810179999999999992e-03 2.198940134687095593e+00
1.874999999999999931e-02 1.623939999999999932e-03 3.152106535320802205e+00
0.000000000000000000e+00 1.180799999999999943e-04 4.885876807520894705e-02
0.000000000000000000e+00 6.533059999999999822e-04 1.186383814013296512e+00
0.000000000000000000e+00 1.711939999999999903e-03 4.373894119294670979e+00
0.000000000000000000e+00 3.611839999999999842e-03 3.263394995893031059e+00
3.125000000000000173e-03 4.311620000000000383e-03 1.878801962082607524e+00
0.000000000000000000e+00 3.491619999999999750e-04 4.621985817864112001e+00
2.500000000000000139e-02 2.041859999999999942e-03 1.983360164103833867e+00
0.000000000000000000e+00 1.104380000000000075e-03 4.384000456162934212e-01
0.000000000000000000e+00 7.378219999999999570e-04 4.641687641188635638e+00
3.125000000000000000e-02 4.748569999999999874e-02 6.061661912524285434e-01
0.000000000000000000e+00 9.079469999999999858e-04 4.084170149448193676e+00
0.000000000000000000e+00 2.160449999999999957e-05 3.640333606285517387e+00
0.000000000000000000e+00 2.233750000000000086e-05 8.366269644359158875e-01
2.187499999999999861e-02 1.785150000000000105e-03 1.209943478118386651e+00
0.000000000000000000e+00 5.379449999999999597e-04 4.963570727672735217e+00
0.000000000000000000e+00 4.240590000000000136e-04 3.782783807217851901e+00
0.000000000000000000e+00 1.392060000000000086e-03 9.169609932744349212e-01
0.000000000000000000e+00 7.255739999999999889e-04 4.252925232000650979e+00
0.000000000000000000e+00 9.573760000000000169e-04 4.283974632752785894e+00
2.500000000000000139e-02 2.575099999999999872e-03 9.617514394716719650e-01
3.125000000000000173e-03 4.468989999999999942e-03 1.828947008659288498e+00
2.187499999999999861e-02 1.045349999999999925e-02 3.189261780524802248e+00
0.000000000000000000e+00 3.774399999999999912e-04 3.743920915965810448e+00
0.000000000000000000e+00 3.680450000000000041e-03 2.628736210817113061e+00
0.000000000000000000e+00 0.000000000000000000e+00 4.281704414859754948e-01
0.000000000000000000e+00 1.046199999999999951e-03 4.445101133532999960e+00
2.500000000000000139e-02 3.196100000000000330e-02 2.028435594521582619e+00
0.000000000000000000e+00 9.417600000000000363e-04 3.517562288640567303e+00
0.000000000000000000e+00 2.313559999999999919e-05 3.240832598774120221e+00
0.000000000000000000e+00 2.094080000000000117e-04 4.244302194078414026e+00
1.874999999999999931e-02 2.171709999999999873e-03 9.890526727127468831e-01
9.374999999999999653e-03 1.271170000000000069e-03 3.524843646240092720e+00
0.000000000000000000e+00 5.132610000000000124e-03 1.422870331603566907e+00
3.125000000000000173e-03 2.240320000000000072e-03 3.148752564858931624e+00
0.000000000000000000e+00 7.312809999999999666e-04 4.776546531724451761e+00
0.000000000000000000e+00 1.034079999999999938e-03 1.695180411860232050e+00
6.250000000000000347e-03 1.643189999999999928e-02 8.656635131904621971e-01
0.000000000000000000e+00 2.281849999999999845e-05 3.821465500690823802e-01
0.000000000000000000e+00 2.499200000000000033e-03 2.682028021950222829e+00
0.000000000000000000e+00 1.575549999999999997e-03 5.110968433250584475e-01
0.000000000000000000e+00 7.269849999999999793e-04 3.230739642139646151e-01
2.812500000000000069e-02 2.255360000000000090e-03 9.642787767348048877e-01
5.000000000000000278e-02 5.013539999999999663e-02 4.390866624485703085e+00
0.000000000000000000e+00 1.482369999999999998e-03 2.238741455765210553e+00
1.250000000000000069e-02 2.549060000000000128e-03 1.149555674691624230e+00
0.000000000000000000e+00 7.479219999999999965e-03 1.295327785114843699e+00
2.500000000000000139e-02 2.012159999999999817e-03 2.602003139299213785e+00
0.000000000000000000e+00 2.315409999999999910e-05 2.123201993019119715e+00
0.000000000000000000e+00 1.488579999999999981e-03 1.473869386558754879e+00
0.000000000000000000e+00 4.190570000000000232e-04 1.547033756815263672e+00
1.062499999999999972e-01 9.090260000000000007e-02 2.748360944829892905e+00
0.000000000000000000e+00 3.411449999999999899e-03 4.676925706633072721e-01
3.125000000000000173e-03 4.405250000000000311e-03 3.960436485454754685e+00
2.500000000000000139e-02 2.341179999999999997e-03 3.784038236363157504e-01
0.000000000000000000e+00 1.000089999999999920e-03 4.230020118632030979e+00
1.562500000000000000e-02 8.538429999999999631e-03 1.296751067975232097e+00
1.874999999999999931e-02 9.540559999999999319e-02 4.190464605714673496e+00
0.000000000000000000e+00 4.378840000000000163e-03 3.183235833555797978e+00
1.250000000000000069e-02 2.632850000000000121e-02 2.592650930996465153e-01
0.000000000000000000e+00 1.493590000000000022e-02 2.829299398396545318e-02
0.000000000000000000e+00 5.749060000000000281e-03 1.356762833540137159e-02
6.250000000000000347e-03 9.498360000000000136e-02 1.998994113562163610e+00
0.000000000000000000e+00 1.286459999999999904e-03 4.507877297499581992e+00
3.125000000000000173e-03 2.508250000000000063e-03 6.893227002664525926e-01
1.250000000000000069e-02 2.880900000000000041e-03 1.590238313346258314e+00
3.125000000000000173e-03 2.656570000000000025e-03 7.164696741746207076e-01
3.125000000000000173e-03 3.233220000000000191e-03 3.452493695919383043e+00
0.000000000000000000e+00 5.629440000000000095e-04 4.516154246186537158e+00
6.250000000000000347e-03 1.763709999999999931e-03 3.223451563704193834e-01
0.000000000000000000e+00 7.283959999999999697e-04 3.327863909103402129e+00
0.000000000000000000e+00 9.400959999999999655e-04 1.137706678042787356e+00
0.000000000000000000e+00 1.103400000000000040e-03 2.054271636534604095e+00
0.000000000000000000e+00 1.233149999999999915e-03 3.334792189145624697e+00
5.312499999999999861e-02 9.281359999999999610e-02 9.180339339763021744e-01
0.000000000000000000e+00 1.454360000000000028e-03 3.307343220369664660e+00
6.250000000000000347e-03 2.074110000000000103e-03 1.528721850668876003e+00
9.374999999999999653e-03 1.855490000000000004e-03 7.787818272256358254e-01
0.000000000000000000e+00 2.025340000000000040e-03 3.035841754224228861e+00
0.000000000000000000e+00 1.026369999999999973e-03 1.220275081113164628e+00
0.000000000000000000e+00 1.764970000000000146e-05 3.028678016872357937e+00
3.125000000000000000e-02 2.256129999999999854e-03 4.987236831666713721e-01
0.000000000000000000e+00 3.778890000000000135e-04 5.815222253072632741e-01
1.874999999999999931e-02 9.329360000000000430e-02 3.203869894534280505e+00
1.874999999999999931e-02 8.836540000000000367e-03 3.429517404294835092e-01
6.250000000000000347e-03 1.031579999999999997e-02 2.680955419692165886e-01
0.000000000000000000e+00 9.091200000000000236e-04 3.579137302757358086e+00
0.000000000000000000e+00 8.175360000000000005e-04 4.289430022312727075e+00
2.500000000000000139e-02 2.956540000000000123e-03 2.704682353569928033e+00
0.000000000000000000e+00 1.171839999999999948e-03 4.964714293282256108e+00
3.125000000000000173e-03 4.336829999999999852e-03 3.044323440128237745e+00
0.000000000000000000e+00 1.169150000000000094e-03 4.988186944708983273e-02
1.562500000000000000e-02 2.958780000000000091e-02 7.548841894652419393e-01
0.000000000000000000e+00 5.431550000000000267e-03 1.293841187264459069e+00
2.812500000000000069e-02 8.306819999999999482e-03 1.343769007605005728e+00
2.500000000000000139e-02 3.019519999999999930e-03 4.953972645953814258e+00
2.500000000000000139e-02 2.155779999999999936e-03 2.764532606690916161e+00
6.250000000000000347e-03 2.710719999999999796e-03 1.220975338407925825e-03
3.125000000000000173e-03 3.693500000000000168e-03 1.592380502898529393e+00
9.374999999999999653e-03 9.645070000000000032e-02 2.135917208672328371e+00
9.687500000000000278e-02 9.060580000000000023e-02 1.975573814428728703e+00
3.125000000000000173e-03 1.505019999999999926e-03 4.810056070158641006e+00
2.812500000000000069e-02 7.911170000000000355e-03 2.822047114377334687e+00
1.562500000000000000e-02 5.019580000000000049e-03 1.698722914825243180e+00
0.000000000000000000e+00 1.130109999999999925e-03 4.409231295375131587e+00
2.187499999999999861e-02 3.167039999999999873e-03 3.583053043759538703e+00
3.125000000000000173e-03 2.421759999999999798e-03 2.402034593500514514e+00
0.000000000000000000e+00 1.738619999999999966e-03 3.063102235019202091e+00
1.874999999999999931e-02 1.991419999999999822e-03 1.684412733250526983e+00
0.000000000000000000e+00 1.034240000000000045e-04 2.369030436930370520e+00
4.374999999999999722e-02 9.268429999999999724e-02 3.193316691534673346e+00
1.562500000000000000e-02 2.487420000000000169e-03 3.467557063075772383e+00
0.000000000000000000e+00 1.145149999999999944e-03 4.188885744187154536e+00
0.000000000000000000e+00 1.303230000000000057e-03 3.915282490715459751e+00
1.874999999999999931e-02 2.266300000000000172e-03 2.369713279261574712e+00
2.500000000000000139e-02 5.043780000000000312e-03 4.455640633435966613e+00
6.250000000000000347e-03 1.813060000000000019e-03 4.062971967356541647e+00
2.500000000000000139e-02 6.911549999999999812e-03 3.759740717768462304e+00
2.187499999999999861e-02 2.226559999999999824e-03 4.702001149084514608e+00
6.250000000000000347e-03 9.737679999999999947e-02 3.712722058670432812e+00
0.000000000000000000e+00 5.120000000000000419e-03 2.317001641386547295e+00
0.000000000000000000e+00 3.861609999999999912e-04 2.810362612034502217e+00
0.000000000000000000e+00 4.376129999999999777e-03 4.903745238423345976e-01
0.000000000000000000e+00 4.779879999999999914e-04 7.648230422768237391e-01
3.125000000000000173e-03 4.352380000000000311e-03 2.749920605595526091e+00
3.125000000000000173e-03 4.379899999999999939e-03 3.572082247772903063e+00
2.187499999999999861e-02 5.402180000000000350e-03 4.661669495491228332e+00
1.562500000000000000e-02 1.036419999999999919e-03 1.418804628278836244e+00
3.125000000000000173e-03 2.459709999999999935e-03 2.842234554297359939e+00
9.374999999999999653e-03 1.273660000000000026e-03 3.784420929559453750e+00
9.374999999999999653e-03 2.112639999999999831e-03 3.550066923556709497e+00
0.000000000000000000e+00 4.762429999999999788e-03 4.109021822371456523e+00
4.374999999999999722e-02 2.352200000000000124e-02 1.767753868989192512e+00
6.250000000000000347e-03 2.841220000000000204e-03 2.384531491106772982e+00
2.500000000000000139e-02 4.716989999999999898e-03 1.344560357348445478e-01
0.000000000000000000e+00 4.464329999999999687e-02 2.908237314876248369e+00
1.250000000000000069e-02 9.379679999999999962e-02 4.179219217453412405e+00
0.000000000000000000e+00 3.680010000000000225e-02 4.735926046421036872e+00
0.000000000000000000e+00 8.583039999999999463e-04 4.747043834387191019e+00
9.374999999999999653e-03 1.462210000000000029e-03 7.433652969933463028e-01
0.000000000000000000e+00 1.415620000000000029e-03 2.028358353876118514e+00
0.000000000000000000e+00 1.006079999999999963e-04 4.720979485494980921e+00
1.562500000000000000e-02 2.655680000000000106e-03 4.178872028017838858e+00
1.874999999999999931e-02 6.365179999999999796e-03 3.985088204050586835e+00
0.000000000000000000e+00 6.979199999999999857e-04 4.698862077386568359e+00
2.187499999999999861e-02 2.257540000000000154e-03 7.820255840180534435e-01
0.000000000000000000e+00 4.048659999999999932e-03 3.405163402106457404e+00
3.125000000000000173e-03 9.768930000000000669e-02 1.654322296175137375e+00
0.000000000000000000e+00 2.306090000000000142e-05 4.564605879472677374e-01
2.500000000000000139e-02 2.945919999999999876e-03 1.966886631528941276e-01
0.000000000000000000e+00 1.506940000000000016e-03 8.536531585002937739e-01
0.000000000000000000e+00 1.046590000000000020e-03 1.985194757180111402e+00
6.250000000000000347e-03 1.973439999999999916e-03 1.781980715119790837e+00
3.125000000000000173e-03 4.288379999999999623e-03 1.444840732098248148e+00
0.000000000000000000e+00 1.577470000000000087e-03 2.160200525854248710e+00
0.000000000000000000e+00 3.015229999999999820e-03 4.636567343072382386e+00
0.000000000000000000e+00 5.064590000000000107e-04 3.018728933424813521e-01
9.374999999999999653e-03 2.112639999999999831e-03 2.254566302094807462e+00
6.250000000000000347e-03 1.728230000000000087e-03 1.589188001244224990e+00
1.562500000000000000e-02 9.170059999999999323e-02 2.106046941842074638e+00
9.374999999999999653e-03 9.545689999999999731e-02 4.526533551212758688e+00
0.000000000000000000e+00 8.074620000000000018e-04 2.432635328672588138e+00
0.000000000000000000e+00 1.147509999999999996e-04 3.226736325253981574e-01
0.000000000000000000e+00 3.386460000000000164e-02 4.298265216578785797e+00
0.000000000000000000e+00 1.845759999999999892e-03 4.408416112030446143e+00
