2.187499999999999861e-02 3.865540000000000209e-03 3.622170468662368137e+00
0.000000000000000000e+00 3.413890000000000154e-03 1.747240867297783051e+00
2.812500000000000069e-02 2.305339999999999907e-03 3.983537549460855587e+00
1.562500000000000000e-02 2.782020000000000066e-03 7.555236184040914349e-02
0.000000000000000000e+00 9.102550000000000051e-04 1.018806439842502964e+00
0.000000000000000000e+00 1.506680000000000042e-03 2.617884853482507879e+00
0.000000000000000000e+00 6.777540000000000300e-03 1.541668101869130281e+00
1.062499999999999972e-01 8.114050000000000429e-02 2.235061433559789812e+00
6.250000000000000347e-03 6.553599999999999703e-03 4.319963562540454660e+00
0.000000000000000000e+00 1.142910000000000020e-03 2.287750210723545230e+00
0.000000000000000000e+00 1.201280000000000099e-03 2.479747378784658451e+00
0.000000000000000000e+00 8.680320000000000267e-04 7.682655841132618457e-01
9.374999999999999653e-03 1.749310000000000014e-03 1.838944539409474999e+00
0.000000000000000000e+00 1.453120000000000019e-03 3.329741054244590881e+00
0.000000000000000000e+00 1.131840000000000060e-03 2.045340538651256868e+00
4.062500000000000139e-02 1.088409999999999933e-01 2.807929594966305231e+00
0.000000000000000000e+00 4.015360000000000261e-04 2.359319180904388524e+00
0.000000000000000000e+00 1.101949999999999978e-03 2.102413934725958278e+00
3.437500000000000278e-02 1.969260000000000108e-02 3.078930003927569103e+00
2.812500000000000069e-02 1.786880000000000022e-03 2.875848408238501630e+00
3.125000000000000173e-03 4.902659999999999657e-03 2.524677402044006591e-01
0.000000000000000000e+00 4.022559999999999786e-04 6.501717351219410412e-01
6.250000000000000347e-03 9.441470000000000418e-02 3.788392509391194540e+00
0.000000000000000000e+00 4.995200000000000421e-04 3.267456733096366861e+00
0.000000000000000000e+00 1.140420000000000062e-03 1.442239656797942304e+00
3.125000000000000173e-03 2.067840000000000043e-03 2.581386086438637317e+00
3.125000000000000173e-03 4.283140000000000384e-03 4.060151484405188249e+00
2.187499999999999861e-02 1.786749999999999927e-03 2.047627565328960397e+00
0.000000000000000000e+00 1.107839999999999910e-03 2.512057379964462100e+00
6.250000000000000347e-03 2.837820000000000013e-03 4.249832764961717579e+00
2.812500000000000069e-02 2.941309999999999931e-03 1.654144792256133201e+00
6.250000000000000347e-03 6.553599999999999703e-03 1.698968612896387675e+00
3.125000000000000173e-03 1.962049999999999905e-03 4.938081916849589525e+00
0.000000000000000000e+00 3.908860000000000112e-03 8.410018191170243185e-01
1.562500000000000000e-02 2.516579999999999859e-02 2.878350771099753569e+00
0.000000000000000000e+00 4.285439999999999952e-04 3.181788719714551128e-01
0.000000000000000000e+00 4.256170000000000092e-03 1.183745774434752374e-02
2.187499999999999861e-02 2.965629999999999915e-03 2.792583499492212074e+00
0.000000000000000000e+00 1.298979999999999926e-02 3.091746033621627809e+00
0.000000000000000000e+00 3.777280000000000264e-04 4.408549350681115975e+00
1.250000000000000069e-02 1.061160000000000020e-01 3.269063316283143728e+00
0.000000000000000000e+00 4.432040000000000285e-02 4.042903556156433709e+00
1.562500000000000000e-02 1.277310000000000034e-03 4.782848846459629932e+00
0.000000000000000000e+00 9.997439999999998932e-04 1.970763720432886057e+00
0.000000000000000000e+00 1.132159999999999894e-03 1.883214918831473961e+00
0.000000000000000000e+00 1.064260000000000032e-03 3.760357161655964120e+00
0.000000000000000000e+00 7.539460000000000432e-03 2.720466177163527455e+00
0.000000000000000000e+00 3.385019999999999869e-03 2.764508610976202263e+00
1.874999999999999931e-02 2.714939999999999888e-03 1.284529878167761208e+00
1.562500000000000000e-02 1.459519999999999958e-03 4.982178854018799896e+00
3.125000000000000173e-03 2.080770000000000015e-03 1.584556708523703339e+00
1.874999999999999931e-02 1.836420000000000066e-03 9.469877724213088266e-01
0.000000000000000000e+00 1.607520000000000129e-02 2.137276066365372706e+00
0.000000000000000000e+00 1.002400000000000079e-03 4.840902297937336840e+00
0.000000000000000000e+00 9.375720000000000148e-04 5.601107633395291385e-01
1.250000000000000069e-02 5.303949999999999984e-03 8.202276416377585200e-01
2.187499999999999861e-02 3.830650000000000027e-02 2.084280761984051544e+00
0.000000000000000000e+00 2.134459999999999916e-03 1.828824685675967121e-02
0.000000000000000000e+00 1.694849999999999916e-03 4.574610495742026828e+00
0.000000000000000000e+00 6.191999999999999805e-04 4.351471329218230544e+00
0.000000000000000000e+00 8.538880000000000211e-04 4.029295246989619272e+00
0.000000000000000000e+00 1.194180000000000068e-02 2.083274748847111724e+00
0.000000000000000000e+00 1.925909999999999997e-05 1.896262142387909577e+00
2.187499999999999861e-02 2.397820000000000160e-03 1.216020856349995682e+00
2.500000000000000139e-02 1.285380000000000029e-03 4.749429666595895938e+00
0.000000000000000000e+00 2.196479999999999949e-04 4.439919845015786848e+00
1.562500000000000000e-02 1.827449999999999908e-02 7.457488736271256080e-01
1.874999999999999931e-02 2.448189999999999828e-03 1.096019606287367942e+00
3.125000000000000173e-03 4.872190000000000201e-03 3.575508086128317942e+00
0.000000000000000000e+00 6.472999999999999587e-02 1.784236930475501248e+00
0.000000000000000000e+00 2.642559999999999853e-04 1.536467616252509272e+00
3.125000000000000173e-03 2.207680000000000059e-03 4.624351428832423672e+00
3.125000000000000173e-03 5.254270000000000121e-03 7.818002072999968854e-01
2.500000000000000139e-02 2.763709999999999951e-03 8.185824931964197360e-01
0.000000000000000000e+00 1.114619999999999977e-03 1.769351294420710818e+00
2.187499999999999861e-02 3.067709999999999968e-03 1.774832906059909954e+00
7.812500000000000000e-02 9.109459999999999780e-02 4.346248180069735234e+00
0.000000000000000000e+00 3.660860000000000156e-03 4.824201139737943400e+00
3.125000000000000173e-03 9.303999999999999770e-02 1.358628063760695115e+00
0.000000000000000000e+00 6.526550000000000407e-02 2.038078048161515277e+00
1.250000000000000069e-02 1.655100000000000061e-03 3.400992106507542800e+00
6.250000000000000347e-03 1.737309999999999896e-02 3.577260166776968120e+00
6.250000000000000347e-03 8.045629999999999796e-03 2.733526675530283612e+00
1.874999999999999931e-02 3.602619999999999954e-03 4.791480997522104879e+00
2.812500000000000069e-02 2.430719999999999929e-03 7.232927477356343449e-01
1.250000000000000069e-02 2.756540000000000032e-03 2.686513215007593214e+00
1.874999999999999931e-02 2.144319999999999907e-03 4.518291575421461204e+00
3.125000000000000173e-03 5.125890000000000134e-03 4.853253554634118672e+00
0.000000000000000000e+00 1.291140000000000083e-03 3.959107300251535344e-01
3.125000000000000000e-02 9.725259999999999461e-03 2.285006316911629032e+00
0.000000000000000000e+00 1.292610000000000026e-03 4.447930173370654217e+00
3.125000000000000173e-03 1.744700000000000070e-03 1.102459117242351905e+00
3.125000000000000173e-03 5.530499999999999826e-03 2.184115850280606175e+00
9.374999999999999653e-03 1.330500000000000085e-02 9.874747813346229641e-01
0.000000000000000000e+00 3.841280000000000193e-04 3.455026850673564187e+00
3.125000000000000173e-03 7.941240000000000451e-03 1.106997818818304502e+00
0.000000000000000000e+00 6.470299999999999663e-02 3.872395233378593371e+00
3.125000000000000173e-03 1.345150000000000035e-03 2.291192198499948596e+00
0.000000000000000000e+00 7.605869999999999602e-04 4.050465473373855652e+00
9.374999999999999653e-03 1.508669999999999933e-03 4.447935690146020526e+00
0.000000000000000000e+00 1.100480000000000035e-03 3.395373811197078595e+00
0.000000000000000000e+00 1.000959999999999957e-03 7.239076295346469347e-01
0.000000000000000000e+00 9.930239999999999033e-04 2.430696901684957112e+00
9.374999999999999653e-03 9.850140000000000284e-02 1.431297262907251788e+00
0.000000000000000000e+00 5.533119999999999879e-03 1.029485449122563567e-01
1.031249999999999944e-01 8.090949999999999531e-02 4.976802175505187442e+00
1.874999999999999931e-02 5.048770000000000167e-03 7.190730553637914024e-01
0.000000000000000000e+00 1.137409999999999940e-03 1.178389367319884862e+00
0.000000000000000000e+00 4.703570000000000233e-04 1.523539498477993082e+00
3.125000000000000173e-03 1.974220000000000141e-02 2.849255191358025741e+00
0.000000000000000000e+00 4.889019999999999998e-03 1.941723012604257281e-01
0.000000000000000000e+00 8.893440000000000286e-04 1.536124285289264257e+00
0.000000000000000000e+00 3.485849999999999973e-04 4.176729750319525536e+00
0.000000000000000000e+00 0.000000000000000000e+00 3.653412862518102600e+00
0.000000000000000000e+00 5.843200000000000434e-04 3.107917576107985358e+00
9.374999999999999653e-03 2.513150000000000019e-03 3.228105976052703108e-01
6.250000000000000347e-03 1.889859999999999934e-03 1.654294202268087322e+00
5.625000000000000139e-02 9.093179999999999319e-03 1.738763288798959472e+00
2.187499999999999861e-02 6.723650000000000286e-03 4.081561781634004404e+00
0.000000000000000000e+00 1.019460000000000028e-03 1.007571356681384422e+00
0.000000000000000000e+00 7.760060000000000048e-03 2.182491813500036848e+00
0.000000000000000000e+00 6.436869999999999918e-04 2.391159962599806565e+00
9.374999999999999653e-03 1.060149999999999981e-01 7.584179470746410523e-02
4.062500000000000139e-02 2.612509999999999832e-02 1.018677853510694842e+00
3.125000000000000173e-03 3.800829999999999834e-03 3.506891246976308718e+00
0.000000000000000000e+00 4.155939999999999786e-04 1.699239121621770598e+00
2.500000000000000139e-02 1.061789999999999956e-01 4.946537837574952690e+00
0.000000000000000000e+00 2.443289999999999872e-03 9.669135752071750245e-01
0.000000000000000000e+00 7.370529999999999920e-04 3.700063958921034901e-01
5.000000000000000278e-02 9.336699999999999861e-03 3.550803232786941432e+00
0.000000000000000000e+00 9.916939999999999956e-04 4.431031249044192766e-01
0.000000000000000000e+00 5.703039999999999932e-04 1.592862249177608991e+00
0.000000000000000000e+00 1.685000000000000039e-02 4.566707868454206398e+00
1.874999999999999931e-02 1.534210000000000044e-03 1.347731676906357423e+00
1.562500000000000000e-02 2.346430000000000043e-03 4.500478519223470641e+00
1.562500000000000000e-02 5.606339999999999588e-03 2.792855692347746555e+00
0.000000000000000000e+00 9.814570000000000238e-02 9.349330906705138888e-01
2.500000000000000139e-02 3.186430000000000078e-03 2.169112144834073330e-01
3.437500000000000278e-02 3.944509999999999683e-02 2.230700776017484177e+00
0.000000000000000000e+00 1.011519999999999911e-03 1.764769809284864710e+00
2.812500000000000069e-02 3.117180000000000211e-03 4.655016035027742305e+00
9.374999999999999653e-03 7.398399999999999638e-04 2.537772874438744886e+00
0.000000000000000000e+00 2.173440000000000116e-04 5.005291400570766047e-01
1.874999999999999931e-02 1.047360000000000001e-03 2.071270366339428737e+00
0.000000000000000000e+00 5.160780000000000011e-04 1.357222472682011460e+00
0.000000000000000000e+00 5.910400000000000332e-04 1.629386893994595908e+00
0.000000000000000000e+00 1.081600000000000053e-03 4.260051939911361885e+00
0.000000000000000000e+00 1.419710000000000026e-03 4.306373953988242853e+00
2.812500000000000069e-02 2.880769999999999945e-03 1.746716831523488223e+00
5.000000000000000278e-02 8.739330000000000015e-03 2.960191780774199533e+00
0.000000000000000000e+00 1.067620000000000027e-03 4.525067905962789183e+00
0.000000000000000000e+00 9.273600000000000116e-04 3.807481927622140994e+00
0.000000000000000000e+00 4.686720000000000014e-04 3.064073989122253927e+00
3.125000000000000000e-02 2.864150000000000029e-02 3.713086740492848925e+00
1.562500000000000000e-02 9.542699999999999794e-02 2.048377991908936213e+00
1.562500000000000000e-02 2.486079999999999887e-03 1.732819078691632431e+00
0.000000000000000000e+00 4.152320000000000251e-04 2.820893656727179177e+00
0.000000000000000000e+00 2.662400000000000123e-05 5.503417958649264863e-01
1.874999999999999931e-02 2.326459999999999813e-03 3.175525997335702399e+00
0.000000000000000000e+00 0.000000000000000000e+00 1.732072361472913880e+00
0.000000000000000000e+00 1.094270000000000052e-03 2.785095602426479466e+00
0.000000000000000000e+00 4.993410000000000426e-04 3.537998662112018966e+00
1.250000000000000069e-02 6.882309999999999990e-03 3.517103264262531503e+00
0.000000000000000000e+00 3.129599999999999852e-04 1.249530712925887022e+00
1.562500000000000000e-02 1.587649999999999912e-03 2.057960809705761562e+00
0.000000000000000000e+00 1.276419999999999898e-03 1.224129166915208344e+00
3.125000000000000173e-03 1.310719999999999941e-02 4.701307297915705341e+00
1.250000000000000069e-02 2.193660000000000054e-03 1.353693128128361511e+00
3.437500000000000278e-02 1.004009999999999972e-02 3.228376970094714693e+00
0.000000000000000000e+00 1.477500000000000081e-03 4.159982144867086618e+00
2.500000000000000139e-02 4.701120000000000299e-02 6.268798900573840926e-01
6.250000000000000347e-03 9.976160000000000583e-02 1.742251188869368139e+00
6.250000000000000347e-03 6.553599999999999703e-03 2.014554535344275976e+00
1.250000000000000069e-02 8.422399999999999592e-04 4.556042569885092597e+00
2.187499999999999861e-02 3.353339999999999793e-03 4.487048942204386215e+00
0.000000000000000000e+00 1.322240000000000134e-04 1.224416063336867255e+00
1.562500000000000000e-02 1.908930000000000089e-03 1.192473792192675353e+00
0.000000000000000000e+00 4.380160000000000021e-04 1.536440413589893472e+00
0.000000000000000000e+00 1.077440000000000038e-03 9.446414776138367664e-01
0.000000000000000000e+00 1.128150000000000073e-03 4.801742269986685407e+00
3.125000000000000000e-02 3.229779999999999804e-03 4.274751854173752363e+00
0.000000000000000000e+00 1.853689999999999852e-02 5.749945932241834479e-01
0.000000000000000000e+00 3.553020000000000050e-03 2.057898440630384407e+00
6.250000000000000000e-02 9.294410000000000172e-02 4.699265014308743105e+00
0.000000000000000000e+00 1.015040000000000039e-03 3.222162058501176762e-01
0.000000000000000000e+00 2.886400000000000012e-04 8.496448988664095925e-01
3.125000000000000173e-03 2.037950000000000178e-03 4.205599557300493174e+00
0.000000000000000000e+00 7.139040000000000143e-04 1.932713966200941158e+00
9.374999999999999653e-03 1.921739999999999907e-02 2.068681017140555412e+00
0.000000000000000000e+00 1.899719999999999881e-02 3.347433163585348481e+00
6.250000000000000347e-03 6.553599999999999703e-03 2.572154708205160567e+00
6.562500000000000278e-02 9.097030000000000394e-02 9.564509491404915575e-01
3.125000000000000173e-03 1.831740000000000104e-03 2.759014680892933224e+00
0.000000000000000000e+00 3.003180000000000086e-02 1.107043262265328121e-01
1.874999999999999931e-02 1.693440000000000049e-03 1.985033219074234356e+00
0.000000000000000000e+00 1.008830000000000057e-03 3.130838491726551709e+00
6.250000000000000347e-03 1.899969999999999958e-03 4.186047873385748019e+00
0.000000000000000000e+00 4.095549999999999885e-03 1.620114171416923821e+00
1.562500000000000000e-02 2.769660000000000177e-03 1.118722614500017309e-01
3.125000000000000173e-03 3.881539999999999990e-02 4.922736021459577671e+00
1.250000000000000069e-02 1.601790000000000071e-03 1.322668400243122822e+00
0.000000000000000000e+00 1.546499999999999915e-03 1.482580278541614227e+00
5.625000000000000139e-02 4.733930000000000082e-02 3.244395573261853016e+00
0.000000000000000000e+00 4.456959999999999828e-04 2.387297216736859795e+00
1.874999999999999931e-02 1.007510000000000003e-02 6.156450120938727899e-01
2.500000000000000139e-02 1.986050000000000055e-03 2.001242597032845794e+00
0.000000000000000000e+00 3.172860000000000003e-03 3.644719850821133811e+00
0.000000000000000000e+00 1.429699999999999895e-03 5.348041826429522638e-01
0.000000000000000000e+00 1.793340000000000038e-03 2.436438410589842007e+00
0.000000000000000000e+00 8.644479999999999742e-04 1.437086787903166130e+00
1.250000000000000069e-02 1.915519999999999983e-03 2.468765164290030345e+00
0.000000000000000000e+00 9.525760000000000087e-04 1.710531955970211015e+00
3.125000000000000173e-03 9.980529999999999957e-02 3.541784459122357731e+00
0.000000000000000000e+00 1.320650000000000036e-03 2.380114412750593100e+00
0.000000000000000000e+00 7.442990000000000239e-04 2.453876797901989093e+00
6.250000000000000347e-03 1.501790000000000069e-02 2.600308810334356346e-01
0.000000000000000000e+00 4.988279999999999884e-04 3.972996206994364954e+00
4.687500000000000000e-02 9.187170000000000059e-02 2.204870214131454675e-01
1.250000000000000069e-02 2.615940000000000192e-03 4.628576736478851927e+00
0.000000000000000000e+00 3.939840000000000009e-04 2.864318474703062556e+00
0.000000000000000000e+00 3.015679999999999967e-04 4.266820692674320625e+00
0.000000000000000000e+00 1.108610000000000107e-03 2.711758796770348034e+00
1.874999999999999931e-02 2.492160000000000208e-03 4.286523058579633449e+00
1.250000000000000069e-02 2.087869999999999917e-03 2.486263867349786771e+00
9.374999999999999653e-03 2.323780000000000116e-03 2.438346550972701365e+00
9.374999999999999653e-03 2.780860000000000016e-03 4.544275493229175567e+00
4.687500000000000000e-02 3.383999999999999855e-03 2.162867764414849070e+00
3.125000000000000173e-03 1.706049999999999971e-03 2.098147137812207408e+00
1.562500000000000000e-02 5.465219999999999800e-03 2.842837813081345644e+00
1.874999999999999931e-02 1.669759999999999951e-03 1.639338167185908635e+00
0.000000000000000000e+00 1.169199999999999927e-02 6.156705761590158810e-01
1.562500000000000000e-02 2.176190000000000156e-03 4.548691144754516635e+00
0.000000000000000000e+00 2.295459999999999872e-05 8.815090839603512141e-01
2.187499999999999861e-02 2.022850000000000082e-03 1.845210495904359149e-03
0.000000000000000000e+00 5.888640000000000324e-04 2.257358048002410023e+00
0.000000000000000000e+00 2.920770000000000050e-03 2.366833573043364281e-01
0.000000000000000000e+00 2.305239999999999972e-05 3.572952984889414818e+00
0.000000000000000000e+00 3.829540000000000201e-04 6.832015460112755845e-01
0.000000000000000000e+00 4.356539999999999892e-03 2.225795960625243097e-01
3.125000000000000173e-03 1.049080000000000013e-01 2.160058971046346699e+00
0.000000000000000000e+00 4.589819999999999664e-03 6.431513499833979575e-01
0.000000000000000000e+00 4.541330000000000106e-04 4.314331187140283852e+00
0.000000000000000000e+00 1.093650000000000047e-03 3.599405965167407295e+00
3.125000000000000173e-03 8.576639999999999524e-04 5.383776134418588599e-01
0.000000000000000000e+00 4.933760000000000142e-04 1.361925954232993119e+00
0.000000000000000000e+00 3.989120000000000187e-04 4.724730197248795172e+00
1.562500000000000000e-02 9.482409999999999450e-02 1.678833021636871425e+00
0.000000000000000000e+00 9.495680000000000266e-04 2.887990440346398735e+00
2.812500000000000069e-02 9.368060000000000276e-02 1.039313552821666820e+00
2.187499999999999861e-02 2.070080000000000184e-03 1.898335304489125352e+00
1.250000000000000069e-02 1.687490000000000040e-03 4.962759681383298371e+00
0.000000000000000000e+00 5.725770000000000035e-04 4.998132530917619221e+00
0.000000000000000000e+00 3.010559999999999799e-03 3.200214686842386413e+00
0.000000000000000000e+00 9.691520000000000343e-04 3.637767456674028121e+00
3.125000000000000173e-03 4.505150000000000300e-03 2.703123112486695234e+00
0.000000000000000000e+00 4.912960000000000070e-03 3.005996234340591045e-01
0.000000000000000000e+00 2.674370000000000133e-03 2.303411820012369660e+00
5.312499999999999861e-02 9.380100000000000590e-03 3.938569403747711917e+00
1.874999999999999931e-02 1.371840000000000039e-03 3.982949052552315461e+00
6.250000000000000347e-03 9.530660000000000520e-02 2.371865684409486530e+00
9.374999999999999653e-03 1.444540000000000017e-03 2.251398469032540817e+00
0.000000000000000000e+00 1.061950000000000090e-03 3.831061170787136039e+00
3.125000000000000173e-03 1.735940000000000052e-03 5.360592225689952972e-01
5.000000000000000278e-02 9.160579999999999765e-03 2.489058074060323644e+00
0.000000000000000000e+00 2.682879999999999900e-04 2.472301442563125562e+00
1.250000000000000069e-02 2.017220000000000124e-03 3.897699080768058266e+00
1.874999999999999931e-02 2.505020000000000163e-03 3.817081753965053892e+00
2.187499999999999861e-02 2.257920000000000066e-03 4.580286882621131817e+00
0.000000000000000000e+00 9.984379999999999297e-03 3.623858799984364332e+00
2.187499999999999861e-02 9.526709999999999345e-02 3.676655618767843414e-02
3.125000000000000173e-03 1.887039999999999985e-03 4.806082584054605533e+00
0.000000000000000000e+00 1.815809999999999950e-03 1.166764960886757407e+00
0.000000000000000000e+00 5.193790000000000212e-03 3.376239215867136156e+00
0.000000000000000000e+00 3.999359999999999873e-04 2.766462758048976234e+00
0.000000000000000000e+00 5.334909999999999999e-03 8.353377754586427395e-01
0.000000000000000000e+00 5.812160000000000243e-03 4.960220176089204180e+00
0.000000000000000000e+00 4.407740000000000269e-03 3.263789573566011626e+00
3.125000000000000173e-03 2.772430000000000033e-02 3.748702761056512234e+00
8.749999999999999445e-02 8.075749999999999595e-02 4.916976313040444246e+00
0.000000000000000000e+00 5.020349999999999596e-04 3.203617674451670894e+00
3.125000000000000173e-03 9.467740000000000530e-03 2.221388277648689957e+00
1.250000000000000069e-02 9.944429999999999936e-02 4.289206159852131606e+00
0.000000000000000000e+00 1.092220000000000083e-03 1.208231467674643067e+00
0.000000000000000000e+00 1.111990000000000027e-02 4.000789090841178064e-01
0.000000000000000000e+00 1.013180000000000027e-03 1.716135702633576177e+00
2.812500000000000069e-02 3.514820000000000097e-03 3.627368765299769482e+00
3.125000000000000173e-03 1.864769999999999969e-03 3.963592009884937095e+00
1.250000000000000069e-02 2.760999999999999913e-02 3.963879793051717115e+00
0.000000000000000000e+00 9.925760000000000052e-04 4.974342935437169544e+00
1.874999999999999931e-02 2.274299999999999933e-03 1.684021414628403157e+00
0.000000000000000000e+00 3.955879999999999943e-04 3.119539883444718775e+00
3.125000000000000173e-03 4.975549999999999591e-03 1.713761120231858559e+00
0.000000000000000000e+00 4.164279999999999913e-04 4.474375854166106059e+00
0.000000000000000000e+00 1.149059999999999925e-03 3.553514539203123768e+00
0.000000000000000000e+00 4.240590000000000136e-04 4.021716924964792383e+00
0.000000000000000000e+00 4.080639999999999745e-04 2.499964412079285658e+00
3.125000000000000173e-03 1.475229999999999944e-02 3.913226460119802574e+00
0.000000000000000000e+00 8.588800000000000167e-04 1.310527468897574987e+00
0.000000000000000000e+00 1.431229999999999915e-03 2.079759600072627723e+00
2.187499999999999861e-02 2.982589999999999807e-03 1.496829750834005157e+00
3.125000000000000173e-03 1.778559999999999993e-03 1.513213349609629610e+00
0.000000000000000000e+00 6.475139999999999889e-03 8.033734992622826310e-01
0.000000000000000000e+00 1.572990000000000022e-03 4.692526282467307519e-01
2.187499999999999861e-02 2.139139999999999878e-03 4.067096836293109696e+00
3.125000000000000173e-03 3.924099999999999810e-03 3.020302207080049595e+00
0.000000000000000000e+00 1.208450000000000019e-03 1.491463839566157912e+00
3.125000000000000173e-03 4.913540000000000095e-03 3.480986781327904955e-01
0.000000000000000000e+00 1.161979999999999957e-03 7.151987749337351818e-01
3.125000000000000173e-03 1.282830000000000081e-02 3.100399151139511922e+00
0.000000000000000000e+00 2.836250000000000229e-04 2.535453648285117989e+00
3.125000000000000173e-03 1.707460000000000054e-03 4.717774214680414691e-01
0.000000000000000000e+00 1.086270000000000074e-03 4.025427443759377333e+00
2.187499999999999861e-02 1.764740000000000102e-03 1.364276427290526117e+00
6.250000000000000347e-03 9.770059999999999856e-02 1.575486133929954180e+00
0.000000000000000000e+00 1.216580000000000092e-03 4.569935394328120459e+00
6.875000000000000555e-02 9.132429999999999715e-02 2.700080338719890616e+00
3.749999999999999861e-02 9.266960000000000475e-02 1.102180715673555245e+00
0.000000000000000000e+00 9.536640000000000091e-04 3.902665368888141195e+00
1.562500000000000000e-02 1.667070000000000097e-03 2.164610746595842627e+00
3.125000000000000173e-03 1.025339999999999932e-02 4.468805075753329303e-01
0.000000000000000000e+00 2.952900000000000056e-03 2.513279535550604571e+00
0.000000000000000000e+00 1.163460000000000058e-03 2.831022368825712121e+00
0.000000000000000000e+00 3.414400000000000161e-03 4.643656456369087415e+00
0.000000000000000000e+00 4.113280000000000408e-03 1.944413139244254296e+00
0.000000000000000000e+00 4.915200000000000125e-02 1.096125987649732014e+00
0.000000000000000000e+00 1.698559999999999946e-04 2.103549016275386485e+00
3.125000000000000173e-03 4.631419999999999808e-03 3.816354764160062585e-01
9.374999999999999653e-03 6.888469999999999836e-03 1.068613545652702390e-01
0.000000000000000000e+00 9.335679999999999630e-04 1.065001677691213011e+00
0.000000000000000000e+00 2.319020000000000033e-05 2.006518654066284491e+00
9.374999999999999653e-03 1.811069999999999911e-03 4.196656708701696381e+00
1.250000000000000069e-02 1.056769999999999932e-01 3.897558237676870263e+00
2.187499999999999861e-02 3.548239999999999728e-02 1.991824519268344140e+00
3.125000000000000173e-03 7.677440000000000002e-04 4.190516702453095377e-01
0.000000000000000000e+00 3.791070000000000008e-04 6.043586335693573730e-02
0.000000000000000000e+00 0.000000000000000000e+00 1.055220301672056271e+00
1.250000000000000069e-02 9.582870000000000277e-02 1.647154300827646356e+00
0.000000000000000000e+00 4.060159999999999833e-04 3.707373709620305213e+00
6.250000000000000347e-03 2.735679999999999883e-03 6.316731750668269640e-02
3.749999999999999861e-02 3.890300000000000008e-02 1.809378456135471991e+00
0.000000000000000000e+00 1.057599999999999903e-03 2.158618665762546129e+00
0.000000000000000000e+00 1.508480000000000031e-04 1.493917221223610703e+00
0.000000000000000000e+00 3.885450000000000015e-02 8.996181946640313676e-01
5.000000000000000278e-02 3.947130000000000083e-02 4.899895299592222919e+00
0.000000000000000000e+00 9.955840000000000956e-04 6.230739384958844385e-01
3.125000000000000173e-03 1.972740000000000170e-03 4.021868772506628886e+00
1.874999999999999931e-02 1.412349999999999934e-03 3.857776452519275256e+00
0.000000000000000000e+00 1.127739999999999906e-03 2.390036032698223512e+00
1.874999999999999931e-02 1.726979999999999921e-03 4.363121629893379705e+00
3.125000000000000173e-03 9.699850000000000139e-02 9.683175572260172004e-02
6.250000000000000347e-03 6.553599999999999703e-03 2.562410457966764810e+00
1.093750000000000000e-01 9.190289999999999571e-02 4.810339236811522312e+00
9.374999999999999653e-03 1.588669999999999926e-03 1.449587148172912343e+00
0.000000000000000000e+00 1.022029999999999944e-03 2.483915220078048325e+00
1.874999999999999931e-02 2.589119999999999876e-03 4.484546422396978871e-01
0.000000000000000000e+00 1.094909999999999937e-03 4.216330173030049977e+00
1.874999999999999931e-02 9.318189999999999806e-02 4.189367061378185042e+00
0.000000000000000000e+00 2.914560000000000067e-03 3.524283999672831236e+00
3.125000000000000173e-03 4.907329999999999678e-03 4.285867289180061768e+00
6.250000000000000347e-03 1.067830000000000029e-01 2.912299350145303167e-01
9.374999999999999653e-03 1.349120000000000093e-03 4.017867221326657301e+00
3.125000000000000000e-02 1.055090000000000021e-02 2.183837441003806390e+00
0.000000000000000000e+00 9.691320000000000490e-02 2.216923803628380707e+00
0.000000000000000000e+00 7.665499999999999571e-04 9.970504617789227586e-01
2.500000000000000139e-02 1.769340000000000105e-03 1.189201558223309529e+00
0.000000000000000000e+00 4.432959999999999787e-04 2.267324772349360806e+00
0.000000000000000000e+00 4.853759999999999824e-04 4.011156671079945113e+00
0.000000000000000000e+00 8.935040000000000430e-04 3.552200063914644268e+00
0.000000000000000000e+00 1.505749999999999970e-02 1.499031603291140602e+00
3.125000000000000173e-03 1.797949999999999982e-03 1.131833969624697067e+00
2.500000000000000139e-02 9.776170000000000693e-02 2.795203595580245004e+00
1.874999999999999931e-02 9.687070000000000403e-02 8.501075667380952883e-01
0.000000000000000000e+00 2.449320000000000056e-03 4.924300331574976042e+00
3.125000000000000173e-03 1.489859999999999969e-03 2.884254781748325502e+00
1.874999999999999931e-02 2.317120000000000204e-03 4.092312377272534718e+00
0.000000000000000000e+00 4.538130000000000137e-04 2.669853198478159051e+00
1.250000000000000069e-02 9.737569999999999559e-02 3.191835784961756683e+00
1.562500000000000000e-02 2.798020000000000021e-03 2.490506100093811348e+00
3.125000000000000173e-03 4.915199999999999778e-03 2.581715745622336300e+00
2.500000000000000139e-02 5.939070000000000286e-03 4.514545490481141954e+00
0.000000000000000000e+00 6.663040000000000499e-04 3.738772717040750759e+00
0.000000000000000000e+00 2.800019999999999853e-03 1.386228529733567472e+00
0.000000000000000000e+00 1.800320000000000002e-03 2.543925840133543836e+00
0.000000000000000000e+00 3.950080000000000236e-04 3.139523832725664043e+00
1.250000000000000069e-02 1.293399999999999932e-02 4.133043605849518798e+00
0.000000000000000000e+00 1.189970000000000047e-03 4.066009907337030604e+00
0.000000000000000000e+00 9.391999999999999524e-04 8.591328752615273734e-01
2.187499999999999861e-02 8.204790000000000000e-03 3.096278214110963933e+00
4.374999999999999722e-02 9.414139999999999661e-03 2.548675002105445841e+00
0.000000000000000000e+00 2.575049999999999908e-02 2.974827724385741945e+00
2.812500000000000069e-02 4.047489999999999942e-03 1.747503285995450906e+00
2.500000000000000139e-02 2.444099999999999832e-03 3.205457033253505283e+00
0.000000000000000000e+00 1.073340000000000101e-03 3.868554623480078725e+00
2.500000000000000139e-02 1.604479999999999925e-03 3.979585197922068662e+00
2.500000000000000139e-02 2.037629999999999910e-03 7.045135456829387799e-01
0.000000000000000000e+00 2.418879999999999988e-03 4.628389184610326446e-01
0.000000000000000000e+00 1.476799999999999988e-02 4.956098576864903515e-01
0.000000000000000000e+00 1.523709999999999952e-03 1.730094677765190880e+00
0.000000000000000000e+00 2.274220000000000056e-05 1.129615522339635358e+00
3.125000000000000173e-03 1.169660000000000101e-03 1.703821890976717324e+00
6.250000000000000347e-03 5.002689999999999741e-03 2.283243122428842309e+00
2.187499999999999861e-02 2.315839999999999999e-03 9.388539061035822142e-01
5.000000000000000278e-02 9.335880000000000567e-02 2.526729607841527780e+00
0.000000000000000000e+00 8.543890000000000165e-03 3.543502223327726908e-01
0.000000000000000000e+00 9.240319999999999784e-04 4.901967557442670653e+00
0.000000000000000000e+00 3.037019999999999997e-02 3.278921140206583651e+00
0.000000000000000000e+00 4.167479999999999882e-04 1.753969376236667044e+00
1.562500000000000000e-02 2.694779999999999918e-03 1.009212783593440577e+00
3.125000000000000173e-03 5.210880000000000199e-03 4.887527044164253098e+00
5.937499999999999722e-02 4.144119999999999748e-02 7.749123229809018465e-01
0.000000000000000000e+00 3.998079999999999776e-04 1.929746029992339018e+00
1.562500000000000000e-02 9.732380000000000198e-02 4.789078696923175116e+00
1.562500000000000000e-02 1.959939999999999859e-03 1.904378702720149752e+00
0.000000000000000000e+00 2.293410000000000121e-05 3.381826360473990434e+00
6.250000000000000347e-03 3.253380000000000161e-03 2.522652823062551786e+00
6.250000000000000347e-03 1.565060000000000062e-03 2.138801490366770697e-01
5.625000000000000139e-02 1.067609999999999948e-01 3.974438645681988902e+00
0.000000000000000000e+00 1.806209999999999934e-03 4.996333461779496332e+00
0.000000000000000000e+00 2.067970000000000138e-03 4.011243951106399308e+00
0.000000000000000000e+00 1.759869999999999967e-03 4.355439399535370626e+00
0.000000000000000000e+00 2.276859999999999908e-03 9.995015269936041724e-01
1.562500000000000000e-02 2.155199999999999911e-03 8.788365030368849862e-01
0.000000000000000000e+00 1.950980000000000075e-02 8.159952327403924288e-01
2.187499999999999861e-02 8.886909999999999601e-03 1.225636476078240111e-01
0.000000000000000000e+00 0.000000000000000000e+00 4.435452620843133076e+00
1.250000000000000069e-02 1.058400000000000035e-01 7.808054750965043311e-01
0.000000000000000000e+00 1.319419999999999968e-03 1.649430012626873499e+00
3.125000000000000173e-03 1.028150000000000071e-02 2.971489898003544905e+00
0.000000000000000000e+00 7.076829999999999666e-04 4.585772410562761969e+00
5.312499999999999861e-02 4.050750000000000184e-02 2.891219353334903097e+00
0.000000000000000000e+00 4.855489999999999633e-03 1.408520263682873086e+00
3.125000000000000173e-03 4.994819999999999642e-03 4.353166963769028897e+00
0.000000000000000000e+00 1.146749999999999983e-03 2.224403456599897577e+00
0.000000000000000000e+00 1.300930000000000055e-03 4.442328049737616524e+00
0.000000000000000000e+00 6.467749999999999888e-02 6.749184337543789880e-02
0.000000000000000000e+00 4.681770000000000137e-04 1.526114397030097880e+00
7.812500000000000000e-02 4.133690000000000281e-02 2.212049743249611122e-01
6.250000000000000347e-03 1.223679999999999993e-03 1.674980177458040842e+00
3.125000000000000173e-03 1.738179999999999977e-03 1.255581386637898422e+00
0.000000000000000000e+00 4.154660000000000232e-04 1.897525135749698499e+00
2.187499999999999861e-02 2.999040000000000126e-03 6.788462862803179565e-01
0.000000000000000000e+00 8.283519999999999729e-04 1.345724945859923416e+00
6.250000000000000347e-03 9.289400000000000435e-02 1.707315360967476714e+00
3.125000000000000173e-03 7.861850000000000088e-03 4.215053852975975124e-01
2.812500000000000069e-02 2.791940000000000133e-03 2.937638589817464840e+00
3.125000000000000173e-03 2.668160000000000150e-03 2.322897111054472719e-01
1.000000000000000056e-01 4.054590000000000277e-02 2.459881821005990954e+00
0.000000000000000000e+00 1.019460000000000028e-03 4.582479062991212437e+00
0.000000000000000000e+00 1.022340000000000054e-03 1.178375911183731528e+00
0.000000000000000000e+00 8.942719999999999923e-04 5.468737597477207890e-01
3.125000000000000173e-03 4.426750000000000129e-03 2.918271617619576652e+00
0.000000000000000000e+00 4.821560000000000234e-04 3.374301552432327433e+00
0.000000000000000000e+00 8.839679999999999500e-04 9.781936416006570267e-01
0.000000000000000000e+00 4.323780000000000158e-03 2.124446433434481918e+00
0.000000000000000000e+00 1.081020000000000028e-03 3.530550027677677782e+00
0.000000000000000000e+00 9.979520000000000838e-04 2.447687553625273349e+00
1.250000000000000069e-02 1.718979999999999944e-03 4.983987288279681849e+00
1.250000000000000069e-02 2.070440000000000128e-02 4.617430914259238683e+00
3.125000000000000173e-03 1.955250000000000044e-02 6.460065032500611482e-01
1.562500000000000000e-02 1.965629999999999895e-03 4.775306146709606958e-01
6.250000000000000347e-03 6.553599999999999703e-03 4.806636691828467534e+00
0.000000000000000000e+00 7.744380000000000144e-04 2.017452802011950208e+00
0.000000000000000000e+00 7.176279999999999942e-04 3.859672896285919919e+00
6.250000000000000347e-03 1.165250000000000053e-03 2.444529116738764607e+00
1.874999999999999931e-02 2.446530000000000146e-03 2.931092095975834644e-01
3.125000000000000173e-03 4.951170000000000397e-03 3.242704583212585590e-01
0.000000000000000000e+00 1.050879999999999913e-03 1.414572924224215100e+00
1.874999999999999931e-02 2.755260000000000001e-02 1.712387566017270046e+00
2.500000000000000139e-02 9.716560000000000474e-02 4.242738999171991487e+00
9.374999999999999653e-03 1.685569999999999950e-03 4.656038957925976440e+00
0.000000000000000000e+00 9.936000000000000821e-04 4.067744616129479240e+00
0.000000000000000000e+00 1.490059999999999996e-02 1.985230024643974689e+00
0.000000000000000000e+00 1.884480000000000009e-03 4.512898667868676661e+00
0.000000000000000000e+00 4.411160000000000233e-04 2.994713658582200289e+00
1.250000000000000069e-02 2.278270000000000208e-03 1.386195565791072948e+00
0.000000000000000000e+00 1.693440000000000104e-04 1.670636210269314414e+00
0.000000000000000000e+00 3.631999999999999920e-04 3.550847926304527835e+00
0.000000000000000000e+00 2.797500000000000073e-03 4.852187871965812249e+00
0.000000000000000000e+00 1.008580000000000023e-03 7.704773142436233124e-01
0.000000000000000000e+00 5.750399999999999696e-04 3.413871723202220210e+00
3.125000000000000173e-03 3.554820000000000202e-03 4.914808866230647943e+00
3.125000000000000173e-03 4.585660000000000083e-03 3.779165657740015227e+00
2.500000000000000139e-02 9.174999999999999822e-02 4.375709602624100469e+00
1.250000000000000069e-02 3.607679999999999828e-03 1.332804454673337080e+00
1.874999999999999931e-02 3.431299999999999975e-03 3.520737954440169570e+00
6.250000000000000347e-03 6.553599999999999703e-03 8.434430092667932755e-01
1.562500000000000000e-02 2.031040000000000015e-03 3.368002282672064585e+00
1.562500000000000000e-02 2.395969999999999871e-03 1.036784137211120838e+00
1.874999999999999931e-02 9.774739999999999818e-02 4.828976501577794345e+00
6.250000000000000347e-03 2.054589999999999802e-03 9.021039758743254477e-01
2.187499999999999861e-02 2.357890000000000073e-03 1.313579082047309221e+00
1.874999999999999931e-02 1.069839999999999958e-01 1.619758541454152212e+00
0.000000000000000000e+00 4.297020000000000136e-04 4.920300985542392702e+00
0.000000000000000000e+00 6.668380000000000141e-02 1.092261786114791633e+00
0.000000000000000000e+00 2.306220000000000088e-05 3.718248779086134270e+00
0.000000000000000000e+00 1.019390000000000010e-03 2.703284344000915773e+00
3.125000000000000173e-03 3.023490000000000205e-03 1.352261599762949462e+00
0.000000000000000000e+00 1.080699999999999977e-03 2.416241917806695838e+00
0.000000000000000000e+00 9.523199999999999894e-04 1.544534769242580818e+00
6.250000000000000347e-03 2.626809999999999909e-02 3.201439867329858302e-01
0.000000000000000000e+00 1.163619999999999932e-02 3.218416825618894972e+00
0.000000000000000000e+00 1.122560000000000094e-03 3.382101683156223615e+00
0.000000000000000000e+00 2.804740000000000011e-03 2.604042390709921495e+00
2.187499999999999861e-02 9.347590000000000066e-02 2.068894642251533522e+00
3.125000000000000173e-03 1.496639999999999950e-02 1.447802877123233856e+00
0.000000000000000000e+00 3.545430000000000109e-02 2.679820911588233212e+00
2.812500000000000069e-02 9.277209999999999623e-02 2.789158622059937809e+00
0.000000000000000000e+00 1.554389999999999868e-05 3.581671033197308951e+00
0.000000000000000000e+00 2.279899999999999974e-05 2.789119243121520153e+00
3.125000000000000000e-02 9.082909999999999595e-02 1.674110963346574499e+00
0.000000000000000000e+00 2.726080000000000083e-03 3.860997044874398654e+00
1.562500000000000000e-02 1.923009999999999954e-03 2.482422769394432738e+00
0.000000000000000000e+00 3.726719999999999989e-04 2.505583312168360166e+00
2.812500000000000069e-02 2.351170000000000083e-03 4.743151036475243387e+00
2.500000000000000139e-02 2.757250000000000152e-03 9.482504726570939457e-01
1.874999999999999931e-02 1.128260000000000070e-03 2.483791901328936014e+00
0.000000000000000000e+00 3.321689999999999972e-04 9.810241603424502133e-01
0.000000000000000000e+00 1.056260000000000055e-03 3.050348331604391117e+00
1.562500000000000000e-02 1.930180000000000090e-03 1.266451717458514370e+00
0.000000000000000000e+00 3.144320000000000144e-04 4.565998752018139761e+00
1.562500000000000000e-02 2.352260000000000115e-03 3.415914235475439487e+00
1.250000000000000069e-02 4.136689999999999812e-02 3.091517719607039805e-01
3.125000000000000173e-03 4.426109999999999593e-03 3.164309914011908642e+00
0.000000000000000000e+00 6.008959999999999605e-04 9.421601342510288468e-01
0.000000000000000000e+00 3.924629999999999785e-02 1.715724007011854013e-01
0.000000000000000000e+00 2.656959999999999877e-03 1.272976442062239588e+00
1.562500000000000000e-02 2.718270000000000061e-03 3.243409855155187760e+00
0.000000000000000000e+00 2.661569999999999821e-03 2.478389938195835196e+00
2.812500000000000069e-02 1.060239999999999932e-01 4.953717372620654480e+00
0.000000000000000000e+00 4.162990000000000202e-04 4.093824513648348429e+00
0.000000000000000000e+00 1.022029999999999944e-03 1.269516689728171333e+00
3.125000000000000173e-03 5.134460000000000413e-03 4.736436806653713916e+00
0.000000000000000000e+00 1.120260000000000093e-03 2.530310268557656173e-02
0.000000000000000000e+00 1.021580000000000014e-03 1.413712831830266747e+00
3.125000000000000173e-03 2.043070000000000129e-03 1.172959607942605231e+00
3.749999999999999861e-02 1.069900000000000018e-01 3.324656843191537980e+00
0.000000000000000000e+00 2.310159999999999918e-05 2.925186419758907252e-01
6.250000000000000347e-03 9.569120000000000403e-02 4.677280758676751304e+00
1.874999999999999931e-02 2.911040000000000155e-03 4.982945453294881588e+00
0.000000000000000000e+00 9.816320000000000774e-04 4.676168615609260781e-01
0.000000000000000000e+00 1.175419999999999937e-03 2.539305470766280326e+00
0.000000000000000000e+00 7.324360000000000462e-04 1.998277487566377797e+00
0.000000000000000000e+00 9.428480000000000368e-04 2.632347052772583851e+00
2.812500000000000069e-02 1.613250000000000101e-03 9.357790274492883142e-01
3.125000000000000173e-03 4.374590000000000249e-03 1.481727054952149958e+00
0.000000000000000000e+00 3.912589999999999645e-03 3.150495493950226766e+00
3.125000000000000000e-02 2.403430000000000150e-02 3.509727152415180740e+00
0.000000000000000000e+00 2.459390000000000100e-03 6.806276064221838951e-01
3.125000000000000173e-03 1.770239999999999965e-03 3.078594982572356198e+00
9.374999999999999653e-03 3.826849999999999696e-02 8.204961378588188081e-01
0.000000000000000000e+00 3.789439999999999822e-04 2.051891643045781866e+00
1.874999999999999931e-02 1.350209999999999909e-03 2.822082159105584687e+00
0.000000000000000000e+00 3.802880000000000019e-04 2.966301758632694074e+00
0.000000000000000000e+00 1.778559999999999993e-04 3.389478692827835982e+00
3.125000000000000173e-03 3.687189999999999912e-03 1.976827042900759057e+00
0.000000000000000000e+00 9.756160000000000049e-04 4.179371659762187718e+00
0.000000000000000000e+00 3.475699999999999970e-03 3.795210909140282141e+00
0.000000000000000000e+00 1.526779999999999934e-03 4.476622080548498417e+00
0.000000000000000000e+00 1.131679999999999926e-03 3.816867940006829940e+00
2.187499999999999861e-02 9.255480000000000651e-02 4.591519789730594603e+00
0.000000000000000000e+00 6.071040000000000204e-04 3.991463754682456511e+00
1.562500000000000000e-02 8.191999999999999629e-03 2.775426167327454507e+00
6.250000000000000347e-03 5.344259999999999983e-03 1.587859244082701071e+00
3.749999999999999861e-02 9.131580000000000252e-02 8.010127764618291124e-04
1.062499999999999972e-01 7.687769999999999326e-02 2.726379218431222551e+00
3.749999999999999861e-02 9.314000000000000057e-02 2.403087759781601829e+00
0.000000000000000000e+00 6.316950000000000429e-04 2.511418634621890966e+00
1.250000000000000069e-02 9.906120000000000203e-02 2.961650055380282698e-01
9.374999999999999653e-03 7.990719999999999767e-03 3.031288259605948276e+00
2.187499999999999861e-02 2.826050000000000090e-03 2.588855154308356887e+00
0.000000000000000000e+00 1.422979999999999905e-03 3.086101127480345152e-01
0.000000000000000000e+00 9.191040000000000147e-04 4.461221523462669758e+00
3.125000000000000173e-03 1.680879999999999874e-02 2.878464201623025964e+00
0.000000000000000000e+00 1.103040000000000010e-03 4.858590213577906880e-01
0.000000000000000000e+00 1.008449999999999928e-03 3.555011304899146296e+00
0.000000000000000000e+00 9.745920000000000364e-04 3.548796836340542438e+00
3.749999999999999861e-02 9.287739999999999885e-02 3.811265027038701625e+00
5.312499999999999861e-02 9.505539999999999823e-03 2.463330650297036684e+00
3.125000000000000173e-03 1.906619999999999929e-03 9.952384320934692941e-01
3.125000000000000173e-03 2.875009999999999892e-03 4.639503394223901012e+00
2.187499999999999861e-02 2.445310000000000018e-03 3.899923466476896028e+00
0.000000000000000000e+00 1.947870000000000157e-02 2.750208269029368768e+00
0.000000000000000000e+00 5.527680000000000310e-04 3.801851291622954099e-01
3.125000000000000173e-03 1.055230000000000057e-01 1.168218465183068044e+00
2.812500000000000069e-02 9.460019999999999540e-02 5.530569584470951261e-01
0.000000000000000000e+00 4.035430000000000267e-02 1.335693825998969686e+00
0.000000000000000000e+00 8.676299999999999638e-03 4.371604135828437876e+00
3.125000000000000173e-03 9.773619999999999530e-02 3.442696434923906423e+00
0.000000000000000000e+00 1.132030000000000015e-03 4.536145052690049306e-01
1.874999999999999931e-02 2.629310000000000154e-03 3.364696862180220460e+00
0.000000000000000000e+00 1.183419999999999915e-03 4.904645588886443974e+00
0.000000000000000000e+00 1.180750000000000029e-02 2.967488452985616032e+00
0.000000000000000000e+00 7.939200000000000423e-04 2.022402714138518576e+00
0.000000000000000000e+00 1.028669999999999975e-03 3.970817528749839731e+00
0.000000000000000000e+00 3.910399999999999965e-04 3.132706634487956610e+00
3.125000000000000173e-03 2.473149999999999914e-03 3.342312652319310740e+00
1.250000000000000069e-02 1.512579999999999914e-03 3.360331409312189876e+00
2.812500000000000069e-02 1.978109999999999938e-03 3.679313357796293538e+00
2.500000000000000139e-02 1.974459999999999930e-03 1.919809828013646635e-01
2.812500000000000069e-02 9.254779999999999951e-02 2.235061480650946120e-01
0.000000000000000000e+00 4.236219999999999743e-03 6.124706574750460319e-01
1.250000000000000069e-02 2.703469999999999832e-02 3.447412381087133326e+00
0.000000000000000000e+00 2.559869999999999854e-02 2.342614317742495622e+00
0.000000000000000000e+00 2.182359999999999856e-02 2.473753377295463629e+00
0.000000000000000000e+00 1.217149999999999959e-03 3.980327544334303802e+00
2.187499999999999861e-02 2.543679999999999986e-03 2.756389430387753414e+00
0.000000000000000000e+00 1.133440000000000098e-03 4.879086165403800024e+00
0.000000000000000000e+00 1.047360000000000001e-03 2.326996083276153371e+00
1.250000000000000069e-02 1.637250000000000033e-03 3.395799429244866774e-01
3.125000000000000173e-03 4.374779999999999988e-03 2.409534229709709763e+00
3.125000000000000173e-03 2.423939999999999862e-03 4.921463734062553108e+00
1.874999999999999931e-02 7.525180000000000237e-03 3.499872047626889859e+00
0.000000000000000000e+00 4.940189999999999469e-04 4.751844459393756104e+00
0.000000000000000000e+00 1.051899999999999927e-03 7.104504940838390903e-01
0.000000000000000000e+00 3.840000000000000097e-04 1.199720209825207551e+00
0.000000000000000000e+00 1.319869999999999897e-03 3.665009245252350834e+00
9.374999999999999653e-03 9.422529999999999795e-02 2.724474327873469104e+00
1.250000000000000069e-02 1.962939999999999824e-03 8.691532890057679372e-01
0.000000000000000000e+00 3.641599999999999828e-04 3.382023319366861180e+00
2.500000000000000139e-02 2.349120000000000114e-03 3.679544651423045210e+00
0.000000000000000000e+00 1.071230000000000055e-03 1.286077359671338627e+00
6.250000000000000347e-03 9.596330000000000138e-02 2.878301172521267492e+00
1.874999999999999931e-02 2.999970000000000067e-02 9.910310402278010855e-01
3.749999999999999861e-02 9.197320000000000495e-02 3.697876033983561683e+00
0.000000000000000000e+00 7.194179999999999889e-04 1.971381479987976970e-01
3.125000000000000173e-03 4.589499999999999830e-03 6.498368750626476453e-01
1.562500000000000000e-02 1.831940000000000001e-03 2.459663983558304068e+00
4.687500000000000000e-02 9.232819999999999916e-02 3.379837372840827747e+00
3.125000000000000173e-03 9.748629999999999796e-02 2.983847916511284115e-01
6.250000000000000347e-03 9.093119999999999675e-03 4.381310155415455654e+00
3.125000000000000173e-03 4.915199999999999778e-03 4.457130243005535952e-01
0.000000000000000000e+00 1.870909999999999934e-03 4.017515298070584606e+00
2.187499999999999861e-02 7.970879999999999632e-03 1.395941933944438995e+00
0.000000000000000000e+00 1.193559999999999933e-02 1.345807292760456964e+00
2.187499999999999861e-02 2.397820000000000160e-03 5.869181942299883659e-01
1.250000000000000069e-02 1.058599999999999958e-01 3.511625229268418469e+00
0.000000000000000000e+00 1.353180000000000008e-02 2.939240468650373472e+00
0.000000000000000000e+00 9.590399999999999793e-04 1.635986081746365617e-02
6.250000000000000347e-03 1.823490000000000093e-03 1.792952537495356991e-01
6.250000000000000347e-03 5.011709999999999950e-03 3.859533106009456205e+00
