0.000000000000000000e+00 5.884160000000000258e-04 4.580014329049967969e+00
3.125000000000000173e-03 7.502080000000000380e-04 2.122304117463698514e+00
0.000000000000000000e+00 3.033110000000000103e-04 3.752994570741118530e+00
9.374999999999999653e-03 9.215149999999999730e-02 5.746095777888549083e-01
1.250000000000000069e-02 9.714430000000000287e-02 2.349729136851943956e+00
0.000000000000000000e+00 3.785940000000000008e-04 1.440184261753336692e+00
6.250000000000000347e-03 3.276799999999999852e-03 4.365759093115674006e+00
1.562500000000000000e-02 2.351810000000000185e-03 3.629131142900796636e+00
0.000000000000000000e+00 4.340160000000000025e-03 7.523988785029245285e-02
0.000000000000000000e+00 2.001540000000000003e-03 1.020339370456734285e+00
0.000000000000000000e+00 3.639869999999999911e-03 1.863677855155017493e+00
0.000000000000000000e+00 1.119809999999999946e-03 7.107724955739180839e-01
6.250000000000000347e-03 3.720279999999999854e-03 1.170588524548349385e-01
0.000000000000000000e+00 2.398310000000000025e-02 3.064218087209660712e+00
3.125000000000000173e-03 4.526080000000000034e-03 1.414203501834876420e+00
0.000000000000000000e+00 1.081469999999999957e-03 4.809510811566821253e+00
3.125000000000000173e-03 1.007910000000000056e-01 4.959548647528239762e+00
0.000000000000000000e+00 2.269950000000000179e-03 2.272259487854672244e+00
9.374999999999999653e-03 7.831679999999999935e-04 1.449717823677667106e+00
0.000000000000000000e+00 1.687939999999999970e-03 3.546782258226674589e+00
0.000000000000000000e+00 1.621059999999999906e-03 3.987279473110929562e+00
0.000000000000000000e+00 3.788800000000000045e-04 4.092790331540466120e+00
0.000000000000000000e+00 7.634560000000000304e-04 2.954447130144255862e+00
0.000000000000000000e+00 3.221499999999999971e-03 1.547816601082972365e+00
0.000000000000000000e+00 8.238720000000000158e-04 4.727499187060008268e+00
0.000000000000000000e+00 3.590020000000000190e-03 4.712142879649848126e+00
2.187499999999999861e-02 9.267880000000000562e-02 3.607999174742680282e+00
0.000000000000000000e+00 1.188929999999999935e-03 4.677679265621036642e+00
0.000000000000000000e+00 4.088610000000000009e-04 4.647978600703868146e+00
0.000000000000000000e+00 2.197569999999999819e-03 2.049459376847269532e+00
0.000000000000000000e+00 3.763500000000000135e-04 3.167894108736646785e+00
0.000000000000000000e+00 3.229060000000000177e-03 2.529204453227324123e+00
4.374999999999999722e-02 9.281109999999999360e-02 5.192685719084272344e-01
2.500000000000000139e-02 3.531390000000000137e-03 3.554115734943288807e+00
0.000000000000000000e+00 0.000000000000000000e+00 3.664085869596119593e+00
0.000000000000000000e+00 0.000000000000000000e+00 3.360615770511273581e+00
2.187499999999999861e-02 1.443070000000000073e-03 2.138119795542018586e+00
1.562500000000000000e-02 6.205699999999999758e-03 2.987517793412112432e+00
0.000000000000000000e+00 4.353659999999999648e-03 3.286327209762062829e+00
1.874999999999999931e-02 2.344189999999999902e-03 2.424055349335907383e+00
1.874999999999999931e-02 1.059569999999999956e-01 6.314058940197675440e-01
0.000000000000000000e+00 1.590080000000000009e-03 4.543810399158200397e+00
0.000000000000000000e+00 1.167040000000000048e-03 3.323806967804882717e+00
0.000000000000000000e+00 8.378580000000000272e-04 1.666783848056831552e+00
0.000000000000000000e+00 1.721920000000000048e-03 2.788836432395471743e+00
0.000000000000000000e+00 3.463389999999999785e-04 1.346410831119538853e+00
3.125000000000000173e-03 2.371659999999999827e-03 1.409759957262035623e-01
0.000000000000000000e+00 4.177860000000000254e-03 9.018129890873144427e-01
1.250000000000000069e-02 4.003650000000000091e-03 4.726912434763164583e+00
0.000000000000000000e+00 9.139839999999999553e-04 4.049252431418032039e+00
1.250000000000000069e-02 1.761860000000000075e-03 2.751200520584009546e+00
0.000000000000000000e+00 5.855359999999999992e-04 4.281345128730468019e+00
1.562500000000000000e-02 7.776000000000000360e-04 1.228805244123630125e+00
0.000000000000000000e+00 1.179069999999999944e-03 3.179179909956780792e-01
0.000000000000000000e+00 1.854659999999999946e-03 4.447398055042262044e+00
0.000000000000000000e+00 1.094169999999999995e-03 4.965690954247316213e+00
3.125000000000000173e-03 9.771169999999999856e-02 2.893237239502293168e+00
2.500000000000000139e-02 2.702659999999999958e-03 2.688972253753151964e+00
5.312499999999999861e-02 2.613390000000000157e-02 4.175209005659485051e+00
0.000000000000000000e+00 1.668040000000000042e-05 4.218572182819027461e+00
3.125000000000000173e-03 1.247679999999999926e-03 4.182914548819419487e+00
0.000000000000000000e+00 6.658099999999999696e-04 2.078692305056309308e+00
0.000000000000000000e+00 1.660479999999999986e-03 4.499273420149520142e+00
0.000000000000000000e+00 7.734120000000000144e-04 1.980161708563843881e+00
1.874999999999999931e-02 2.712379999999999913e-03 4.609823933009359997e+00
1.874999999999999931e-02 2.097019999999999787e-03 4.429260418892321027e+00
0.000000000000000000e+00 3.780810000000000008e-04 7.132124678754836467e-01
1.250000000000000069e-02 2.427460000000000208e-03 1.214256573633565761e+00
0.000000000000000000e+00 1.097340000000000034e-03 1.205895248967440159e+00
0.000000000000000000e+00 2.321919999999999887e-03 1.860131236856785719e+00
3.125000000000000173e-03 9.359240000000000614e-02 9.854645275575185659e-01
6.250000000000000347e-03 1.587780000000000007e-03 4.132305124244167516e+00
1.874999999999999931e-02 1.254340000000000056e-03 3.755112969997087546e-02
2.500000000000000139e-02 2.339200000000000047e-03 3.751821063141344226e+00
1.562500000000000000e-02 3.243900000000000082e-03 4.801782455236685898e+00
1.250000000000000069e-02 1.252029999999999896e-03 2.838355414692888878e+00
1.250000000000000069e-02 4.693570000000000207e-03 6.347055943403423495e-01
3.125000000000000173e-03 1.007289999999999991e-01 3.536131840017437078e+00
0.000000000000000000e+00 3.389890000000000004e-03 2.708269788524896526e+00
0.000000000000000000e+00 1.023419999999999929e-03 1.214863460605218881e+00
0.000000000000000000e+00 1.057219999999999991e-03 3.449641666300340859e+00
1.874999999999999931e-02 1.211040000000000033e-02 3.337589000999088285e+00
2.500000000000000139e-02 2.866689999999999863e-03 5.351626511958751387e-01
0.000000000000000000e+00 2.271989999999999909e-05 2.744096587357263584e+00
1.562500000000000000e-02 2.016190000000000170e-03 2.177563906755065837e+00
3.437500000000000278e-02 1.968840000000000173e-02 3.283681443607478379e+00
2.812500000000000069e-02 1.741499999999999992e-03 6.784786856298330449e-01
1.562500000000000000e-02 1.125860000000000055e-02 1.281116265387856057e+00
0.000000000000000000e+00 1.977979999999999842e-03 4.573098604630080111e+00
9.374999999999999653e-03 1.992959999999999784e-03 1.282852028657317511e+00
0.000000000000000000e+00 7.435939999999999824e-04 4.573309746164366807e-01
0.000000000000000000e+00 1.111100000000000065e-03 1.759178542364935982e+00
3.125000000000000173e-03 4.774139999999999634e-03 3.532706655756722824e+00
0.000000000000000000e+00 1.386480000000000004e-02 1.039037008699493114e+00
1.874999999999999931e-02 2.801860000000000201e-03 4.146370471233588262e+00
0.000000000000000000e+00 1.663870000000000019e-03 2.805508890643728659e+00
3.125000000000000173e-03 9.728380000000000360e-02 1.518497040663360664e+00
0.000000000000000000e+00 6.317570000000000130e-02 4.767302159389354088e+00
3.125000000000000173e-03 1.874879999999999993e-03 5.765885605301779293e-02
3.125000000000000173e-03 9.455850000000000366e-02 3.463684823581169692e+00
0.000000000000000000e+00 3.696810000000000135e-04 4.088176066243478957e+00
0.000000000000000000e+00 2.831939999999999805e-03 4.989450314505837980e+00
9.375000000000000000e-02 5.753239999999999743e-02 2.786334841645713212e+00
0.000000000000000000e+00 7.012709999999999473e-04 3.966188626438015952e+00
3.125000000000000173e-03 4.411199999999999670e-03 4.908860098155573226e+00
0.000000000000000000e+00 3.784020000000000135e-04 1.582223686772008087e+00
0.000000000000000000e+00 3.664000000000000156e-04 2.228350146751391314e+00
0.000000000000000000e+00 3.889920000000000053e-04 3.533303408515335864e+00
4.062500000000000139e-02 1.028249999999999997e-02 4.374901982494158403e+00
0.000000000000000000e+00 1.076609999999999980e-03 4.658917602716805106e+00
0.000000000000000000e+00 2.286819999999999901e-05 2.618526626948185942e+00
0.000000000000000000e+00 0.000000000000000000e+00 4.633366496673842150e+00
9.374999999999999653e-03 2.318719999999999809e-03 2.705454344962765489e+00
2.812500000000000069e-02 2.694269999999999912e-03 4.107072314659808931e+00
6.250000000000000347e-03 6.744960000000000148e-04 4.343433907754946866e+00
2.812500000000000069e-02 2.292220000000000195e-03 4.598101235586816493e+00
0.000000000000000000e+00 1.153090000000000061e-03 2.967007651902671572e+00
1.250000000000000069e-02 8.075520000000000094e-04 4.304014137543036078e+00
3.125000000000000173e-03 2.459709999999999935e-03 7.605123155203724616e-01
2.812500000000000069e-02 9.259599999999999775e-02 4.810282142131590888e+00
0.000000000000000000e+00 2.256780000000000101e-05 2.705320887397934637e+00
0.000000000000000000e+00 1.427839999999999936e-04 2.953407052468133287e+00
1.874999999999999931e-02 1.066990000000000022e-01 2.774760018189176281e-01
2.187499999999999861e-02 2.903230000000000133e-03 2.031163355952113392e+00
2.187499999999999861e-02 3.853500000000000154e-03 1.784647010462075967e-01
2.500000000000000139e-02 2.447679999999999821e-03 3.589914761507908114e+00
0.000000000000000000e+00 1.719940000000000002e-05 1.969417252573600230e+00
4.062500000000000139e-02 4.732750000000000151e-02 2.633414599878055817e+00
3.125000000000000173e-03 4.191359999999999877e-03 1.350843982536417798e+00
0.000000000000000000e+00 2.224630000000000078e-05 2.001049164261065716e+00
0.000000000000000000e+00 1.046459999999999925e-03 4.932490757196397624e+00
0.000000000000000000e+00 1.827070000000000083e-03 4.711264581005488949e+00
0.000000000000000000e+00 1.005950000000000030e-03 3.345756157892928684e+00
1.562500000000000000e-02 1.762689999999999917e-03 4.144599399917704652e+00
0.000000000000000000e+00 1.112509999999999931e-03 1.721135420243560699e+00
0.000000000000000000e+00 3.492419999999999986e-03 1.947193562451493554e+00
1.250000000000000069e-02 2.729150000000000065e-03 2.858412975941922340e+00
9.374999999999999653e-03 7.512960000000000384e-04 1.177381944361634680e+00
0.000000000000000000e+00 6.716450000000000111e-04 2.846658168450502124e+00
0.000000000000000000e+00 3.639040000000000178e-04 1.513470248152511966e+00
0.000000000000000000e+00 1.286269999999999948e-03 7.818547999959657435e-01
2.187499999999999861e-02 2.413569999999999865e-03 1.638070232035128138e+00
0.000000000000000000e+00 3.707070000000000135e-04 1.995845433655043522e+00
3.125000000000000173e-03 1.638399999999999926e-03 3.918061089572763223e+00
3.125000000000000173e-03 3.088950000000000029e-02 3.451027572749187922e-01
0.000000000000000000e+00 9.567999999999999465e-04 4.991955075886604476e+00
2.812500000000000069e-02 2.356669999999999945e-03 4.042799970851483238e+00
0.000000000000000000e+00 1.060490000000000087e-03 2.941721762672635521e+00
0.000000000000000000e+00 4.350050000000000271e-03 4.275957410434479300e+00
0.000000000000000000e+00 3.992959999999999934e-04 2.429966063262217979e+00
1.874999999999999931e-02 2.650749999999999895e-03 1.273261126149940026e+00
1.874999999999999931e-02 1.512260000000000080e-03 3.007467822718853157e+00
1.874999999999999931e-02 1.883389999999999977e-03 5.363312827957877893e-03
3.125000000000000173e-03 2.444159999999999909e-03 4.706527938631804631e+00
2.500000000000000139e-02 9.529239999999999933e-02 9.438703267455522683e-01
3.125000000000000173e-03 3.332100000000000166e-03 2.801469024232528415e+00
1.250000000000000069e-02 7.651840000000000247e-04 1.687427015985392131e+00
0.000000000000000000e+00 0.000000000000000000e+00 4.296490374652870869e+00
0.000000000000000000e+00 3.600000000000000227e-04 3.389395189426530619e-01
1.250000000000000069e-02 2.460219999999999942e-03 1.189965265422776142e+00
0.000000000000000000e+00 1.044149999999999983e-03 3.572876769365488592e+00
3.125000000000000173e-03 4.025249999999999662e-02 1.244621794863822739e+00
0.000000000000000000e+00 2.928000000000000155e-04 7.250886226922015343e-01
2.812500000000000069e-02 3.199809999999999981e-03 3.281908539640698841e+00
1.874999999999999931e-02 2.593980000000000070e-03 2.470563847255306200e+00
0.000000000000000000e+00 2.117949999999999954e-03 3.076797466389166846e+00
2.812500000000000069e-02 2.029570000000000072e-03 4.989933850840630569e+00
1.562500000000000000e-02 1.262339999999999990e-02 2.919524767573093982e+00
0.000000000000000000e+00 6.007039999999999732e-04 1.077878085823766874e+00
0.000000000000000000e+00 1.016320000000000027e-03 2.905968122710520962e+00
0.000000000000000000e+00 3.874559999999999983e-04 3.932362617187078691e+00
0.000000000000000000e+00 3.828479999999999774e-04 1.040163571258325703e+00
1.250000000000000069e-02 3.112000000000000183e-03 2.528431002746699185e+00
9.374999999999999653e-03 1.441470000000000034e-03 4.417701123201664082e+00
0.000000000000000000e+00 1.062589999999999976e-03 3.684813687928674142e+00
2.187499999999999861e-02 5.484799999999999745e-03 2.986649936395322058e+00
1.562500000000000000e-02 9.367050000000000376e-02 3.207381439615812901e+00
1.250000000000000069e-02 2.013500000000000099e-03 3.674128467040275847e+00
2.500000000000000139e-02 2.421379999999999887e-03 3.197263600521084825e+00
3.125000000000000173e-03 1.523459999999999918e-02 3.168467209584359345e+00
3.125000000000000173e-03 1.746689999999999961e-03 4.793571366461179650e+00
2.187499999999999861e-02 1.072449999999999931e-01 5.730792170120291296e-01
2.500000000000000139e-02 2.437949999999999926e-03 2.811828293869602646e+00
3.125000000000000173e-03 7.920190000000000563e-03 3.066083578965622003e+00
0.000000000000000000e+00 1.056059999999999941e-03 1.754252977727294160e+00
2.500000000000000139e-02 8.284889999999999616e-03 1.538578856759252877e+00
2.187499999999999861e-02 2.563460000000000044e-03 2.147778732202049179e-01
2.187499999999999861e-02 3.070779999999999951e-03 2.972064428968828498e+00
1.562500000000000000e-02 1.684420000000000058e-03 1.342869772514947435e+00
0.000000000000000000e+00 2.282429999999999789e-03 1.913881811752924378e+00
0.000000000000000000e+00 1.008259999999999972e-03 1.750793217855092232e+00
1.874999999999999931e-02 1.174910000000000017e-02 3.710211540516946904e+00
0.000000000000000000e+00 7.341669999999999793e-04 3.285146102155516168e+00
1.562500000000000000e-02 2.036350000000000139e-03 2.301321194666396508e+00
1.250000000000000069e-02 9.214990000000000681e-02 2.514162948013940913e+00
0.000000000000000000e+00 1.782850000000000103e-03 2.812280881302386959e+00
0.000000000000000000e+00 4.282269999999999913e-04 5.804358727847230837e-01
1.250000000000000069e-02 1.236799999999999922e-03 2.562042602158504767e+00
2.187499999999999861e-02 3.940349999999999582e-03 4.888410453509367315e+00
5.312499999999999861e-02 9.354339999999999877e-02 1.253069697754979339e+00
6.250000000000000347e-03 1.508929999999999907e-03 4.871770075330474903e+00
3.125000000000000173e-03 9.684170000000000278e-02 4.027882304859990548e+00
0.000000000000000000e+00 9.947520000000000060e-04 2.882420349826327222e+00
0.000000000000000000e+00 2.887359999999999840e-03 1.188779485162699823e-01
3.125000000000000173e-03 1.453710000000000072e-02 2.008909116536916173e+00
1.874999999999999931e-02 1.574249999999999955e-02 4.389472082642649653e+00
0.000000000000000000e+00 4.353250000000000348e-03 1.321579700918236178e+00
9.374999999999999653e-03 1.057099999999999984e-01 1.666237656703676961e+00
3.125000000000000173e-03 2.046720000000000136e-03 2.283159293466344053e+00
0.000000000000000000e+00 4.253409999999999786e-04 4.145130900958938547e+00
3.125000000000000173e-03 7.959449999999999859e-03 2.771767313735672644e+00
9.374999999999999653e-03 2.862589999999999926e-03 2.401481425537517644e+00
0.000000000000000000e+00 9.142399999999999746e-04 1.051161202009299744e+00
2.187499999999999861e-02 9.788149999999999629e-02 4.228200712670986405e+00
0.000000000000000000e+00 9.648639999999999561e-04 4.393570968867266391e-01
0.000000000000000000e+00 1.119870000000000023e-03 1.902674807342118468e+00
3.125000000000000173e-03 4.531780000000000010e-03 4.146300079635554248e+00
2.500000000000000139e-02 2.124990000000000212e-03 1.252764008573681753e+00
1.562500000000000000e-02 2.516579999999999859e-02 5.924913045773427811e-01
0.000000000000000000e+00 1.144770000000000032e-03 2.086714191332586843e+00
0.000000000000000000e+00 1.155519999999999941e-03 2.422734647226445936e+00
0.000000000000000000e+00 4.136060000000000105e-04 2.582830127491319239e+00
2.812500000000000069e-02 2.822460000000000160e-03 1.531561954649596213e-01
1.250000000000000069e-02 2.093569999999999893e-03 3.863944142182644814e+00
1.562500000000000000e-02 2.159229999999999830e-03 4.099462191966896540e+00
3.125000000000000000e-02 2.373699999999999855e-03 4.903018975821610503e+00
0.000000000000000000e+00 4.257659999999999917e-03 8.917050598315506837e-01
1.250000000000000069e-02 9.323900000000000243e-02 8.322764198733423324e-01
9.374999999999999653e-03 1.267649999999999940e-03 9.920262250518963043e-01
0.000000000000000000e+00 1.384580000000000055e-03 2.382545646946017115e+00
0.000000000000000000e+00 5.132560000000000204e-04 1.180534633467998251e+00
6.250000000000000347e-03 9.835170000000000023e-02 3.170823950242422917e+00
3.125000000000000173e-03 3.425169999999999951e-03 9.293119438310337710e-01
0.000000000000000000e+00 2.127359999999999906e-04 6.763992114061850858e-01
0.000000000000000000e+00 3.762850000000000201e-04 3.604760059300195607e+00
0.000000000000000000e+00 9.320319999999999560e-04 2.930547748529488405e-01
0.000000000000000000e+00 9.013120000000000333e-04 2.840528147828330630e-01
0.000000000000000000e+00 3.756799999999999810e-04 3.849762177402871632e+00
0.000000000000000000e+00 1.658109999999999966e-03 2.985455654145121596e+00
3.125000000000000173e-03 1.935769999999999852e-02 6.845399099224919182e-01
0.000000000000000000e+00 1.011069999999999981e-03 3.541818751089019113e+00
0.000000000000000000e+00 1.196859999999999894e-03 1.815024498717871637e+00
9.374999999999999653e-03 2.024489999999999970e-02 4.313709992905170765e+00
3.437500000000000278e-02 1.075390000000000026e-02 4.535205556596956455e+00
0.000000000000000000e+00 3.268159999999999989e-03 3.284357111855272127e+00
6.250000000000000347e-03 2.023490000000000184e-03 4.198204050146746802e+00
0.000000000000000000e+00 1.410620000000000016e-03 4.914776096598804322e+00
3.125000000000000173e-03 3.339780000000000092e-03 1.966670976070458821e+00
1.250000000000000069e-02 1.570690000000000020e-03 1.393114691523420934e+00
4.687500000000000000e-02 5.204160000000000209e-03 4.825651660927610997e+00
0.000000000000000000e+00 1.508750000000000022e-02 7.786955284302771174e-01
0.000000000000000000e+00 2.081280000000000022e-03 5.145347082411078077e-01
1.250000000000000069e-02 2.127490000000000110e-03 2.476405100014448024e+00
0.000000000000000000e+00 4.739010000000000097e-03 4.986207885001693541e+00
0.000000000000000000e+00 9.246719999999999723e-04 4.513451883085780381e+00
3.125000000000000000e-02 3.635050000000000087e-02 3.919266864594821875e+00
0.000000000000000000e+00 2.402880000000000033e-03 2.130034440230674342e+00
1.562500000000000000e-02 3.481979999999999971e-03 3.869261525941609214e+00
0.000000000000000000e+00 6.466120000000000201e-02 3.408731489290674599e+00
1.562500000000000000e-02 2.199360000000000030e-03 2.488896204051487704e+00
0.000000000000000000e+00 8.748799999999999719e-04 1.682780942102493515e+00
1.874999999999999931e-02 3.223170000000000028e-03 4.394525367165482699e+00
6.250000000000000347e-03 3.276799999999999852e-03 3.488787959300911901e+00
0.000000000000000000e+00 3.859199999999999913e-04 3.964413112512935378e+00
1.562500000000000000e-02 3.479809999999999848e-03 4.495389371912135168e+00
6.250000000000000347e-03 9.910410000000000053e-02 1.780650135471351092e-02
6.250000000000000347e-03 9.987440000000000206e-02 1.778128236015918517e+00
9.374999999999999653e-03 2.474370000000000042e-03 1.866962429053717898e+00
6.250000000000000347e-03 3.276799999999999852e-03 3.566954830675157950e+00
2.500000000000000139e-02 2.446460000000000128e-03 4.744849536188237238e+00
0.000000000000000000e+00 1.866299999999999990e-03 4.870430401017569189e+00
3.125000000000000173e-03 2.117700000000000138e-03 3.084315976488503530e+00
9.374999999999999653e-03 2.341950000000000195e-03 6.665117646581170119e-01
3.125000000000000173e-03 9.284480000000000120e-04 1.210366215344073071e+00
1.562500000000000000e-02 4.064260000000000095e-03 2.991633680011691165e+00
0.000000000000000000e+00 1.093950000000000001e-03 3.062060706275004929e+00
0.000000000000000000e+00 8.912739999999999508e-04 2.453336857933457349e+00
0.000000000000000000e+00 1.818179999999999970e-03 3.371726863687811271e+00
0.000000000000000000e+00 7.699840000000000330e-04 2.805886158613968284e+00
2.500000000000000139e-02 2.691390000000000102e-03 1.230944340776558565e+00
9.374999999999999653e-03 2.358079999999999812e-03 4.865299041727920049e+00
6.250000000000000347e-03 9.262410000000000088e-02 3.712268325671895131e+00
1.874999999999999931e-02 2.056580000000000127e-03 4.453585254023995965e+00
6.250000000000000347e-03 1.217090000000000099e-03 4.558560280244100760e+00
0.000000000000000000e+00 1.215549999999999920e-03 4.448020311264438753e+00
3.125000000000000173e-03 4.881860000000000019e-03 2.108557065286870147e-01
0.000000000000000000e+00 6.537860000000000373e-03 6.314610180807977979e-01
0.000000000000000000e+00 8.933759999999999792e-04 4.127879836722577522e+00
3.125000000000000173e-03 1.719630000000000117e-02 5.878921968809847076e-02
0.000000000000000000e+00 2.378840000000000080e-05 3.758386877585541797e+00
6.250000000000000347e-03 2.099329999999999946e-03 2.596993157701207089e+00
0.000000000000000000e+00 3.791039999999999688e-02 3.395615765725829682e+00
0.000000000000000000e+00 1.145860000000000064e-03 5.444387562866898067e-01
6.250000000000000347e-03 6.517180000000000195e-02 1.510625372586088533e-01
1.874999999999999931e-02 1.181510000000000025e-02 4.114218407196779115e-01
0.000000000000000000e+00 1.388670000000000052e-03 2.444142716315275798e+00
0.000000000000000000e+00 3.034390000000000199e-04 2.349431289570589776e+00
3.125000000000000173e-03 1.054900000000000004e-01 1.970274595373608939e+00
0.000000000000000000e+00 3.086339999999999917e-03 1.237546815821499724e+00
1.874999999999999931e-02 2.582140000000000130e-03 2.683586046870714448e+00
6.250000000000000347e-03 1.067980000000000040e-01 1.792948624259918411e+00
0.000000000000000000e+00 3.842180000000000161e-03 3.333333643675830960e+00
0.000000000000000000e+00 7.208289999999999793e-04 4.551887713127775292e+00
0.000000000000000000e+00 1.739520000000000042e-04 2.939033350084616636e+00
3.125000000000000173e-03 6.851199999999999998e-04 4.530332993719953016e+00
1.562500000000000000e-02 2.107710000000000052e-03 4.662484392332779670e+00
0.000000000000000000e+00 1.704130000000000098e-03 4.865912365624931901e+00
1.250000000000000069e-02 1.710659999999999958e-02 4.963637242830698071e+00
0.000000000000000000e+00 0.000000000000000000e+00 1.849125019928616886e+00
5.000000000000000278e-02 9.220989999999999742e-02 2.476917839280377454e+00
3.125000000000000173e-03 3.096470000000000038e-03 1.497420639796508413e+00
0.000000000000000000e+00 7.971849999999999770e-02 2.329305356597773269e+00
2.187499999999999861e-02 1.808640000000000031e-03 3.910800389036688252e+00
3.125000000000000173e-03 2.013060000000000110e-03 3.362969178980323548e+00
0.000000000000000000e+00 3.046909999999999896e-03 3.005761419308494720e+00
0.000000000000000000e+00 1.102719999999999959e-03 3.824438257377442696e+00
1.250000000000000069e-02 1.003499999999999948e-01 4.564428513974318591e+00
3.125000000000000173e-03 7.527869999999999874e-03 9.400465691437931426e-02
0.000000000000000000e+00 1.914239999999999887e-04 4.768621029458095961e+00
0.000000000000000000e+00 1.237119999999999973e-03 3.698423043451674275e+00
0.000000000000000000e+00 3.082240000000000088e-04 9.614929035181901673e-01
6.250000000000000347e-03 9.790200000000000291e-02 2.922280825415671579e+00
3.125000000000000000e-02 9.376809999999999312e-02 4.937245773726158582e+00
3.125000000000000173e-03 1.898319999999999869e-02 4.663245215103108521e+00
0.000000000000000000e+00 4.246359999999999913e-04 2.222635966961690634e+00
0.000000000000000000e+00 3.995710000000000407e-03 5.821422863325714792e-01
0.000000000000000000e+00 7.226249999999999601e-04 1.095114812091436685e+00
0.000000000000000000e+00 3.258500000000000112e-03 1.255397627467940591e+00
0.000000000000000000e+00 1.587579999999999894e-03 3.498411673041792458e+00
0.000000000000000000e+00 5.377340000000000418e-03 2.443840694662885449e-01
0.000000000000000000e+00 4.150170000000000009e-04 1.977951868559218340e+00
0.000000000000000000e+00 9.848319999999999384e-04 2.946126913847657569e-02
0.000000000000000000e+00 6.914370000000000238e-02 3.056903297921734097e+00
1.874999999999999931e-02 4.611709999999999768e-03 1.671378552830533160e+00
1.874999999999999931e-02 4.971259999999999915e-03 1.156745871715031404e+00
0.000000000000000000e+00 4.365630000000000010e-04 2.550703699374814004e+00
0.000000000000000000e+00 2.183400000000000136e-05 1.127420787043066364e+00
1.562500000000000000e-02 1.382140000000000018e-03 4.965878123633840957e+00
3.125000000000000173e-03 3.976509999999999941e-03 4.242124627750466281e+00
0.000000000000000000e+00 7.627520000000000047e-04 2.429021185125395110e+00
0.000000000000000000e+00 4.164920000000000232e-04 3.511405915552706425e+00
0.000000000000000000e+00 1.116030000000000060e-03 4.916796558188959665e+00
0.000000000000000000e+00 2.545280000000000134e-04 4.929093615986826826e+00
0.000000000000000000e+00 1.933040000000000105e-02 9.755218558016470753e-01
0.000000000000000000e+00 1.059220000000000040e-03 2.683378947082774246e+00
0.000000000000000000e+00 7.291650000000000431e-04 2.891526975763738516e+00
0.000000000000000000e+00 1.011009999999999904e-03 8.044938970242221377e-02
1.562500000000000000e-02 1.066209999999999944e-03 1.132792982459200903e+00
3.125000000000000173e-03 1.791229999999999992e-03 9.535652511554815192e-01
1.562500000000000000e-02 1.969540000000000093e-03 9.871367438749684142e-01
2.187499999999999861e-02 1.123580000000000108e-03 1.099681839570889608e+00
0.000000000000000000e+00 5.107560000000000138e-04 4.314844955574828944e+00
0.000000000000000000e+00 3.210619999999999967e-03 2.339811795068035494e+00
0.000000000000000000e+00 1.799739999999999977e-03 3.689087973408601950e+00
5.312499999999999861e-02 9.425160000000000482e-02 2.339857349156302835e+00
0.000000000000000000e+00 3.750030000000000008e-04 3.412237116563219264e+00
0.000000000000000000e+00 4.872219999999999915e-04 1.754431866548822327e-01
0.000000000000000000e+00 8.341759999999999496e-04 1.048227039878522504e+00
0.000000000000000000e+00 9.789440000000000381e-04 3.716884769679633660e+00
5.625000000000000139e-02 2.128160000000000121e-02 3.399695916738565860e+00
2.500000000000000139e-02 3.067460000000000152e-03 4.225880806882276630e+00
0.000000000000000000e+00 4.391040000000000026e-04 2.044911622336622603e+00
3.125000000000000173e-03 9.624169999999999947e-02 1.179759902498300761e-01
0.000000000000000000e+00 5.449339999999999566e-04 5.872040368630915275e-01
4.062500000000000139e-02 2.753600000000000145e-02 4.391508771886282858e+00
6.250000000000000347e-03 1.070179999999999916e-02 4.432117797134990766e+00
1.562500000000000000e-02 2.454079999999999977e-03 1.067494660060234857e+00
0.000000000000000000e+00 1.542659999999999951e-03 4.815345131763171249e-01
0.000000000000000000e+00 3.425280000000000165e-03 3.805961947752183772e+00
0.000000000000000000e+00 2.595200000000000089e-04 3.690672705284205879e+00
0.000000000000000000e+00 1.052610000000000047e-03 2.271942918798821598e+00
3.125000000000000173e-03 2.196669999999999959e-03 2.264433994016949558e+00
6.250000000000000347e-03 1.280039999999999997e-02 4.880680464687560338e+00
0.000000000000000000e+00 1.296449999999999990e-03 3.647632156260939951e+00
0.000000000000000000e+00 2.460139999999999896e-02 4.031702878290993830e+00
0.000000000000000000e+00 1.607230000000000074e-03 1.782389329276570233e+00
9.374999999999999653e-03 9.992420000000000468e-02 2.099555312210839464e+00
2.187499999999999861e-02 1.627579999999999999e-03 6.711430317531519307e-02
0.000000000000000000e+00 6.727870000000000378e-03 4.189279239879637906e+00
2.500000000000000139e-02 3.280190000000000102e-03 2.384204932591569737e+00
0.000000000000000000e+00 1.425660000000000035e-03 3.136830288401882161e+00
3.125000000000000173e-03 5.774330000000000261e-03 4.756321193861688279e+00
0.000000000000000000e+00 3.822720000000000154e-04 7.634941748572010578e-01
0.000000000000000000e+00 1.539970000000000097e-03 1.830670980959892002e-01
0.000000000000000000e+00 3.539710000000000165e-04 4.088069343386898424e+00
1.562500000000000000e-02 2.150780000000000140e-03 1.115160919276636520e+00
3.125000000000000173e-03 2.572290000000000080e-03 1.225226566121355720e+00
0.000000000000000000e+00 1.154749999999999961e-03 3.069193131333625146e+00
1.250000000000000069e-02 2.138619999999999931e-03 2.695033551297735031e+00
6.250000000000000347e-03 2.121520000000000072e-01 1.812705347414881984e+00
0.000000000000000000e+00 1.035139999999999932e-03 3.170066707113682991e+00
9.374999999999999653e-03 2.491199999999999838e-03 3.804865265317882717e+00
0.000000000000000000e+00 3.410299999999999790e-03 4.992356870507073552e+00
9.374999999999999653e-03 1.499579999999999923e-03 4.593297593229309861e+00
9.374999999999999653e-03 1.800960000000000104e-03 4.481089864672014755e+00
1.874999999999999931e-02 2.500609999999999899e-03 2.607180562502796839e+00
6.250000000000000347e-03 3.276799999999999852e-03 3.733644896045218431e-01
0.000000000000000000e+00 3.785940000000000008e-04 2.450580953340948831e+00
2.812500000000000069e-02 2.498880000000000198e-03 1.956158162545710288e+00
6.250000000000000347e-03 4.163899999999999893e-03 6.958478515389610042e-02
9.374999999999999653e-03 1.684739999999999892e-03 2.038475345865548682e+00
0.000000000000000000e+00 1.363300000000000015e-03 4.386826658755917485e+00
0.000000000000000000e+00 3.621179999999999885e-03 4.106099347894432761e+00
0.000000000000000000e+00 1.816579999999999931e-03 3.711279366877974883e+00
0.000000000000000000e+00 7.340390000000000239e-04 3.698746720779537256e+00
0.000000000000000000e+00 9.200000000000000278e-04 9.229256469855118272e-01
2.187499999999999861e-02 1.524739999999999906e-03 3.392329559051782129e-01
3.125000000000000173e-03 4.273729999999999890e-03 2.145327506404235418e+00
0.000000000000000000e+00 7.703340000000000144e-04 1.544901049417770178e+00
4.062500000000000139e-02 9.405579999999999496e-02 3.115638282898157030e+00
0.000000000000000000e+00 4.052700000000000009e-04 3.669694258152840671e+00
9.374999999999999653e-03 2.474370000000000042e-03 3.154868517520013960e+00
5.000000000000000278e-02 3.879939999999999778e-02 2.422080403820433325e+00
1.562500000000000000e-02 2.669570000000000016e-03 3.761550808796616518e+00
0.000000000000000000e+00 9.728640000000000421e-04 2.476751614476208063e-01
2.187499999999999861e-02 2.044859999999999907e-03 3.570888375077358567e+00
1.562500000000000000e-02 1.549500000000000096e-03 3.045512064961998000e+00
0.000000000000000000e+00 3.187840000000000161e-04 3.999872036008305543e+00
6.250000000000000347e-03 2.935230000000000044e-03 4.970419384555567532e+00
0.000000000000000000e+00 9.785600000000000635e-04 9.090746061041854453e-01
0.000000000000000000e+00 6.297149999999999970e-02 3.401117299121621862e+00
3.125000000000000000e-02 9.240170000000000328e-02 4.122643109286766361e+00
0.000000000000000000e+00 4.077710000000000232e-04 3.731995902861733772e+00
0.000000000000000000e+00 4.670079999999999848e-04 8.603012011574245888e-01
2.500000000000000139e-02 1.409220000000000091e-03 4.568792707793734031e+00
0.000000000000000000e+00 1.466620000000000076e-03 2.693804118169368378e-01
2.187499999999999861e-02 1.057820000000000010e-01 1.015158700364804378e+00
1.562500000000000000e-02 2.234820000000000209e-03 2.611479733716132179e-01
3.125000000000000173e-03 9.512270000000000447e-02 4.279586987572583823e+00
0.000000000000000000e+00 6.336769999999999903e-02 1.938179775440829200e+00
0.000000000000000000e+00 3.134720000000000236e-04 1.847164642915561483e+00
0.000000000000000000e+00 7.323069999999999666e-04 4.533854175018749544e+00
1.250000000000000069e-02 4.327550000000000320e-03 4.100875028192606742e+00
0.000000000000000000e+00 2.147329999999999812e-03 1.476376588438157889e+00
0.000000000000000000e+00 8.081090000000000842e-03 8.721907512344462265e-01
0.000000000000000000e+00 0.000000000000000000e+00 4.925063260163126122e-01
0.000000000000000000e+00 1.509549999999999954e-02 2.990321247158422402e+00
0.000000000000000000e+00 1.024720000000000015e-03 4.992598156349245642e+00
0.000000000000000000e+00 4.182230000000000105e-04 1.555822003458000591e+00
3.125000000000000173e-03 4.025280000000000004e-03 2.739209753880435194e+00
0.000000000000000000e+00 1.571970000000000008e-03 4.336481887036688576e+00
0.000000000000000000e+00 1.018940000000000080e-03 2.532604093565678838e+00
0.000000000000000000e+00 5.512959999999999475e-04 1.129230222964399122e+00
3.125000000000000173e-03 1.724770000000000036e-03 1.028435323225943554e+00
3.125000000000000000e-02 2.036359999999999906e-02 4.073140248065726610e+00
6.250000000000000347e-03 1.433470000000000057e-03 1.875713462304241519e+00
0.000000000000000000e+00 4.318179999999999913e-04 4.689699587351915611e+00
1.562500000000000000e-02 1.638399999999999926e-03 3.763200571711056597e+00
0.000000000000000000e+00 3.565500000000000093e-03 4.991174083467765143e+00
2.187499999999999861e-02 2.578819999999999897e-03 8.512398332685472413e-01
0.000000000000000000e+00 9.989120000000000204e-04 1.835120557794455154e+00
2.500000000000000139e-02 4.714920000000000222e-02 1.842568674845209031e+00
3.125000000000000000e-02 8.395899999999999544e-03 4.032043141204851189e+00
6.250000000000000000e-02 3.850750000000000006e-02 5.181396346549715926e-01
0.000000000000000000e+00 3.980799999999999833e-04 2.559481623221959712e+00
0.000000000000000000e+00 1.241789999999999995e-03 3.661964376984887082e+00
0.000000000000000000e+00 1.191119999999999939e-03 3.678945625688001542e-01
0.000000000000000000e+00 1.534530000000000095e-03 7.715288585869300997e-01
2.500000000000000139e-02 4.818689999999999606e-03 3.800136461224708384e+00
0.000000000000000000e+00 3.661950000000000188e-03 4.123139700333498858e+00
1.250000000000000069e-02 2.706179999999999870e-03 4.526385513572860120e+00
1.562500000000000000e-02 1.786559999999999971e-03 9.999036112950682176e-01
0.000000000000000000e+00 2.204800000000000032e-04 5.349258475164275772e-01
0.000000000000000000e+00 7.805940000000000144e-04 2.914310217593398811e+00
0.000000000000000000e+00 4.808960000000000253e-04 4.056762354564544815e+00
2.187499999999999861e-02 1.729980000000000103e-03 3.553636852851882466e-01
0.000000000000000000e+00 4.042879999999999890e-04 2.426396505202145892e+00
0.000000000000000000e+00 1.313250000000000008e-02 1.324068208590674089e+00
3.125000000000000173e-03 1.451640000000000048e-02 4.518348129244037281e+00
0.000000000000000000e+00 1.059669999999999970e-03 2.542134390270816446e+00
0.000000000000000000e+00 1.068900000000000015e-03 9.222056255206362296e-01
4.062500000000000139e-02 9.206000000000000294e-02 3.252034878144629548e+00
6.250000000000000347e-03 3.276799999999999852e-03 1.677096476159105620e+00
3.125000000000000173e-03 1.638399999999999926e-03 1.884331868874585147e+00
0.000000000000000000e+00 1.485819999999999893e-03 5.179248270559333456e-01
0.000000000000000000e+00 5.935409999999999471e-04 1.187644284132028938e+00
0.000000000000000000e+00 6.077769999999999917e-04 2.786234687570346757e+00
0.000000000000000000e+00 1.069379999999999983e-03 2.197607110862048074e+00
0.000000000000000000e+00 6.004479999999999540e-04 1.109316563541590250e-01
0.000000000000000000e+00 1.272179999999999925e-03 3.554671588003318838e+00
9.374999999999999653e-03 7.057920000000000079e-04 7.998526955513673986e-01
0.000000000000000000e+00 3.280379999999999841e-03 3.370521582071341449e+00
3.125000000000000173e-03 9.940859999999999974e-02 1.230780112793136150e+00
0.000000000000000000e+00 2.295040000000000036e-04 1.964016995108508468e+00
3.125000000000000173e-03 1.058079999999999993e-01 5.406807409489566840e-02
0.000000000000000000e+00 9.843199999999998999e-04 2.063658724512839715e+00
0.000000000000000000e+00 2.180440000000000069e-03 1.647492937793682000e-01
6.250000000000000347e-03 3.494160000000000321e-02 3.921745265549874127e+00
1.250000000000000069e-02 9.178999999999999659e-02 4.896140825756485349e+00
2.500000000000000139e-02 2.524419999999999876e-03 3.559298371738300881e-01
0.000000000000000000e+00 1.448649999999999894e-03 3.333884170405070790e+00
0.000000000000000000e+00 3.762209999999999882e-04 2.748560932600986995e+00
9.374999999999999653e-03 3.085500000000000135e-03 2.098856194893888860e-01
0.000000000000000000e+00 8.272899999999999698e-03 4.251331619499940651e+00
2.812500000000000069e-02 2.122140000000000137e-02 3.278616974510617510e+00
2.500000000000000139e-02 4.778840000000000171e-02 4.917433337380419545e+00
0.000000000000000000e+00 1.508080000000000011e-02 3.650250381353248308e+00
2.812500000000000069e-02 1.834300000000000080e-03 3.768795413039110365e+00
6.250000000000000347e-03 2.523389999999999921e-03 2.240285676104194046e+00
4.687500000000000000e-02 9.202960000000000307e-02 3.498397805150299522e-01
1.874999999999999931e-02 9.358769999999999589e-02 2.685826999490960709e+00
0.000000000000000000e+00 3.996159999999999903e-04 4.920667984595799460e+00
2.812500000000000069e-02 1.663490000000000107e-03 1.020236245816017906e+00
3.125000000000000173e-03 4.507390000000000008e-03 1.564900331038365344e+00
2.187499999999999861e-02 2.717569999999999882e-03 2.155551507784871923e+00
2.500000000000000139e-02 9.942589999999999414e-03 2.314081048319972744e+00
2.187499999999999861e-02 2.231550000000000113e-03 2.742323488933101849e+00
0.000000000000000000e+00 1.150980000000000015e-03 5.526927829745237331e-01
0.000000000000000000e+00 3.067519999999999795e-03 4.474385094590271450e+00
0.000000000000000000e+00 1.266940000000000037e-03 4.813863261801921034e+00
9.374999999999999653e-03 2.273540000000000109e-03 3.177019308200638825e+00
3.125000000000000173e-03 1.923079999999999928e-02 3.757305866259211591e+00
3.125000000000000173e-03 1.723420000000000030e-03 3.681945782006748935e+00
0.000000000000000000e+00 1.209730000000000007e-03 1.375829114627396432e+00
0.000000000000000000e+00 3.788800000000000045e-04 1.356670162918863776e+00
1.250000000000000069e-02 1.384510000000000038e-03 5.058979151269765717e-01
2.187499999999999861e-02 3.218979999999999758e-02 2.936301295543699119e+00
0.000000000000000000e+00 1.868159999999999949e-04 3.970437879029135253e+00
3.125000000000000173e-03 1.902270000000000003e-02 1.392531383752312335e+00
0.000000000000000000e+00 7.254460000000000335e-04 2.890739092155571566e+00
0.000000000000000000e+00 2.628160000000000045e-03 4.104417738539220650e+00
1.250000000000000069e-02 3.199809999999999981e-03 8.114716786163472806e-01
0.000000000000000000e+00 2.457600000000000062e-02 5.799627402045876012e-01
0.000000000000000000e+00 0.000000000000000000e+00 1.115675484881788027e+00
0.000000000000000000e+00 1.334759999999999940e-03 4.847718968376836912e+00
0.000000000000000000e+00 3.561510000000000262e-04 1.000542179769359219e+00
9.374999999999999653e-03 1.782340000000000096e-03 1.437293184917198818e-01
0.000000000000000000e+00 9.154560000000000388e-04 3.183468656793034590e+00
0.000000000000000000e+00 8.928000000000000172e-04 4.494870801946312611e+00
3.125000000000000173e-03 2.899969999999999978e-03 4.870718691294332103e+00
2.187499999999999861e-02 2.663809999999999963e-03 3.354895599261233929e+00
1.562500000000000000e-02 9.968399999999999483e-02 4.518004460257152743e+00
0.000000000000000000e+00 2.567679999999999919e-04 2.612903966837810010e+00
0.000000000000000000e+00 3.194620000000000012e-03 9.020501660807245248e-01
0.000000000000000000e+00 3.853910000000000105e-04 2.605910486694245076e+00
6.250000000000000347e-03 1.120129999999999997e-03 2.883647640372738463e-01
1.250000000000000069e-02 7.835709999999999203e-03 4.929045062015827483e+00
0.000000000000000000e+00 1.489880000000000067e-03 2.113437924446719851e+00
2.187499999999999861e-02 2.473920000000000112e-03 2.930521260352360713e+00
0.000000000000000000e+00 3.973659999999999692e-02 4.764264129904738354e+00
3.125000000000000173e-03 3.774210000000000065e-03 2.835127730088753406e+00
0.000000000000000000e+00 4.432959999999999787e-04 3.124654854892269906e+00
0.000000000000000000e+00 1.752120000000000091e-05 3.691546461796528789e+00
9.374999999999999653e-03 1.580859999999999904e-03 7.254817550826281325e-01
0.000000000000000000e+00 2.947839999999999749e-04 1.043666811037713416e-01
0.000000000000000000e+00 7.435939999999999824e-04 2.130490248498350780e+00
0.000000000000000000e+00 3.069179999999999912e-03 2.611522491622523034e+00
3.125000000000000173e-03 4.994179999999999973e-03 4.943384138683614815e+00
0.000000000000000000e+00 0.000000000000000000e+00 8.711235285654556071e-01
1.250000000000000069e-02 2.122989999999999877e-01 2.821416182880527312e+00
0.000000000000000000e+00 3.724800000000000116e-04 1.760813101802843894e+00
0.000000000000000000e+00 3.400550000000000231e-04 3.876840648659976019e+00
0.000000000000000000e+00 1.264960000000000086e-03 3.839674601225420147e+00
4.062500000000000139e-02 9.289039999999999797e-02 4.453729050204739082e+00
0.000000000000000000e+00 9.898879999999999658e-04 8.094784346646954898e-01
1.250000000000000069e-02 2.646910000000000148e-03 2.860627272502179963e+00
6.250000000000000347e-03 1.762300000000000064e-03 6.762789412474851103e-01
0.000000000000000000e+00 2.142980000000000058e-03 9.646225122315937872e-01
2.187499999999999861e-02 2.122789999999999955e-01 2.295792540944974203e-01
0.000000000000000000e+00 3.217789999999999886e-03 2.115429827604888402e+00
0.000000000000000000e+00 1.887100000000000062e-03 9.202021045319286330e-01
0.000000000000000000e+00 3.845119999999999940e-04 4.928712764310746230e+00
2.500000000000000139e-02 1.779650000000000025e-03 3.395047230804947969e+00
0.000000000000000000e+00 2.285440000000000128e-04 4.448473103316982424e+00
6.250000000000000347e-03 7.496509999999999632e-03 1.712857750026533399e+00
0.000000000000000000e+00 5.820159999999999787e-04 3.752873648793788153e+00
0.000000000000000000e+00 1.122179999999999966e-03 4.239892201683048256e+00
4.374999999999999722e-02 3.650559999999999916e-02 2.957530393515387601e+00
3.125000000000000173e-03 1.944600000000000148e-02 4.467305325713064157e+00
7.812500000000000000e-02 1.172379999999999950e-02 9.168061245707265217e-01
9.374999999999999653e-03 2.056000000000000102e-03 4.647476540330479189e+00
2.187499999999999861e-02 2.333439999999999993e-03 2.660945789350120272e+00
0.000000000000000000e+00 4.681219999999999826e-03 1.034705837382048355e+00
0.000000000000000000e+00 3.046459999999999967e-03 2.651517422028393689e+00
3.125000000000000173e-03 9.413509999999999933e-02 4.063577785198782877e+00
9.374999999999999653e-03 3.547199999999999919e-03 1.108076470934124647e+00
0.000000000000000000e+00 5.046640000000000457e-04 4.752723865447005203e+00
0.000000000000000000e+00 2.281789999999999860e-02 2.880081753766494224e+00
0.000000000000000000e+00 4.143120000000000136e-04 4.519838821102059256e+00
2.500000000000000139e-02 2.189630000000000135e-03 3.004055497979536415e+00
0.000000000000000000e+00 1.345979999999999876e-04 1.705633182754294097e+00
1.000000000000000056e-01 9.422429999999999695e-02 1.001280915289020523e+00
0.000000000000000000e+00 1.812520000000000054e-05 2.927358883709096915e-02
1.874999999999999931e-02 1.595330000000000055e-03 3.119612322121433579e+00
0.000000000000000000e+00 3.021499999999999880e-03 1.627008286096491396e+00
1.562500000000000000e-02 5.609339999999999986e-03 3.291530669411724119e-01
0.000000000000000000e+00 9.512960000000000209e-04 4.327815028190972413e+00
0.000000000000000000e+00 1.798400000000000129e-04 2.771097455084888139e+00
0.000000000000000000e+00 1.173870000000000035e-03 4.203544775240676046e+00
1.562500000000000000e-02 2.798339999999999855e-03 4.012514069472080891e+00
1.562500000000000000e-02 1.963009999999999842e-03 2.035413147315992433e+00
0.000000000000000000e+00 7.631359999999999793e-04 2.912665514308375947e+00
0.000000000000000000e+00 2.077439999999999842e-03 4.956448432671846760e+00
9.374999999999999653e-03 3.087620000000000121e-03 3.757420936375189147e+00
0.000000000000000000e+00 1.083909999999999995e-03 1.971240922155105935e+00
1.250000000000000069e-02 1.214849999999999958e-03 3.096648898907569780e+00
1.562500000000000000e-02 1.924609999999999993e-03 4.596352265675827553e+00
2.500000000000000139e-02 9.703299999999999773e-03 2.009112753095443349e-01
0.000000000000000000e+00 1.077309999999999943e-03 5.069862153764609358e-01
0.000000000000000000e+00 1.452870000000000029e-02 4.218888447261016417e+00
3.125000000000000173e-03 9.952640000000000445e-04 2.926896758676017285e+00
0.000000000000000000e+00 9.934720000000000183e-04 2.160239888073104630e+00
0.000000000000000000e+00 7.287160000000000208e-04 4.463206289396179471e+00
1.562500000000000000e-02 1.566780000000000039e-03 3.270192103715596765e-02
0.000000000000000000e+00 0.000000000000000000e+00 1.546218886931657321e+00
2.500000000000000139e-02 4.302590000000000234e-03 4.019082525004428419e+00
3.125000000000000173e-03 4.410879999999999836e-03 4.570956187601346699e+00
3.125000000000000000e-02 2.869570000000000107e-03 1.142751778117034878e+00
2.500000000000000139e-02 5.316350000000000069e-03 4.642855604407081671e+00
2.812500000000000069e-02 1.050990000000000084e-02 1.365040125104797664e+00
0.000000000000000000e+00 5.032320000000000499e-04 4.573464303386700180e+00
0.000000000000000000e+00 6.520960000000000124e-04 2.132144877159472429e+00
1.874999999999999931e-02 1.683969999999999911e-03 7.485678557478264716e-01
0.000000000000000000e+00 7.273060000000000462e-04 3.521611091400611127e+00
0.000000000000000000e+00 1.098559999999999945e-03 1.185300079277096241e-01
0.000000000000000000e+00 1.070339999999999920e-03 3.536032767881678751e+00
8.125000000000000278e-02 9.158410000000000162e-02 4.850198564462059991e+00
2.187499999999999861e-02 2.658180000000000005e-03 6.459033174905498553e-01
3.125000000000000173e-03 4.418049999999999755e-03 2.982266935233469418e+00
1.000000000000000056e-01 9.076259999999999883e-02 3.570889178564159216e+00
3.749999999999999861e-02 9.311400000000000232e-02 4.465852995319987251e+00
1.562500000000000000e-02 2.764739999999999906e-03 4.598738896823284961e+00
1.562500000000000000e-02 9.137710000000000277e-02 2.016218084048099879e+00
0.000000000000000000e+00 2.285139999999999944e-05 4.109281642990819883e+00
0.000000000000000000e+00 1.123459999999999953e-03 1.469809339187044817e+00
2.812500000000000069e-02 2.496899999999999814e-03 2.951100687023539004e-01
3.125000000000000173e-03 1.781589999999999910e-02 3.542258740395618943e+00
0.000000000000000000e+00 3.542019999999999891e-03 4.833800821022375516e+00
2.187499999999999861e-02 3.069500000000000006e-02 2.816670007541679066e+00
0.000000000000000000e+00 1.884159999999999958e-03 4.673138020773908607e+00
3.125000000000000173e-03 7.139200000000000493e-04 2.390825394485801558e-01
0.000000000000000000e+00 1.898239999999999997e-02 1.286416041968364565e+00
0.000000000000000000e+00 6.616420000000000461e-04 3.686746103533011798e-01
3.125000000000000173e-03 1.140739999999999896e-03 3.298739593221729383e+00
9.374999999999999653e-03 2.009219999999999930e-03 4.260600069087250308e-01
0.000000000000000000e+00 1.225540000000000006e-03 4.480320962868643342e+00
1.562500000000000000e-02 1.832770000000000059e-03 1.056283071768393977e+00
0.000000000000000000e+00 2.248460000000000153e-05 4.319601219207664933e+00
0.000000000000000000e+00 9.640960000000000068e-04 2.001406974085103041e+00
0.000000000000000000e+00 4.905600000000000195e-04 1.730714584530506084e+00
