3.125000000000000173e-03 1.878530000000000000e-03 3.699574586726317449e-01
3.125000000000000173e-03 9.848609999999999309e-02 3.166074659374218392e-01
0.000000000000000000e+00 1.079040000000000077e-03 2.155345941614514871e+00
0.000000000000000000e+00 4.541309999999999791e-03 3.064851821526138664e+00
1.250000000000000069e-02 5.489100000000000229e-03 5.116080336637923720e-01
0.000000000000000000e+00 1.517310000000000013e-03 6.789164525318108767e-01
0.000000000000000000e+00 2.213820000000000024e-03 1.425573156044661616e+00
3.125000000000000173e-03 1.933290000000000008e-02 2.672927906048800928e+00
0.000000000000000000e+00 4.958080000000000343e-04 7.682802301404340062e-01
1.250000000000000069e-02 2.305919999999999932e-03 3.344524012526743917e+00
3.125000000000000000e-02 9.139899999999999414e-02 1.969527284138951062e+00
1.562500000000000000e-02 1.771009999999999945e-03 2.494838222942239003e+00
0.000000000000000000e+00 3.679360000000000226e-04 4.405508239538534987e+00
3.125000000000000173e-03 1.655710000000000168e-02 1.279889100687027215e+00
2.812500000000000069e-02 2.876099999999999924e-03 4.380754380490897049e+00
0.000000000000000000e+00 4.707730000000000248e-02 3.881854166632270342e+00
1.562500000000000000e-02 3.184830000000000039e-03 4.803557665147102362e+00
0.000000000000000000e+00 7.917440000000000415e-04 4.914481016765271271e+00
0.000000000000000000e+00 3.996539999999999815e-03 6.504882622036661788e-01
3.125000000000000173e-03 1.719000000000000042e-03 1.338140747275581965e+00
0.000000000000000000e+00 9.755519999999999730e-04 1.048828239814260099e+00
2.187499999999999861e-02 1.812669999999999950e-03 4.630633081252375050e+00
0.000000000000000000e+00 3.502520000000000069e-04 3.992161622830139756e+00
0.000000000000000000e+00 2.132289999999999793e-03 8.273895920218687916e-01
0.000000000000000000e+00 3.832110000000000009e-04 2.311903086046603217e+00
3.125000000000000000e-02 3.125820000000000074e-03 2.651991771554241595e+00
1.874999999999999931e-02 3.337150000000000099e-03 1.221649139025227093e-01
0.000000000000000000e+00 1.493149999999999946e-03 2.734715422215534542e+00
9.374999999999999653e-03 7.972419999999999160e-03 2.369838423289925444e+00
0.000000000000000000e+00 2.216320000000000085e-04 2.279024219931341522e-01
0.000000000000000000e+00 4.127080000000000201e-04 3.739199334579124567e+00
0.000000000000000000e+00 5.479480000000000331e-04 3.081321972083195249e-01
0.000000000000000000e+00 1.112960000000000078e-03 2.157546582798627988e+00
0.000000000000000000e+00 4.911359999999999814e-04 4.028421910417273599e-01
0.000000000000000000e+00 1.408769999999999944e-03 9.345051127183418016e-01
0.000000000000000000e+00 1.638340000000000065e-03 3.572888628536592837e+00
3.125000000000000173e-03 5.739329999999999952e-03 4.014001033835544519e+00
0.000000000000000000e+00 1.197370000000000032e-02 4.104026707791009088e+00
0.000000000000000000e+00 2.251520000000000019e-04 1.736829357405909491e+00
3.125000000000000173e-03 2.069829999999999934e-03 1.250173787855500152e+00
0.000000000000000000e+00 7.333980000000000143e-04 1.325179793456630506e+00
0.000000000000000000e+00 1.083580000000000003e-03 2.394909998907648330e+00
1.874999999999999931e-02 1.927300000000000063e-03 3.160240660316300687e+00
3.125000000000000173e-03 5.041509999999999915e-03 3.600846102448654218e+00
6.250000000000000347e-03 8.154879999999999551e-04 4.450357773502509495e+00
3.125000000000000173e-03 3.875069999999999990e-03 1.391966907859476521e-02
2.500000000000000139e-02 2.707779999999999909e-03 1.961160635966940458e+00
5.312499999999999861e-02 9.123359999999999803e-02 3.694562635099363668e+00
0.000000000000000000e+00 7.750399999999999521e-04 2.940797919452584619e+00
0.000000000000000000e+00 3.432960000000000091e-03 2.307079637963294516e+00
3.125000000000000173e-03 4.512580000000000410e-03 9.476774815040367450e-01
0.000000000000000000e+00 6.857789999999999893e-03 2.299255910297551608e+00
0.000000000000000000e+00 3.316420000000000045e-03 2.344835937027335948e+00
0.000000000000000000e+00 3.893759999999999799e-04 1.026572291127969105e+00
5.937499999999999722e-02 9.136489999999999889e-02 1.819965223052318226e+00
0.000000000000000000e+00 9.697279999999999962e-04 1.542813064854393179e+00
6.250000000000000347e-03 9.846660000000000135e-02 2.601477110451111407e-01
1.250000000000000069e-02 4.594749999999999876e-03 1.578131329051441600e+00
0.000000000000000000e+00 1.289490000000000081e-02 3.347693712644126851e+00
0.000000000000000000e+00 1.696580000000000050e-03 1.301023260805232340e+00
6.250000000000000347e-03 2.600190000000000053e-03 2.391686513743399800e+00
0.000000000000000000e+00 1.082749999999999945e-03 5.186189185946965541e-01
1.874999999999999931e-02 2.140990000000000167e-03 2.591740519391447339e+00
9.374999999999999653e-03 3.045120000000000118e-03 1.024591066281366203e-01
0.000000000000000000e+00 7.289090000000000239e-04 2.989051919363110876e+00
0.000000000000000000e+00 2.223170000000000007e-03 4.779244531871601254e+00
0.000000000000000000e+00 1.969279999999999956e-04 9.550607393915183652e-01
3.125000000000000173e-03 4.392769999999999835e-03 2.447700773213405956e+00
3.125000000000000173e-03 1.431100000000000080e-02 2.135590965185270473e+00
2.500000000000000139e-02 2.976579999999999938e-03 3.043353965183937415e+00
0.000000000000000000e+00 3.068919999999999981e-02 2.120866433298566722e+00
3.125000000000000000e-02 1.730669999999999908e-03 7.428177074004449487e-02
3.125000000000000173e-03 4.335939999999999933e-03 1.247571843940076253e+00
6.250000000000000347e-03 4.898819999999999911e-03 6.765845050973468000e-01
3.125000000000000173e-03 4.203329999999999914e-03 1.692686723898837453e+00
0.000000000000000000e+00 4.263669999999999786e-04 3.264988943354753204e+00
3.125000000000000173e-03 4.407490000000000019e-03 3.582016868145321720e+00
3.125000000000000000e-02 2.763260000000000022e-03 3.647100144766534768e+00
3.125000000000000173e-03 2.715840000000000181e-03 3.987902256655634359e-01
0.000000000000000000e+00 4.037060000000000301e-03 1.313182469600110425e-01
0.000000000000000000e+00 5.768960000000000277e-04 3.784694841142671740e-01
0.000000000000000000e+00 3.695360000000000073e-04 3.130120233418434150e+00
4.062500000000000139e-02 4.300919999999999743e-02 1.772821972604618601e+00
0.000000000000000000e+00 9.391999999999999524e-04 7.076860474125479250e-01
3.125000000000000173e-03 1.900100000000000053e-03 2.857083709407981509e-01
0.000000000000000000e+00 3.913599999999999935e-04 7.688486517967024758e-01
3.125000000000000173e-03 9.983029999999999682e-02 4.784470202560298979e+00
0.000000000000000000e+00 1.012609999999999942e-03 4.532143207304399901e+00
0.000000000000000000e+00 9.706880000000000413e-04 1.852375763929284824e+00
0.000000000000000000e+00 5.148600000000000138e-04 2.109559413186178567e+00
6.250000000000000347e-03 1.059389999999999898e-03 2.284918965283602610e+00
0.000000000000000000e+00 7.816319999999999865e-04 3.980120045645079152e+00
0.000000000000000000e+00 1.024720000000000015e-03 3.912458426128149203e+00
3.125000000000000000e-02 3.329479999999999940e-02 4.904524982043844794e+00
9.374999999999999653e-03 7.737599999999999643e-04 3.838545259565023127e+00
0.000000000000000000e+00 1.711679999999999929e-03 3.919442333699366010e+00
1.562500000000000000e-02 1.996480000000000130e-03 5.118701490336013959e-01
0.000000000000000000e+00 2.690039999999999879e-04 3.344122477045371689e+00
6.250000000000000347e-03 2.123900000000000180e-03 3.388834480302075569e+00
3.125000000000000173e-03 4.323839999999999802e-03 4.384067817961742719e+00
3.125000000000000173e-03 2.512830000000000185e-03 2.910910433412961407e+00
3.125000000000000000e-02 2.994249999999999950e-03 4.176211231779745958e+00
0.000000000000000000e+00 1.559680000000000083e-04 4.589042059133276119e+00
1.250000000000000069e-02 2.015100000000000138e-03 2.680645937193668615e+00
3.125000000000000173e-03 1.411399999999999981e-02 2.685382615816124918e+00
6.250000000000000347e-03 2.183329999999999993e-02 4.087586097939428953e+00
0.000000000000000000e+00 4.087970000000000232e-04 3.809464606896559857e+00
3.125000000000000000e-02 5.422910000000000404e-03 2.154053529505266518e+00
0.000000000000000000e+00 1.779650000000000025e-03 2.567922612998688514e+00
6.250000000000000347e-03 1.488769999999999937e-03 3.612782625724600294e+00
3.125000000000000000e-02 2.740540000000000077e-03 2.962372419579821781e+00
0.000000000000000000e+00 3.193280000000000163e-03 1.123052820732807877e+00
6.250000000000000347e-03 9.544060000000000044e-02 1.455599033401721032e+00
0.000000000000000000e+00 1.326850000000000078e-03 6.723945718162843699e-01
0.000000000000000000e+00 4.191849999999999786e-04 3.343465774266616286e+00
0.000000000000000000e+00 1.109179999999999975e-03 3.297409473460464646e+00
0.000000000000000000e+00 4.242450000000000040e-03 2.837199985371194888e+00
3.125000000000000173e-03 1.925349999999999978e-02 4.975356089939346305e+00
1.874999999999999931e-02 1.570940000000000053e-03 1.916261340133929014e-01
0.000000000000000000e+00 3.319490000000000027e-03 4.658323247983870985e+00
0.000000000000000000e+00 4.550399999999999801e-04 1.869312728314988625e+00
9.374999999999999653e-03 9.845170000000000310e-02 4.054743983216733128e+00
0.000000000000000000e+00 1.384900000000000107e-03 1.033992310981096674e-01
2.500000000000000139e-02 2.075780000000000160e-03 3.753366180729316159e+00
6.250000000000000347e-03 4.607230000000000353e-03 2.747005917291510890e+00
1.562500000000000000e-02 2.123200000000000000e-03 1.357673544682133082e+00
3.125000000000000173e-03 4.085440000000000078e-03 2.215994604016906955e+00
0.000000000000000000e+00 3.294140000000000089e-03 1.480326879216142810e-01
0.000000000000000000e+00 7.132799999999999471e-04 2.715999413244560845e+00
0.000000000000000000e+00 2.086660000000000164e-03 2.640667282286546236e-01
0.000000000000000000e+00 9.028169999999999858e-04 4.663920589016401053e+00
1.250000000000000069e-02 2.446980000000000075e-03 1.247085925420707397e+00
1.250000000000000069e-02 1.638399999999999926e-03 4.752796345044239423e+00
0.000000000000000000e+00 6.788030000000000452e-02 2.131080066584134514e+00
0.000000000000000000e+00 1.115200000000000002e-03 1.895695471023477907e+00
2.187499999999999861e-02 9.552470000000000405e-02 2.913369912510525683e+00
2.187499999999999861e-02 2.692540000000000211e-03 2.320936553090900301e+00
0.000000000000000000e+00 1.031100000000000072e-03 3.542961911225954275e+00
6.250000000000000347e-03 1.912209999999999908e-03 1.440916159425625898e-01
0.000000000000000000e+00 4.821119999999999811e-04 4.684693716824773091e+00
0.000000000000000000e+00 6.302420000000000244e-02 2.001762000942845177e+00
1.874999999999999931e-02 3.160349999999999965e-02 1.839982950058456357e+00
0.000000000000000000e+00 8.561330000000000242e-04 4.728159321675074800e+00
0.000000000000000000e+00 7.199949999999999666e-04 1.518796243744905405e+00
1.874999999999999931e-02 6.939780000000000428e-03 3.859303973483740879e+00
3.125000000000000173e-03 3.950210000000000006e-03 4.481707719843623039e+00
3.125000000000000000e-02 3.552899999999999808e-02 3.357401122267029248e+00
3.125000000000000173e-03 2.555580000000000004e-03 2.364681838842706441e+00
0.000000000000000000e+00 5.490379999999999566e-04 4.804909716375461493e+00
0.000000000000000000e+00 5.534370000000000261e-03 6.806823269143075228e-01
0.000000000000000000e+00 2.860099999999999969e-03 1.725250876467423478e+00
0.000000000000000000e+00 3.191499999999999893e-03 4.246213118675431275e+00
6.250000000000000347e-03 1.049279999999999935e-01 1.107732496392026533e+00
1.250000000000000069e-02 1.591870000000000004e-03 2.859827527048122153e+00
3.125000000000000173e-03 4.141569999999999800e-03 1.667383547703433333e+00
3.125000000000000173e-03 2.209019999999999907e-03 2.166752178214824909e+00
0.000000000000000000e+00 6.194559999999999997e-04 4.552156251850369095e+00
3.125000000000000173e-03 9.997439999999998932e-04 3.286088925730854982e+00
0.000000000000000000e+00 1.017539999999999938e-03 3.733280221221511486e+00
2.187499999999999861e-02 3.006720000000000052e-03 2.977152162386138556e+00
1.250000000000000069e-02 4.880770000000000421e-03 4.527153993341292981e-01
0.000000000000000000e+00 8.808320000000000125e-04 2.123143742659174826e+00
3.125000000000000173e-03 1.196649999999999971e-02 1.096655960646311101e+00
9.374999999999999653e-03 2.888899999999999801e-03 3.228415084583791561e+00
6.250000000000000347e-03 4.554820000000000223e-03 4.427286784469852687e-02
0.000000000000000000e+00 7.356420000000000016e-04 1.798714427498515622e+00
0.000000000000000000e+00 9.380480000000000285e-04 4.726058790828144396e+00
9.374999999999999653e-03 2.467070000000000027e-03 3.481297752347031427e+00
3.125000000000000173e-03 2.012289999999999912e-03 2.247237196728552711e+00
2.812500000000000069e-02 9.795520000000000616e-02 3.501681362411750431e+00
0.000000000000000000e+00 9.618120000000000402e-04 2.788713933264811651e+00
9.374999999999999653e-03 3.387010000000000194e-03 1.469660990430284864e+00
3.125000000000000173e-03 4.205819999999999871e-03 3.203546236456355611e+00
0.000000000000000000e+00 9.638399999999999876e-04 3.842972234164864886e+00
0.000000000000000000e+00 2.514919999999999916e-03 9.347703385339872773e-01
1.250000000000000069e-02 2.971839999999999898e-03 1.561300377263962869e+00
3.125000000000000000e-02 2.583170000000000084e-03 4.685750799206583883e-01
0.000000000000000000e+00 1.716480000000000089e-02 3.212647036439433279e+00
0.000000000000000000e+00 1.075259999999999974e-03 1.539457294741511939e+00
1.250000000000000069e-02 1.096380000000000098e-03 3.318130422881743868e+00
0.000000000000000000e+00 3.649920000000000182e-04 3.227790758757751899e+00
0.000000000000000000e+00 1.062659999999999993e-03 2.159321950897669762e+00
0.000000000000000000e+00 4.068480000000000187e-04 4.042579594845838287e+00
1.874999999999999931e-02 1.887620000000000010e-03 9.541488410321147251e-01
0.000000000000000000e+00 9.008640000000000267e-04 1.063564270400875866e+00
3.125000000000000173e-03 3.825149999999999818e-03 4.903576998759582750e+00
3.125000000000000173e-03 4.281219999999999644e-03 1.960536016373569002e+00
0.000000000000000000e+00 2.028670000000000213e-03 2.731147910434528203e-01
3.125000000000000173e-03 1.902140000000000081e-03 3.676393731972235734e+00
0.000000000000000000e+00 1.030780000000000021e-03 1.192110305235472012e-02
3.125000000000000000e-02 2.763260000000000022e-03 2.816878832806630317e+00
9.374999999999999653e-03 9.728770000000000473e-02 1.944350423164410424e+00
0.000000000000000000e+00 2.291759999999999891e-05 9.933753713025067489e-01
1.562500000000000000e-02 1.772799999999999940e-03 1.426582383092966477e+00
0.000000000000000000e+00 0.000000000000000000e+00 2.536146932697573853e+00
0.000000000000000000e+00 9.351039999999999699e-04 2.336602275710326193e+00
2.500000000000000139e-02 2.500350000000000142e-03 1.183683255486885244e+00
1.250000000000000069e-02 2.713790000000000213e-03 6.625088862891287400e-01
3.125000000000000173e-03 4.916860000000000328e-03 1.526494010907913923e-01
3.125000000000000173e-03 8.007039999999999991e-03 1.944655440032887483e+00
1.250000000000000069e-02 1.312510000000000022e-03 3.827835440496831776e+00
0.000000000000000000e+00 1.659199999999999998e-03 2.057626283179132543e+00
0.000000000000000000e+00 2.242559999999999888e-04 3.181880964651154109e+00
0.000000000000000000e+00 3.112960000000000033e-02 3.259961405104059740e+00
1.874999999999999931e-02 3.267139999999999975e-03 3.133620076186877101e-01
7.499999999999999722e-02 9.196559999999999457e-02 4.559179068879234187e+00
0.000000000000000000e+00 3.482879999999999830e-03 4.819357974365529040e-01
3.125000000000000173e-03 1.049289999999999945e-01 1.812140979395071572e+00
0.000000000000000000e+00 1.079040000000000077e-03 1.883065236618451266e+00
6.250000000000000347e-03 1.884540000000000087e-03 2.710299023927334350e+00
0.000000000000000000e+00 1.227220000000000004e-03 2.155147740282119972e+00
1.874999999999999931e-02 2.553020000000000029e-03 3.733612887902316935e+00
1.250000000000000069e-02 3.791950000000000182e-02 3.671327578637160194e+00
1.874999999999999931e-02 1.954050000000000144e-03 3.872138461564405887e+00
1.874999999999999931e-02 3.290180000000000188e-03 3.793505266778940399e-01
0.000000000000000000e+00 9.189759999999999509e-04 8.604748965675851347e-01
0.000000000000000000e+00 3.803519999999999796e-04 4.081363297064187989e+00
0.000000000000000000e+00 1.064829999999999900e-03 2.190519379346307804e+00
0.000000000000000000e+00 3.150720000000000083e-03 1.765565770157034198e+00
0.000000000000000000e+00 1.641600000000000004e-03 2.309903437235736767e+00
6.250000000000000347e-03 2.990019999999999917e-03 3.084751910656631679e+00
0.000000000000000000e+00 4.062080000000000248e-04 2.503980232621840774e+00
0.000000000000000000e+00 1.184450000000000086e-03 1.090657209520927706e+00
4.374999999999999722e-02 1.058039999999999953e-01 3.085829662976692589e+00
0.000000000000000000e+00 3.680639999999999780e-04 2.495485775512834570e-01
0.000000000000000000e+00 3.762300000000000106e-03 1.928859317708748300e+00
0.000000000000000000e+00 1.991740000000000090e-03 8.728760728261963919e-01
6.250000000000000347e-03 2.068350000000000050e-03 3.049329109760605228e+00
6.250000000000000347e-03 2.439999999999999895e-03 2.851990494001924059e+00
1.250000000000000069e-02 1.837120000000000029e-03 3.743930841894140826e+00
3.125000000000000173e-03 4.776380000000000209e-03 1.674639595053278196e+00
3.125000000000000173e-03 1.590439999999999909e-02 2.153238782728694733e+00
9.374999999999999653e-03 9.071849999999999359e-02 3.225763766720253667e+00
0.000000000000000000e+00 3.441220000000000043e-03 4.877481718643398523e+00
9.374999999999999653e-03 9.634189999999999421e-02 8.245135116444590739e-02
0.000000000000000000e+00 3.776000000000000168e-04 2.683269032534112863e+00
0.000000000000000000e+00 4.313980000000000245e-03 3.400797074418710597e+00
0.000000000000000000e+00 1.892479999999999878e-04 9.770089839707213342e-01
2.500000000000000139e-02 2.133760000000000170e-03 4.770151885660289803e-01
0.000000000000000000e+00 3.269440000000000193e-03 3.236830741917254173e+00
0.000000000000000000e+00 2.116030000000000081e-03 1.003509319231074670e+00
6.250000000000000347e-03 9.734429999999999472e-02 4.048395543765359150e+00
0.000000000000000000e+00 9.004800000000000521e-04 1.002786247429432898e+00
0.000000000000000000e+00 2.370500000000000211e-03 3.374291737901660593e+00
0.000000000000000000e+00 3.652879999999999842e-03 4.105405076380749918e+00
0.000000000000000000e+00 1.570369999999999969e-03 4.253997346551979142e+00
1.562500000000000000e-02 2.858110000000000078e-03 3.919753638299797061e+00
0.000000000000000000e+00 1.072379999999999948e-03 3.592385467165763124e+00
2.500000000000000139e-02 2.864320000000000060e-03 3.515215845757974744e+00
1.562500000000000000e-02 1.890369999999999941e-03 4.575652009303216028e-01
0.000000000000000000e+00 8.705920000000000021e-04 2.888709006414391656e+00
3.125000000000000000e-02 1.310719999999999941e-02 1.358486761919756036e+00
9.687500000000000278e-02 9.128290000000000015e-02 3.156077150481472859e+00
9.374999999999999653e-03 1.692350000000000017e-03 3.098715899895004844e-01
0.000000000000000000e+00 1.421310000000000065e-03 2.304041989942781754e+00
6.250000000000000347e-03 9.764810000000000156e-02 1.677531683982123489e+00
0.000000000000000000e+00 2.101759999999999880e-04 1.225783641754786268e+00
0.000000000000000000e+00 3.996160000000000337e-03 3.914661835976931847e+00
9.374999999999999653e-03 2.184769999999999941e-03 4.743888347644257486e+00
1.874999999999999931e-02 9.385200000000000486e-02 2.586968741072074973e+00
2.500000000000000139e-02 2.809410000000000032e-03 3.054152259044453199e+00
0.000000000000000000e+00 4.114260000000000009e-04 4.024643917291292894e-01
3.125000000000000173e-03 1.570430000000000046e-03 6.028285674733557808e-01
0.000000000000000000e+00 5.841790000000000350e-03 3.320597426842599287e+00
0.000000000000000000e+00 4.426550000000000233e-04 3.372579343994621670e+00
0.000000000000000000e+00 9.902719999999999405e-04 4.850117580479632373e+00
0.000000000000000000e+00 3.224380000000000215e-03 1.728319483835283332e+00
0.000000000000000000e+00 5.914459999999999856e-02 3.747387181762872999e+00
0.000000000000000000e+00 5.743360000000000522e-04 1.364455023764139074e+00
3.125000000000000173e-03 9.552750000000000130e-02 4.965832447325812637e+00
0.000000000000000000e+00 3.788500000000000201e-04 1.005728651402336027e+00
2.812500000000000069e-02 2.654399999999999902e-03 3.993587199495163720e+00
1.250000000000000069e-02 4.041789999999999966e-03 2.690693447094413493e+00
0.000000000000000000e+00 1.642180000000000029e-03 2.444633740983527925e+00
6.250000000000000347e-03 2.280770000000000106e-03 1.535920024224881608e+00
0.000000000000000000e+00 1.746050000000000076e-03 1.517784194240213047e+00
3.125000000000000173e-03 1.727269999999999934e-03 3.669461494484744790e+00
0.000000000000000000e+00 3.623299999999999872e-03 3.157799032661535055e+00
0.000000000000000000e+00 1.165950000000000016e-03 4.886125367239191775e+00
2.500000000000000139e-02 2.274940000000000035e-03 2.913987298413492688e+00
0.000000000000000000e+00 9.443060000000000082e-04 7.687425899835642618e-01
0.000000000000000000e+00 1.024720000000000015e-03 9.891656133118986727e-02
1.562500000000000000e-02 9.197329999999999395e-02 1.310317342663104956e+00
3.125000000000000000e-02 3.580739999999999791e-03 5.335694767255988458e-01
3.125000000000000173e-03 1.131249999999999964e-02 3.421965353994583126e+00
0.000000000000000000e+00 7.058239999999999697e-04 3.555295987810874747e-01
2.812500000000000069e-02 2.307780000000000161e-03 1.253938237525232147e+00
2.187499999999999861e-02 9.227409999999999779e-02 2.920469911806756969e+00
0.000000000000000000e+00 3.776639999999999945e-04 4.183476014652592667e+00
2.812500000000000069e-02 6.156799999999999599e-04 4.936866556018248531e+00
0.000000000000000000e+00 3.887359999999999861e-04 4.278941489688252275e+00
1.250000000000000069e-02 1.470020000000000051e-03 2.297286851897160087e+00
1.562500000000000000e-02 9.791360000000000254e-04 3.771273411354547189e+00
0.000000000000000000e+00 9.032649999999999924e-04 3.105866786875968177e+00
0.000000000000000000e+00 1.861440000000000013e-03 4.562518401543415258e+00
0.000000000000000000e+00 2.324290000000000123e-03 2.430895709994556952e+00
0.000000000000000000e+00 1.024830000000000012e-03 1.255317428771171695e+00
2.500000000000000139e-02 1.716609999999999924e-03 6.740095135777895985e-01
0.000000000000000000e+00 6.563069999999999841e-03 2.638477956017981185e+00
1.874999999999999931e-02 2.332669999999999796e-03 1.926628315181588391e+00
3.125000000000000173e-03 1.936480000000000146e-02 1.139433066146875895e+00
2.500000000000000139e-02 3.186880000000000008e-03 3.796039361272649071e+00
0.000000000000000000e+00 7.189120000000000449e-04 2.209279653578044567e+00
0.000000000000000000e+00 2.517120000000000186e-04 2.362944576867414881e+00
2.187499999999999861e-02 2.172219999999999880e-03 2.625227950949385658e+00
0.000000000000000000e+00 2.296959999999999909e-04 2.818195158153105506e+00
2.500000000000000139e-02 1.175230000000000025e-02 2.633797471933055245e+00
3.125000000000000173e-03 6.182400000000000439e-04 2.892158682199028608e+00
6.250000000000000347e-03 1.436350000000000083e-03 5.074151406509125328e-01
0.000000000000000000e+00 4.120959999999999793e-04 1.698796816468345350e+00
0.000000000000000000e+00 4.165759999999999906e-04 1.548247002057833832e+00
0.000000000000000000e+00 1.180050000000000060e-04 3.096485969625107249e+00
2.500000000000000139e-02 2.558649999999999987e-03 1.864832237002966853e+00
0.000000000000000000e+00 2.671999999999999896e-04 4.429932089902425041e+00
0.000000000000000000e+00 9.563299999999999579e-02 2.616575381626446983e+00
9.374999999999999653e-03 1.179200000000000040e-02 2.103973524505100112e+00
2.500000000000000139e-02 9.260069999999999413e-02 1.460184257435393373e+00
1.250000000000000069e-02 2.128769999999999881e-03 6.554231999494508631e-01
0.000000000000000000e+00 4.077710000000000232e-04 4.559138922268209271e+00
0.000000000000000000e+00 5.128720000000000457e-04 9.224007293252434181e-01
3.125000000000000173e-03 1.961440000000000058e-02 3.415070166797948392e+00
3.125000000000000173e-03 1.318899999999999934e-02 4.117724602228136632e+00
0.000000000000000000e+00 6.312370000000000481e-02 3.701446871247957127e+00
0.000000000000000000e+00 1.934249999999999858e-02 4.916946743593691993e-01
0.000000000000000000e+00 1.822849999999999991e-03 4.220833010967193211e+00
3.125000000000000173e-03 3.590139999999999911e-03 2.132704444277596423e+00
0.000000000000000000e+00 7.093559999999999623e-04 4.101504845860511672e+00
1.562500000000000000e-02 2.364610000000000063e-03 4.564603698958563882e+00
1.250000000000000069e-02 9.526199999999999946e-02 4.814915265608046724e+00
0.000000000000000000e+00 2.137149999999999987e-03 3.109592233279705020e+00
0.000000000000000000e+00 7.190980000000000462e-04 3.009744098559369974e+00
0.000000000000000000e+00 3.059199999999999984e-04 2.723508712812328980e+00
2.187499999999999861e-02 3.607229999999999898e-03 1.321784559799316083e+00
0.000000000000000000e+00 1.422910000000000104e-03 2.847464883550591352e+00
0.000000000000000000e+00 2.283119999999999919e-05 2.489088900314625263e+00
0.000000000000000000e+00 1.039530000000000098e-03 1.769588571220320095e+00
0.000000000000000000e+00 3.999359999999999873e-04 4.900600362899282025e+00
3.125000000000000173e-03 1.936480000000000146e-02 2.339027475247658749e+00
2.500000000000000139e-02 2.542140000000000025e-03 3.910939222782021663e+00
3.125000000000000173e-03 4.922560000000000303e-03 3.765726734480386639e+00
0.000000000000000000e+00 2.663360000000000033e-03 3.219685741482925412e+00
0.000000000000000000e+00 1.026769999999999983e-03 1.836916931816819254e+00
3.125000000000000173e-03 1.073650000000000021e-01 1.471542193479286054e+00
0.000000000000000000e+00 9.635200000000000448e-04 2.970764236629073629e+00
2.187499999999999861e-02 2.335740000000000212e-03 1.118037777111826614e+00
1.562500000000000000e-02 1.908989999999999949e-03 1.599395276969990398e+00
0.000000000000000000e+00 1.694079999999999881e-04 4.702366295120494755e+00
0.000000000000000000e+00 5.020540000000000419e-03 5.466278401779739449e-01
5.000000000000000278e-02 3.052969999999999989e-02 3.963435963225330649e+00
3.125000000000000173e-03 2.014140000000000201e-03 1.162729327889713282e+00
1.250000000000000069e-02 2.082179999999999882e-03 5.852193719792569970e-01
3.125000000000000173e-03 2.106300000000000186e-03 3.978377652499309747e-02
3.125000000000000173e-03 1.776609999999999995e-02 3.394846831606220583e+00
0.000000000000000000e+00 1.213820000000000003e-03 4.853173742400704427e+00
2.187499999999999861e-02 2.195519999999999850e-03 3.065489172264179274e+00
0.000000000000000000e+00 1.172899999999999984e-02 2.704572310692992421e+00
1.562500000000000000e-02 1.793979999999999924e-03 2.440603928648290566e+00
0.000000000000000000e+00 3.791709999999999785e-04 7.114415562853321218e-01
0.000000000000000000e+00 5.084990000000000170e-03 2.840667780001463250e+00
5.312499999999999861e-02 9.207379999999999731e-02 4.323052847567687706e+00
2.187499999999999861e-02 2.092099999999999949e-03 1.255159265193066531e+00
0.000000000000000000e+00 1.966589999999999831e-03 2.340946149209099936e+00
1.562500000000000000e-02 2.727740000000000199e-03 4.551555487112909582e+00
2.187499999999999861e-02 2.980609999999999857e-03 1.963032990462143523e+00
0.000000000000000000e+00 8.806289999999999604e-04 4.205996609251985596e+00
9.374999999999999653e-03 5.459710000000000431e-03 4.667430600422243003e+00
0.000000000000000000e+00 3.854400000000000014e-03 1.897761762054019474e+00
0.000000000000000000e+00 3.275650000000000176e-03 3.174967223912578129e-01
0.000000000000000000e+00 1.113660000000000041e-03 3.802714057656509716e+00
1.250000000000000069e-02 2.346050000000000132e-03 4.800843063371631914e+00
0.000000000000000000e+00 3.510019999999999980e-03 3.363446924751407607e+00
3.125000000000000000e-02 1.310719999999999941e-02 4.351307995811539264e+00
2.500000000000000139e-02 2.502719999999999945e-03 2.414556186877803601e+00
2.187499999999999861e-02 1.056850000000000012e-01 3.856884309655519427e+00
0.000000000000000000e+00 3.749119999999999775e-04 3.010615498255692302e+00
1.874999999999999931e-02 3.312830000000000115e-03 1.442175976470578380e+00
6.250000000000000347e-03 9.602120000000000100e-02 8.143184968925182288e-01
0.000000000000000000e+00 9.342379999999999955e-04 3.682386378206492061e+00
1.250000000000000069e-02 2.233450000000000019e-02 2.784366258416977491e+00
1.874999999999999931e-02 1.339899999999999989e-03 1.005321520669195223e+00
1.250000000000000069e-02 2.112620000000000053e-01 2.198273271230525516e+00
0.000000000000000000e+00 5.816320000000000040e-04 2.136049399540403293e+00
3.437500000000000278e-02 9.416420000000000345e-02 1.644087553140074487e+00
9.374999999999999653e-03 1.837059999999999952e-03 1.140671576352961791e+00
0.000000000000000000e+00 3.047039999999999883e-04 7.396691096478003047e-02
0.000000000000000000e+00 1.253889999999999909e-03 4.128690696078295197e+00
6.250000000000000347e-03 2.182139999999999948e-03 3.914272326040721506e+00
3.125000000000000173e-03 4.351039999999999595e-03 4.852063608664106908e+00
1.874999999999999931e-02 2.167490000000000215e-03 4.857524752336655816e+00
2.500000000000000139e-02 4.885890000000000372e-03 3.193406761556177198e+00
1.562500000000000000e-02 2.253119999999999949e-03 1.786061664381493497e+00
0.000000000000000000e+00 2.130429999999999997e-03 2.138915701319225704e+00
0.000000000000000000e+00 9.547520000000000095e-04 2.328421066940133954e-01
0.000000000000000000e+00 5.474349999999999789e-04 3.644430202402293872e+00
0.000000000000000000e+00 4.609920000000000207e-04 1.900122702745742354e+00
0.000000000000000000e+00 8.833090000000000039e-03 1.861802512916894248e+00
0.000000000000000000e+00 4.176459999999999786e-04 3.765984933072687113e+00
0.000000000000000000e+00 1.037120000000000099e-03 2.296539831410026711e+00
0.000000000000000000e+00 9.895039999999999912e-04 1.495531526165627678e+00
1.874999999999999931e-02 2.963969999999999799e-03 2.395201117005867353e+00
5.312499999999999861e-02 9.323800000000000143e-02 2.564348997620101933e+00
3.125000000000000173e-03 1.831170000000000020e-03 4.186913630701811329e+00
2.187499999999999861e-02 2.071620000000000145e-03 2.670070155425960490e+00
0.000000000000000000e+00 3.558910000000000198e-03 4.782275351493193938e+00
0.000000000000000000e+00 1.920449999999999978e-03 4.358331047705974015e+00
2.500000000000000139e-02 2.198589999999999833e-03 4.433245860245783376e+00
0.000000000000000000e+00 8.680600000000000338e-04 7.965358134926392442e-01
3.125000000000000173e-03 3.551420000000000011e-03 9.944156426688471884e-01
1.874999999999999931e-02 9.334850000000000092e-02 1.749405399546853257e+00
2.812500000000000069e-02 4.816260000000000159e-03 3.016207855009372940e-01
0.000000000000000000e+00 4.264190000000000168e-03 9.213024301340300148e-01
0.000000000000000000e+00 2.176509999999999990e-03 4.932850846929960120e+00
2.500000000000000139e-02 2.738879999999999960e-03 8.756982790062317612e-01
0.000000000000000000e+00 1.660800000000000037e-03 1.571131065049948372e+00
0.000000000000000000e+00 4.168770000000000136e-04 1.418725098806622453e-01
2.187499999999999861e-02 9.261510000000000575e-02 3.249848515587442144e+00
0.000000000000000000e+00 2.517759999999999963e-04 3.964387130516872748e+00
2.187499999999999861e-02 1.059500000000000025e-01 2.609394301256825699e+00
0.000000000000000000e+00 1.808640000000000085e-04 4.259445520326154977e+00
0.000000000000000000e+00 3.899519999999999961e-04 3.497455478829647912e+00
0.000000000000000000e+00 1.441280000000000133e-04 4.720692237217230414e+00
0.000000000000000000e+00 1.084930000000000009e-03 2.261075627650162456e+00
0.000000000000000000e+00 1.628099999999999947e-03 2.088212036110213887e+00
2.187499999999999861e-02 2.753540000000000067e-03 2.979901691318092460e+00
3.125000000000000173e-03 4.693890000000000041e-03 1.340374452805983996e+00
2.812500000000000069e-02 3.244289999999999934e-03 3.299918541280560280e+00
3.125000000000000173e-03 1.983189999999999953e-02 2.731386423196294100e+00
6.250000000000000347e-03 1.875780000000000069e-03 3.344996870465974492e+00
1.874999999999999931e-02 2.073080000000000062e-02 5.363594432491292086e-02
0.000000000000000000e+00 1.800060000000000028e-03 2.746247879859872398e+00
0.000000000000000000e+00 1.420990000000000014e-03 7.541134165195417793e-02
3.125000000000000173e-03 1.722779999999999928e-03 1.769268104854775370e+00
6.250000000000000347e-03 2.280770000000000106e-03 9.347699842725676334e-01
0.000000000000000000e+00 3.659649999999999969e-03 3.120889459673785282e+00
2.187499999999999861e-02 2.062720000000000092e-03 3.052917668733404533e+00
3.125000000000000173e-03 1.385409999999999897e-03 3.105890523311715334e+00
0.000000000000000000e+00 9.911679999999999536e-04 4.376519472634450736e+00
1.250000000000000069e-02 2.193280000000000143e-03 1.834287965310659629e+00
1.562500000000000000e-02 9.073879999999999446e-02 1.697047796750368320e+00
0.000000000000000000e+00 3.455939999999999793e-03 3.145157481811899469e+00
0.000000000000000000e+00 0.000000000000000000e+00 1.874421487122024388e-02
0.000000000000000000e+00 2.313600000000000075e-04 3.188678169951693508e+00
6.250000000000000347e-03 9.954179999999999973e-02 3.560047577257146045e+00
3.125000000000000000e-02 1.738240000000000054e-03 1.244057409054162733e+00
6.250000000000000347e-03 2.138510000000000133e-01 2.583889543884015261e+00
1.250000000000000069e-02 2.625979999999999981e-03 1.761967087863752779e+00
0.000000000000000000e+00 9.661440000000000522e-04 1.251125348324690911e+00
0.000000000000000000e+00 1.118459999999999940e-03 3.221329446127942919e+00
0.000000000000000000e+00 1.197060000000000008e-03 2.999680879062638361e+00
0.000000000000000000e+00 5.346100000000000331e-04 1.641535273563643038e+00
1.562500000000000000e-02 1.931460000000000078e-03 1.569626102847014426e+00
0.000000000000000000e+00 1.796479999999999984e-04 4.156055527747983369e+00
0.000000000000000000e+00 2.697789999999999824e-03 2.444546905565443407e+00
0.000000000000000000e+00 2.086660000000000164e-03 1.658457224731169521e+00
0.000000000000000000e+00 2.305649999999999855e-05 4.637633213939036381e+00
3.125000000000000173e-03 1.673659999999999991e-03 1.409293687768847780e-01
5.312499999999999861e-02 2.426230000000000053e-01 5.848073627031952215e-01
0.000000000000000000e+00 2.775300000000000076e-03 4.052517033092398080e+00
1.562500000000000000e-02 2.120959999999999859e-03 8.290062843782397550e-01
0.000000000000000000e+00 1.122509999999999957e-03 2.482554830143102187e-01
6.250000000000000347e-03 2.746300000000000130e-03 4.884428382746501818e+00
0.000000000000000000e+00 1.106750000000000095e-03 8.148366433849102419e-01
0.000000000000000000e+00 1.069700000000000034e-03 3.404064849125293613e+00
1.250000000000000069e-02 2.666879999999999945e-03 4.870267304262965169e-01
0.000000000000000000e+00 1.599039999999999923e-03 3.304091796084836830e+00
3.125000000000000173e-03 2.048509999999999914e-03 3.386866108368778328e+00
9.374999999999999653e-03 2.651070000000000162e-03 2.678007909535375486e+00
0.000000000000000000e+00 3.558950000000000069e-04 1.884074122682695140e+00
0.000000000000000000e+00 2.741089999999999873e-05 4.830143316300889111e+00
2.500000000000000139e-02 3.160580000000000073e-03 4.802533501477886269e+00
0.000000000000000000e+00 2.076799999999999903e-04 4.472521399276407017e+00
0.000000000000000000e+00 7.507759999999999824e-04 3.797970280367979345e+00
0.000000000000000000e+00 2.394239999999999899e-04 2.800781589769656410e+00
0.000000000000000000e+00 1.057540000000000043e-03 4.730295175418918419e+00
0.000000000000000000e+00 9.679359999999999700e-04 4.869033979297535453e+00
1.562500000000000000e-02 9.309140000000000470e-02 2.525726739530518739e+00
2.812500000000000069e-02 6.236280000000000295e-02 3.403185366380770738e+00
2.812500000000000069e-02 1.892800000000000038e-03 3.885014480964588568e+00
0.000000000000000000e+00 7.547260000000000080e-03 1.959133848569155623e+00
9.374999999999999653e-03 1.304059999999999941e-02 1.412906115851275235e+00
0.000000000000000000e+00 2.712319999999999944e-04 4.888339075875530959e+00
0.000000000000000000e+00 5.543420000000000292e-03 3.228809814642215947e+00
0.000000000000000000e+00 4.296370000000000202e-04 3.469068645242040505e-01
0.000000000000000000e+00 3.475520000000000172e-03 1.226846379184228786e+00
9.374999999999999653e-03 1.807809999999999973e-03 3.761772806538973946e+00
9.374999999999999653e-03 1.033279999999999919e-03 3.500563859614855389e+00
9.374999999999999653e-03 2.072319999999999891e-03 3.169959967789475197e+00
0.000000000000000000e+00 1.111809999999999968e-03 4.882729730893801801e+00
2.187499999999999861e-02 5.137730000000000075e-03 1.546510705361902716e+00
0.000000000000000000e+00 7.226249999999999601e-04 3.198875217177299390e-01
0.000000000000000000e+00 4.157860000000000202e-04 3.308178322169204488e+00
0.000000000000000000e+00 4.360629999999999888e-03 4.163327731842006330e+00
3.125000000000000173e-03 7.947779999999999775e-03 3.311019829341236953e+00
2.500000000000000139e-02 3.275259999999999890e-03 1.705292208235488216e+00
0.000000000000000000e+00 1.586970000000000047e-03 2.397982396857552878e+00
2.500000000000000139e-02 1.410559999999999939e-03 3.983102223242898088e+00
0.000000000000000000e+00 1.511549999999999960e-03 3.295613402336133202e+00
3.125000000000000000e-02 1.736949999999999909e-03 1.985465843751408777e+00
2.187499999999999861e-02 2.587649999999999933e-03 2.709043813950727575e+00
0.000000000000000000e+00 1.076860000000000013e-03 4.703432209747088422e+00
0.000000000000000000e+00 6.713219999999999778e-03 4.153106381397836167e+00
0.000000000000000000e+00 3.607940000000000019e-03 1.340073952467218277e+00
0.000000000000000000e+00 2.721919999999999852e-04 1.446123114563003131e+00
3.125000000000000173e-03 2.094270000000000072e-03 3.879163730541502986e+00
2.812500000000000069e-02 2.564929999999999988e-03 5.389501796347717644e-01
0.000000000000000000e+00 9.815620000000000595e-04 3.075515718021471390e+00
1.250000000000000069e-02 3.730879999999999787e-03 4.405497085632544163e+00
2.187499999999999861e-02 1.108369999999999961e-04 2.066047264601266420e+00
1.874999999999999931e-02 2.428539999999999865e-03 1.967633142904817056e+00
0.000000000000000000e+00 1.119229999999999921e-03 9.994599945546667197e-01
3.125000000000000173e-03 1.605590000000000142e-02 3.900096597410760868e+00
0.000000000000000000e+00 1.066179999999999906e-03 3.085215219230168948e+00
3.125000000000000173e-03 1.241510000000000009e-02 2.729549095886191878e+00
0.000000000000000000e+00 2.405309999999999913e-03 2.344754450606747032e+00
1.562500000000000000e-02 2.104379999999999879e-03 1.402892447217198413e+00
0.000000000000000000e+00 1.944919999999999982e-02 2.619585102179593061e+00
5.625000000000000139e-02 2.660950000000000121e-02 3.270000532271492677e+00
0.000000000000000000e+00 9.946880000000000825e-04 3.236076663854527524e+00
3.125000000000000173e-03 9.674879999999999591e-02 1.724155367824673490e+00
0.000000000000000000e+00 1.086209999999999997e-03 2.891695327154703010e-01
1.874999999999999931e-02 4.017169999999999769e-02 2.190814831766373594e+00
0.000000000000000000e+00 2.307650000000000066e-03 1.031216125049231991e+00
0.000000000000000000e+00 7.362250000000000196e-05 2.894039150770061575e+00
0.000000000000000000e+00 8.466559999999999711e-03 7.583563028392487082e-01
3.437500000000000278e-02 2.967430000000000068e-02 3.813198255998043962e+00
1.250000000000000069e-02 1.096380000000000098e-03 1.532041002254007633e+00
0.000000000000000000e+00 1.076289999999999929e-03 9.122017525155928785e-01
3.125000000000000173e-03 1.177089999999999994e-03 4.029947365147906746e-01
9.374999999999999653e-03 1.950139999999999946e-03 7.580667160078313760e-01
1.562500000000000000e-02 2.363969999999999960e-03 3.451890020280792726e+00
0.000000000000000000e+00 4.008320000000000004e-04 1.737360258039775118e+00
0.000000000000000000e+00 3.857120000000000232e-04 1.125529063581065969e+00
1.250000000000000069e-02 8.452480000000000496e-04 4.264970658892150546e+00
1.562500000000000000e-02 2.186689999999999814e-03 4.997442022856234622e+00
9.374999999999999653e-03 3.253260000000000179e-02 4.262755421916202714e+00
3.125000000000000173e-03 4.220670000000000151e-03 4.241916128399121355e+00
0.000000000000000000e+00 6.091840000000000276e-03 2.170574793421025550e+00
3.125000000000000173e-03 1.757929999999999909e-02 2.776448351482209809e+00
0.000000000000000000e+00 1.476930000000000083e-02 4.628560474391212765e+00
0.000000000000000000e+00 7.273060000000000462e-04 3.253047786639158723e+00
0.000000000000000000e+00 1.786240000000000028e-04 1.723885422652210453e-01
0.000000000000000000e+00 6.713219999999999778e-03 1.443110465807412313e-01
0.000000000000000000e+00 1.001149999999999913e-03 1.942619377526658031e+00
6.250000000000000347e-03 1.062820000000000015e-01 2.698259413032850773e+00
0.000000000000000000e+00 1.064000000000000059e-03 2.438605345445703065e+00
3.437500000000000278e-02 8.519129999999999758e-03 4.588030086963510001e+00
2.500000000000000139e-02 3.120260000000000134e-03 9.408349864720305655e-01
1.874999999999999931e-02 1.515779999999999992e-03 2.741605100103068349e+00
0.000000000000000000e+00 1.544449999999999946e-03 3.770410232585994059e+00
6.250000000000000347e-03 6.225660000000000048e-03 1.849313889963080104e+00
3.125000000000000173e-03 1.047939999999999983e-01 4.314345430817925653e+00
0.000000000000000000e+00 1.399360000000000100e-03 1.350678993123839877e+00
0.000000000000000000e+00 2.167940000000000145e-03 4.211872843094064400e+00
0.000000000000000000e+00 1.711620000000000068e-03 2.491926538823769910e+00
0.000000000000000000e+00 1.006960000000000103e-03 2.193052657064541222e+00
2.187499999999999861e-02 2.150140000000000037e-03 2.593048340146386632e-01
0.000000000000000000e+00 1.117439999999999926e-03 1.971035411098253753e+00
0.000000000000000000e+00 4.166199999999999786e-04 3.168292237550014434e+00
0.000000000000000000e+00 6.226559999999999690e-04 2.243600448852355100e+00
3.125000000000000173e-03 1.910299999999999845e-02 4.709024008112629112e+00
2.500000000000000139e-02 2.816700000000000106e-03 4.938070006461772188e+00
0.000000000000000000e+00 3.985920000000000218e-04 3.635741236399674392e+00
5.937499999999999722e-02 9.285759999999999847e-02 2.379071856956404662e+00
2.500000000000000139e-02 1.688580000000000072e-03 3.601528937665593455e-01
0.000000000000000000e+00 3.723520000000000020e-04 3.501170746719849625e+00
1.874999999999999931e-02 2.664580000000000160e-03 1.537024909764787672e+00
1.562500000000000000e-02 1.768580000000000065e-03 1.517348586710894898e+00
0.000000000000000000e+00 7.238429999999999474e-04 3.176435650943883360e+00
3.125000000000000173e-03 4.975939999999999877e-03 3.459075234102482188e+00
2.187499999999999861e-02 8.280259999999999357e-03 2.597564213581343928e+00
1.874999999999999931e-02 1.246410000000000053e-02 2.535733626404357732e+00
0.000000000000000000e+00 9.833579999999999318e-04 4.920346278714748500e+00
3.125000000000000173e-03 4.975099999999999661e-03 2.752153562233915274e+00
9.374999999999999653e-03 1.408900000000000039e-03 6.354571938683828414e-01
2.187499999999999861e-02 2.549630000000000212e-03 3.301868749541723158e+00
6.250000000000000347e-03 9.438040000000000318e-02 2.737738234686156957e+00
0.000000000000000000e+00 4.906240000000000514e-04 3.208098610554821484e-01
1.031249999999999944e-01 1.823210000000000108e-02 2.320605393490236423e+00
6.250000000000000347e-03 5.169499999999999616e-03 2.335451436556027716e+00
0.000000000000000000e+00 2.215869999999999992e-03 2.722677968957369909e+00
0.000000000000000000e+00 1.064000000000000059e-03 3.199282779393461063e+00
1.874999999999999931e-02 2.412539999999999910e-03 1.148628512510139199e+00
0.000000000000000000e+00 1.776119999999999861e-05 3.350014147852986568e-01
0.000000000000000000e+00 1.175439999999999992e-02 3.370200049549245236e+00
1.874999999999999931e-02 1.708160000000000017e-03 3.991321472415043647e-02
1.562500000000000000e-02 1.606520000000000170e-02 3.658644383093530017e+00
6.250000000000000347e-03 6.050370000000000227e-03 4.293941884601361281e+00
3.125000000000000173e-03 2.205180000000000161e-03 2.747219326808494344e+00
0.000000000000000000e+00 5.459330000000000085e-03 3.425906044057811073e+00
1.250000000000000069e-02 1.956859999999999936e-03 2.781509409881795847e+00
1.562500000000000000e-02 2.292349999999999857e-03 1.018031463771730261e+00
6.250000000000000347e-03 1.684220000000000161e-02 3.570242168727350007e-01
9.375000000000000000e-02 9.261690000000000200e-02 4.915600782891206499e+00
2.187499999999999861e-02 2.538690000000000131e-03 7.017337187094824236e-01
0.000000000000000000e+00 9.925120000000000817e-04 1.996177894828691235e+00
0.000000000000000000e+00 1.059330000000000037e-03 1.832277072310108501e+00
0.000000000000000000e+00 1.523840000000000101e-04 4.213597013300691252e+00
0.000000000000000000e+00 9.357439999999999638e-04 2.637080291398445464e+00
3.125000000000000173e-03 4.318719999999999851e-03 3.772444062422921629e+00
0.000000000000000000e+00 9.494990000000000244e-04 4.923084994011953874e+00
0.000000000000000000e+00 7.478260000000000463e-04 8.212523053396503236e-01
2.187499999999999861e-02 9.388219999999999898e-02 1.575976687960906064e-01
3.125000000000000000e-02 8.332789999999999642e-03 3.864138139031390473e+00
3.125000000000000173e-03 4.352579999999999991e-03 3.466787456774791387e+00
0.000000000000000000e+00 1.429760000000000080e-04 8.533708441824272573e-01
1.562500000000000000e-02 1.540989999999999895e-03 3.838971830614708480e+00
0.000000000000000000e+00 5.614270000000000198e-03 3.011722867437982565e+00
0.000000000000000000e+00 3.830400000000000189e-04 5.051655244625968821e-01
3.125000000000000173e-03 7.688839999999999737e-03 2.426050622327887041e+00
1.250000000000000069e-02 2.613949999999999867e-03 3.329182333350579448e+00
1.562500000000000000e-02 1.811969999999999987e-03 8.181678894130578472e-01
3.125000000000000173e-03 3.903869999999999823e-03 2.484920718619905600e+00
3.125000000000000173e-03 1.177340000000000027e-03 3.473364607172331198e+00
2.812500000000000069e-02 2.609470000000000019e-03 2.613615060647518806e+00
2.812500000000000069e-02 9.332509999999999417e-02 1.875692201291694783e+00
0.000000000000000000e+00 9.980799999999999308e-04 3.857609468371250738e+00
3.125000000000000000e-02 9.163209999999999411e-02 4.654084505187265464e+00
1.250000000000000069e-02 2.723199999999999840e-03 2.049039956874558754e+00
2.187499999999999861e-02 1.478850000000000086e-03 1.308568865916733825e+00
4.374999999999999722e-02 2.627559999999999965e-02 3.572981067358108831e+00
0.000000000000000000e+00 3.336360000000000020e-03 4.887510093274849421e-01
1.250000000000000069e-02 1.297980000000000010e-03 2.644047736152866257e+00
3.125000000000000173e-03 4.252670000000000061e-03 9.911212338539088229e-02
1.031249999999999944e-01 8.055719999999999548e-02 1.118942123025401525e+00
0.000000000000000000e+00 4.136060000000000105e-04 3.069910721288852784e+00
3.125000000000000173e-03 1.543620000000000105e-03 1.942291655290648844e+00
0.000000000000000000e+00 1.828860000000000078e-03 2.501772971446078575e+00
0.000000000000000000e+00 2.091519999999999924e-04 2.450080520345176538e+00
3.125000000000000173e-03 1.722500000000000073e-03 1.369811393923087151e+00
1.250000000000000069e-02 1.047360000000000001e-03 2.549202303929340996e+00
0.000000000000000000e+00 2.021320000000000061e-02 1.266574425832246442e+00
2.812500000000000069e-02 2.825020000000000135e-03 4.748726958522460961e+00
3.125000000000000173e-03 4.372540000000000281e-03 2.014166894133841090e+00
0.000000000000000000e+00 1.178879999999999934e-04 1.105742923707432324e+00
3.125000000000000173e-03 1.299330000000000016e-03 3.857298923984084027e+00
2.500000000000000139e-02 1.651139999999999943e-03 4.385677611802007991e-01
1.562500000000000000e-02 1.072059999999999957e-01 4.781435142298101404e+00
2.187499999999999861e-02 1.727299999999999973e-03 6.171160888210308615e-01
0.000000000000000000e+00 7.475049999999999794e-04 4.430815828982650473e+00
3.125000000000000173e-03 4.991749999999999660e-03 2.688469170637393102e+00
