3.125000000000000173e-03 1.082729999999999977e-02 2.951233535896516713e+00
3.125000000000000173e-03 1.082619999999999937e-02 4.186751244632838542e+00
0.000000000000000000e+00 5.274299999999999995e-03 2.288279214934691996e+00
0.000000000000000000e+00 2.974080000000000040e-03 2.723847281678682286e+00
0.000000000000000000e+00 1.608789999999999889e-05 1.184879280679154601e+00
2.500000000000000139e-02 4.816380000000000314e-03 1.826402071003167649e+00
6.250000000000000347e-03 6.710889999999999911e-02 8.994696047764799696e-01
0.000000000000000000e+00 2.457600000000000062e-02 2.425797314736994892e+00
9.374999999999999653e-03 1.872130000000000061e-03 3.661504585198770201e+00
0.000000000000000000e+00 2.347899999999999987e-03 4.892549372624820592e+00
6.250000000000000347e-03 2.964050000000000192e-03 4.626225659713280258e+00
2.187499999999999861e-02 2.248130000000000094e-03 3.563264661546902801e+00
0.000000000000000000e+00 1.160320000000000058e-03 4.285271106949588571e+00
0.000000000000000000e+00 1.714880000000000007e-03 1.236124004310596991e+00
0.000000000000000000e+00 4.466559999999999736e-04 2.199904465037043177e+00
3.125000000000000173e-03 4.956860000000000432e-03 2.230031282453916575e+00
1.062499999999999972e-01 9.226929999999999854e-02 3.301514031158092166e+00
3.125000000000000173e-03 1.000230000000000008e-01 3.099533319953849286e+00
0.000000000000000000e+00 4.337279999999999781e-04 3.894783197417219345e+00
0.000000000000000000e+00 5.438020000000000007e-03 3.357179803231011395e+00
6.250000000000000347e-03 1.000810000000000033e-01 2.204698099695175273e+00
0.000000000000000000e+00 2.739199999999999795e-04 6.288460527361094954e-03
2.812500000000000069e-02 7.999229999999999535e-03 2.813978399816095433e+00
0.000000000000000000e+00 1.637379999999999912e-03 3.856763494058885744e+00
6.250000000000000347e-03 4.496960000000000367e-03 3.712697132421945767e+00
1.874999999999999931e-02 1.065829999999999972e-01 1.863581932064307001e+00
0.000000000000000000e+00 2.288059999999999909e-05 1.284164794210694849e+00
0.000000000000000000e+00 1.518210000000000089e-03 2.424115195448400817e-01
3.125000000000000173e-03 4.584129999999999629e-03 4.956662878566144848e+00
9.374999999999999653e-03 2.581570000000000045e-03 2.987768516581571276e+00
0.000000000000000000e+00 4.912620000000000138e-04 2.975775270324798605e+00
0.000000000000000000e+00 1.787780000000000098e-03 3.996761304574897089e+00
0.000000000000000000e+00 1.075779999999999922e-03 1.605892091547087563e+00
0.000000000000000000e+00 1.202869999999999981e-02 1.154096801678965889e+00
0.000000000000000000e+00 1.017019999999999990e-03 2.485482064787440493e+00
0.000000000000000000e+00 2.904640000000000000e-03 2.518855640419950248e+00
9.374999999999999653e-03 9.711939999999999462e-02 4.978273594076220832e+00
0.000000000000000000e+00 1.266559999999999908e-03 1.599530239628417227e+00
0.000000000000000000e+00 3.004910000000000068e-04 3.888853552972848515e+00
0.000000000000000000e+00 1.054589999999999998e-03 4.409072661239241242e+00
2.187499999999999861e-02 3.823299999999999962e-03 2.972690112867480750e+00
0.000000000000000000e+00 1.281660000000000004e-03 2.046574770780487995e+00
3.125000000000000173e-03 4.969089999999999792e-03 4.214929338426641969e+00
0.000000000000000000e+00 9.217329999999999924e-04 9.740801197798903965e-01
3.125000000000000173e-03 3.661310000000000085e-03 5.002574519644714668e-01
0.000000000000000000e+00 2.389249999999999881e-03 3.888285651483440741e+00
2.812500000000000069e-02 2.111679999999999894e-03 3.619636970181567825e+00
0.000000000000000000e+00 5.104989999999999788e-04 3.418719146289204147e+00
0.000000000000000000e+00 8.670719999999999816e-04 2.916575187295600280e+00
2.500000000000000139e-02 2.540859999999999820e-03 4.494661561544178063e+00
0.000000000000000000e+00 5.722239999999999749e-04 3.129318407366334043e+00
0.000000000000000000e+00 6.241280000000000525e-04 6.666223839919599436e-01
3.125000000000000000e-02 1.310719999999999941e-02 3.348002253848718190e+00
1.031249999999999944e-01 9.209820000000000506e-02 2.249848543702537285e-01
3.125000000000000000e-02 9.402119999999999922e-02 3.783116611015628905e+00
3.125000000000000173e-03 1.015459999999999974e-01 3.419243916278994710e+00
2.187499999999999861e-02 2.301040000000000030e-02 1.300798759090467938e+00
9.374999999999999653e-03 2.043839999999999893e-03 4.979855321328318318e+00
0.000000000000000000e+00 5.092169999999999596e-04 2.794716223942605993e-01
1.562500000000000000e-02 2.663169999999999860e-03 2.519584676647086408e+00
3.125000000000000173e-03 2.980350000000000100e-03 8.935431887054340327e-01
3.125000000000000173e-03 5.732160000000000033e-03 2.568556343426102284e+00
0.000000000000000000e+00 3.121280000000000040e-04 1.515156301611161327e+00
0.000000000000000000e+00 9.852800000000000533e-04 7.985365665992999462e-01
0.000000000000000000e+00 6.432279999999999942e-02 1.342667721927565117e-01
0.000000000000000000e+00 9.900799999999999532e-04 2.516618201406561006e+00
3.125000000000000173e-03 9.580439999999999789e-02 1.574429555783570134e+00
0.000000000000000000e+00 3.666299999999999941e-03 7.056973403260813349e-01
0.000000000000000000e+00 3.229119999999999820e-03 1.821487847295306661e+00
0.000000000000000000e+00 3.080320000000000215e-04 2.399801206045363067e+00
2.187499999999999861e-02 9.290690000000000059e-02 3.018227190201961285e+00
0.000000000000000000e+00 4.323309999999999913e-04 3.507253920512031442e+00
0.000000000000000000e+00 2.863099999999999933e-03 4.724279910257214610e+00
0.000000000000000000e+00 8.850559999999999504e-04 4.682085130745581303e+00
0.000000000000000000e+00 2.090690000000000083e-03 3.881126474579326580e+00
0.000000000000000000e+00 3.962689999999999962e-02 2.294767381040315968e+00
6.250000000000000347e-03 9.979010000000000657e-02 1.830801127677297302e+00
0.000000000000000000e+00 5.342720000000000238e-04 2.236211556029667591e+00
0.000000000000000000e+00 9.500799999999999567e-04 1.246686119226636524e+00
0.000000000000000000e+00 5.602380000000000120e-04 1.412411411056138100e+00
9.374999999999999653e-03 3.794500000000000130e-03 2.605605547224389529e+00
3.125000000000000173e-03 4.112979999999999588e-03 1.249926400433951201e+00
0.000000000000000000e+00 1.804100000000000105e-03 9.715911514164338181e-01
0.000000000000000000e+00 9.597179999999999600e-02 2.971250864288410565e-01
0.000000000000000000e+00 1.167939999999999907e-03 1.667887960764947053e+00
9.374999999999999653e-03 2.079549999999999888e-03 3.254204915490183092e-01
3.125000000000000173e-03 4.654460000000000021e-03 3.445418658873622864e+00
0.000000000000000000e+00 9.487999999999999689e-04 1.953650652459175685e+00
2.500000000000000139e-02 2.523780000000000207e-03 1.041729912070279873e+00
0.000000000000000000e+00 8.754350000000000369e-04 4.433434632554575039e+00
3.125000000000000173e-03 4.852930000000000091e-03 3.516932803676296349e+00
3.125000000000000173e-03 5.158910000000000058e-03 2.335748527903472649e+00
0.000000000000000000e+00 9.870720000000000795e-04 1.942743345126636267e+00
0.000000000000000000e+00 4.240590000000000136e-04 1.074042185438863761e+00
4.687500000000000000e-02 2.700879999999999947e-02 3.104085007724828316e+00
0.000000000000000000e+00 2.773250000000000107e-03 2.415650476045366757e-01
0.000000000000000000e+00 2.469759999999999881e-04 2.354398040998639807e-01
0.000000000000000000e+00 4.291200000000000114e-04 3.123794856079183724e+00
0.000000000000000000e+00 9.809280000000000516e-04 1.041902302853404683e+00
3.125000000000000173e-03 2.635839999999999971e-03 1.479330838591717434e+00
1.874999999999999931e-02 2.171520000000000134e-03 4.876431039383842148e+00
0.000000000000000000e+00 1.463300000000000061e-03 7.436432620134897364e-01
3.125000000000000173e-03 1.541440000000000041e-03 2.162499344882644614e+00
0.000000000000000000e+00 1.877439999999999968e-03 1.678557768022169716e+00
1.250000000000000069e-02 3.444989999999999858e-02 8.410073888790337016e-02
1.562500000000000000e-02 2.058110000000000148e-03 2.961306196453028505e+00
1.562500000000000000e-02 1.936830000000000062e-03 2.543710847415986187e+00
1.062499999999999972e-01 3.321869999999999684e-02 4.475115317693497019e+00
2.500000000000000139e-02 2.770879999999999871e-03 2.864508740168186796e-01
0.000000000000000000e+00 1.534080000000000057e-04 4.087587981495281575e+00
3.125000000000000173e-03 4.359619999999999815e-03 4.119323931041845910e+00
1.562500000000000000e-02 1.936830000000000062e-03 4.258592608618428699e+00
6.250000000000000347e-03 1.064390000000000058e-01 3.160236958166916743e+00
1.874999999999999931e-02 2.666249999999999870e-02 8.453667272979831226e-01
0.000000000000000000e+00 2.387840000000000015e-03 4.081528207182334000e+00
0.000000000000000000e+00 4.493630000000000194e-03 4.149678457397289577e+00
3.125000000000000173e-03 9.826110000000000747e-03 3.343116729724328717e+00
0.000000000000000000e+00 1.278660000000000040e-03 3.856470393377975370e+00
0.000000000000000000e+00 3.790430000000000231e-04 2.765427580632100923e+00
6.250000000000000347e-03 4.706619999999999901e-03 3.732143332906999511e+00
6.250000000000000347e-03 5.567940000000000389e-03 3.084855274779185752e+00
0.000000000000000000e+00 1.099649999999999976e-03 1.795959995921685870e+00
4.062500000000000139e-02 9.395539999999999448e-02 4.501423681984417779e-02
2.500000000000000139e-02 3.007810000000000084e-03 3.693715921750611475e+00
2.500000000000000139e-02 5.192829999999999842e-03 3.165939975539371343e+00
0.000000000000000000e+00 6.485699999999999799e-02 3.715984121658495898e+00
3.125000000000000173e-03 5.206530000000000012e-03 3.004169573365794710e-01
0.000000000000000000e+00 5.827840000000000364e-04 3.843758751782250904e+00
9.374999999999999653e-03 1.800769999999999932e-03 3.965166075294636272e+00
0.000000000000000000e+00 2.233920000000000119e-05 1.096929160572413409e+00
3.125000000000000173e-03 1.636800000000000104e-03 3.607813960901379069e+00
3.125000000000000173e-03 2.817019999999999941e-03 4.884569292167944887e+00
1.874999999999999931e-02 3.011139999999999824e-03 3.062873627597358706e+00
1.874999999999999931e-02 1.111739999999999950e-03 3.520227214265963411e+00
2.812500000000000069e-02 2.975419999999999888e-03 1.318360385180658678e+00
3.125000000000000173e-03 2.387139999999999835e-03 4.102237489444027219e+00
0.000000000000000000e+00 5.447680000000000534e-04 3.060828895318849607e+00
2.187499999999999861e-02 1.763519999999999975e-03 2.825676151630301947e-01
3.125000000000000173e-03 2.646980000000000166e-03 3.439033200196541795e+00
3.125000000000000173e-03 4.180739999999999630e-03 2.531946466742763135e+00
3.125000000000000173e-03 3.228159999999999884e-03 2.977163225220841980e+00
2.812500000000000069e-02 5.119040000000000049e-03 3.280834463110304799e+00
0.000000000000000000e+00 2.705429999999999988e-03 2.219529742306233011e+00
0.000000000000000000e+00 5.001860000000000334e-03 2.021111374600531363e+00
0.000000000000000000e+00 4.392959999999999574e-03 4.669635287191007400e+00
2.500000000000000139e-02 2.135230000000000114e-03 3.679148302657104352e+00
0.000000000000000000e+00 3.005120000000000013e-03 3.614240062520285957e+00
3.125000000000000173e-03 3.698889999999999817e-02 2.779333934697492570e+00
1.874999999999999931e-02 3.378079999999999972e-02 4.446572515539611636e+00
9.374999999999999653e-03 1.929979999999999977e-03 4.088243302048691241e+00
6.875000000000000555e-02 9.375169999999999337e-02 4.905568812873077889e+00
1.874999999999999931e-02 3.324670000000000056e-03 3.528336393599267318e+00
1.874999999999999931e-02 2.788099999999999953e-03 4.818201615002641880e+00
0.000000000000000000e+00 6.527610000000000356e-02 5.089679135621172357e-01
0.000000000000000000e+00 1.006340000000000099e-03 4.768157635266113914e+00
2.187499999999999861e-02 2.622530000000000087e-03 1.000588785840769157e+00
1.562500000000000000e-02 1.781309999999999925e-03 4.370714180827665274e+00
0.000000000000000000e+00 9.175680000000000077e-04 1.130582105327622600e+00
0.000000000000000000e+00 2.294820000000000163e-05 3.688819486293299921e+00
0.000000000000000000e+00 1.017920000000000066e-03 3.599832152977359812e+00
1.562500000000000000e-02 3.862229999999999830e-02 4.426517397727276482e+00
1.250000000000000069e-02 9.169499999999999873e-02 1.898497732689533590e+00
0.000000000000000000e+00 1.239040000000000063e-03 6.586254771986155276e-01
3.125000000000000173e-03 2.977410000000000213e-03 4.538693463389895655e+00
2.500000000000000139e-02 4.052219999999999607e-03 2.966694481742621292e+00
0.000000000000000000e+00 9.890889999999999405e-02 3.142137477326629735e+00
1.874999999999999931e-02 2.058299999999999887e-03 1.596959933230942541e+00
0.000000000000000000e+00 6.840849999999999665e-04 7.972124641451006077e-01
0.000000000000000000e+00 1.134079999999999984e-03 2.864220458070683151e+00
0.000000000000000000e+00 5.281089999999999569e-03 2.517880590576216271e+00
3.125000000000000173e-03 3.714620000000000075e-03 3.202189829659950249e+00
0.000000000000000000e+00 9.259519999999999600e-04 1.586179370371759711e-01
5.625000000000000139e-02 9.171619999999999773e-02 1.809534127498148015e+00
6.250000000000000347e-03 1.069210000000000022e-01 4.907798478099541839e+00
1.250000000000000069e-02 1.372739999999999898e-03 1.058824994376216244e+00
6.250000000000000347e-03 1.675330000000000048e-03 3.170582788734519930e+00
2.812500000000000069e-02 4.894530000000000235e-03 8.793861186298934651e-02
0.000000000000000000e+00 2.673179999999999827e-03 4.145186426284377390e+00
0.000000000000000000e+00 5.308219999999999779e-03 1.911215554031989727e+00
2.500000000000000139e-02 2.856700000000000211e-03 1.893344831575749510e-01
1.250000000000000069e-02 2.276479999999999997e-03 6.606709705286023526e-01
3.125000000000000173e-03 2.279100000000000049e-03 3.078806317245845303e+00
0.000000000000000000e+00 1.174150000000000020e-02 4.919626347512045861e+00
0.000000000000000000e+00 3.957790000000000201e-04 4.400219667033263171e+00
0.000000000000000000e+00 5.824639999999999852e-04 8.982106760225566644e-01
2.812500000000000069e-02 2.213380000000000035e-03 8.779058773690756601e-01
0.000000000000000000e+00 6.036729999999999917e-04 6.382473887059636475e-01
9.374999999999999653e-03 2.182659999999999895e-03 3.121862666975725897e+00
3.125000000000000173e-03 5.078209999999999669e-03 4.723554129268253909e+00
3.749999999999999861e-02 9.208810000000000606e-02 3.314582272655989037e+00
3.125000000000000173e-03 2.576319999999999999e-03 4.288003855878676163e+00
0.000000000000000000e+00 1.113089999999999956e-03 3.849095503835232357e+00
0.000000000000000000e+00 1.400449999999999915e-03 4.121234890038373067e+00
0.000000000000000000e+00 3.160060000000000126e-03 2.680792524194645754e+00
0.000000000000000000e+00 1.653120000000000056e-04 4.909113439965270054e+00
0.000000000000000000e+00 1.862950000000000023e-02 7.855466838213365222e-02
6.250000000000000347e-03 2.152960000000000203e-03 2.983178833667691876e+00
1.562500000000000000e-02 5.525890000000000316e-03 3.188281476137754034e+00
2.812500000000000069e-02 9.198359999999999870e-02 3.039835088937967722e+00
0.000000000000000000e+00 1.836289999999999971e-03 1.069783218802322633e+00
0.000000000000000000e+00 1.132930000000000091e-03 2.705118545971922472e+00
0.000000000000000000e+00 1.162430000000000104e-03 8.660608950772735737e-01
3.125000000000000173e-03 1.767810000000000084e-03 2.883539141030629693e+00
0.000000000000000000e+00 2.726140000000000160e-03 1.783678120657717248e+00
0.000000000000000000e+00 4.909120000000000324e-03 1.357285211670981706e+00
1.250000000000000069e-02 9.287490000000000676e-03 2.935851937090017127e-01
0.000000000000000000e+00 1.297860000000000073e-03 4.185427983645167771e+00
0.000000000000000000e+00 2.604799999999999997e-04 1.062168407004244752e+00
0.000000000000000000e+00 3.467309999999999837e-02 3.246375876580742670e+00
0.000000000000000000e+00 1.936409999999999867e-02 2.165917741594320489e+00
0.000000000000000000e+00 6.068480000000000011e-04 4.006659885242419561e-01
0.000000000000000000e+00 4.640000000000000027e-04 1.781520323364155223e-01
0.000000000000000000e+00 4.093440000000000164e-04 1.313766849839564266e+00
9.374999999999999653e-03 9.393609999999999460e-02 2.157083593459705906e+00
0.000000000000000000e+00 1.960379999999999848e-03 4.266072579250401731e-01
3.125000000000000173e-03 1.024120000000000065e-02 2.902891181221056716e-01
3.125000000000000173e-03 4.403669999999999807e-02 4.948233174380564314e+00
0.000000000000000000e+00 4.983679999999999881e-03 2.617520947077339066e+00
0.000000000000000000e+00 9.509749999999999540e-04 3.495994230125476498e+00
2.500000000000000139e-02 3.125380000000000085e-03 1.491387555935177467e+00
5.625000000000000139e-02 9.413290000000000546e-02 3.202008374572038907e+00
0.000000000000000000e+00 6.677160000000000040e-02 1.614683968559319505e+00
0.000000000000000000e+00 5.077420000000000457e-04 2.124530531579321035e+00
0.000000000000000000e+00 9.809280000000000516e-04 2.361663642777747540e+00
0.000000000000000000e+00 2.297499999999999941e-05 4.133100396728867310e+00
0.000000000000000000e+00 4.102399999999999753e-04 4.196304551567947572e-01
6.250000000000000347e-03 1.282939999999999992e-03 3.113036912564814518e+00
0.000000000000000000e+00 8.426879999999999657e-04 2.565569053968261848e+00
4.374999999999999722e-02 1.073810000000000042e-01 2.333576084123841987e+00
0.000000000000000000e+00 1.304770000000000018e-03 1.233143265410907574e-01
1.874999999999999931e-02 1.717699999999999956e-03 3.133086620259463828e+00
0.000000000000000000e+00 1.171579999999999974e-03 4.384105879152214058e+00
6.250000000000000347e-03 2.847360000000000169e-03 2.773038955510527703e+00
2.187499999999999861e-02 1.773649999999999879e-02 6.967362087777340118e-01
0.000000000000000000e+00 1.882690000000000015e-03 8.572169082280828301e-01
6.250000000000000000e-02 3.989000000000000185e-02 4.230458235448331106e-01
3.125000000000000173e-03 2.449320000000000056e-03 1.067608443706270505e+00
2.187499999999999861e-02 9.378340000000000287e-02 3.423478461403135054e+00
0.000000000000000000e+00 3.955200000000000079e-04 1.029620395931739596e+00
3.125000000000000173e-03 3.182019999999999814e-03 4.994499618586406342e+00
6.250000000000000347e-03 9.403140000000000109e-02 2.214848182448765801e+00
0.000000000000000000e+00 3.273550000000000071e-02 1.374468721742683641e+00
1.250000000000000069e-02 2.380670000000000095e-03 8.735046610775032416e-01
0.000000000000000000e+00 2.791619999999999865e-03 4.102984761932376712e-01
3.125000000000000173e-03 2.697339999999999894e-03 1.108722375528691240e+00
0.000000000000000000e+00 1.118340000000000002e-03 3.952723751955090847e+00
0.000000000000000000e+00 5.717120000000000448e-04 1.027526426297018070e+00
0.000000000000000000e+00 1.105660000000000063e-03 9.567526242540014270e-01
0.000000000000000000e+00 5.866239999999999996e-03 2.052753394743478399e+00
0.000000000000000000e+00 5.637699999999999829e-03 4.070214818463132822e+00
3.125000000000000173e-03 9.651849999999999319e-02 4.467665392654470935e+00
6.250000000000000347e-03 9.729790000000000660e-02 1.120547913559055697e+00
6.250000000000000347e-03 3.715740000000000015e-02 2.709985882506474208e+00
3.125000000000000173e-03 3.618500000000000189e-03 2.191359406065665816e+00
2.500000000000000139e-02 2.806529999999999789e-03 4.996879565261396650e+00
9.374999999999999653e-03 1.100420000000000044e-02 3.131483181732161558e+00
2.500000000000000139e-02 5.118020000000000035e-03 4.262607412508346627e+00
0.000000000000000000e+00 1.163519999999999919e-03 1.899921412194008230e+00
0.000000000000000000e+00 1.503170000000000070e-03 3.999529253866385137e-01
0.000000000000000000e+00 3.331289999999999881e-04 3.901925816116149637e+00
2.812500000000000069e-02 2.275969999999999990e-03 2.289504381154577217e+00
6.250000000000000347e-03 1.732990000000000008e-03 4.688462732094311747e+00
0.000000000000000000e+00 2.471679999999999754e-04 4.610302814935202775e+00
8.749999999999999445e-02 2.356180000000000080e-02 4.599483732934450231e+00
0.000000000000000000e+00 9.872049999999998968e-04 2.393851040664396912e+00
0.000000000000000000e+00 9.475199999999999812e-04 1.031527635636382723e+00
0.000000000000000000e+00 1.069220000000000066e-03 2.131246639480454341e+00
3.125000000000000173e-03 4.190909999999999948e-03 3.649673996373298257e-01
0.000000000000000000e+00 2.065919999999999898e-04 4.001145301738649351e+00
0.000000000000000000e+00 0.000000000000000000e+00 3.963655586577202072e+00
0.000000000000000000e+00 7.293580000000000462e-04 1.168368853454073708e+00
0.000000000000000000e+00 9.549509999999999986e-04 4.595877164565184358e+00
1.874999999999999931e-02 2.331390000000000025e-03 1.564762601091391314e+00
3.125000000000000173e-03 3.983419999999999669e-03 4.139149022946885914e+00
0.000000000000000000e+00 1.493090000000000042e-02 3.326230322718135568e+00
3.125000000000000173e-03 1.056050000000000044e-01 3.033778878938008905e+00
0.000000000000000000e+00 2.457600000000000062e-02 1.425091140992981842e+00
2.500000000000000139e-02 3.120320000000000212e-03 2.849494196221163955e-01
9.374999999999999653e-03 2.144580000000000097e-03 3.180090664112857901e+00
0.000000000000000000e+00 1.266049999999999901e-03 3.570800042807556363e+00
0.000000000000000000e+00 1.300930000000000055e-03 3.632192176337369904e+00
3.125000000000000173e-03 1.710209999999999985e-03 4.298898093862840497e+00
3.125000000000000173e-03 1.949949999999999991e-03 7.069292743081823094e-01
0.000000000000000000e+00 6.161769999999999791e-04 3.925666977230053423e+00
0.000000000000000000e+00 5.661120000000000388e-03 4.155471907195104286e+00
0.000000000000000000e+00 3.195009999999999864e-03 3.727680064051668296e+00
0.000000000000000000e+00 6.255300000000000096e-03 3.384179484980477604e+00
9.374999999999999653e-03 2.808189999999999905e-03 2.645429228251678921e+00
3.125000000000000173e-03 3.406140000000000209e-03 2.124694636056733366e+00
2.812500000000000069e-02 1.908989999999999949e-03 3.036582401922792052e+00
0.000000000000000000e+00 1.036800000000000048e-03 1.091617745452239108e+00
0.000000000000000000e+00 1.175229999999999981e-03 3.866188516927566710e+00
0.000000000000000000e+00 4.485629999999999999e-03 5.431094865918995040e-01
3.125000000000000173e-03 6.290880000000000430e-03 4.174124535997554730e+00
3.749999999999999861e-02 2.344349999999999906e-02 4.719991847412377872e+00
0.000000000000000000e+00 3.966770000000000105e-04 2.541482535686030442e+00
0.000000000000000000e+00 3.634560000000000113e-04 2.133012465042294803e+00
0.000000000000000000e+00 1.148799999999999951e-03 4.467073276047339725e-01
0.000000000000000000e+00 5.234179999999999736e-03 2.739871038786571233e+00
2.812500000000000069e-02 4.843010000000000023e-03 3.478562544052548056e+00
1.250000000000000069e-02 1.329729999999999975e-02 3.988870666448919966e+00
7.812500000000000000e-02 9.322199999999999931e-02 1.489804327529690164e+00
0.000000000000000000e+00 4.189290000000000136e-04 1.634592440559525794e+00
3.125000000000000173e-03 1.836989999999999934e-03 4.564550980731310936e+00
0.000000000000000000e+00 9.366739999999999702e-04 4.342757887489720581e+00
0.000000000000000000e+00 3.743360000000000155e-04 2.674569690891655860e+00
0.000000000000000000e+00 2.997060000000000175e-03 1.142076167214117755e+00
9.374999999999999653e-03 2.161220000000000155e-03 6.698758856246389559e-01
0.000000000000000000e+00 7.225610000000000366e-04 3.918404644612647036e+00
0.000000000000000000e+00 2.920059999999999930e-03 4.803364379869814016e+00
0.000000000000000000e+00 9.919029999999999514e-02 1.148572539459115749e+00
0.000000000000000000e+00 1.799169999999999893e-03 3.940690959250785497e+00
0.000000000000000000e+00 1.851520000000000054e-04 6.833014057112501982e-01
6.250000000000000000e-02 2.602959999999999996e-02 2.768214881043315589e+00
9.374999999999999653e-03 9.576719999999999677e-02 2.651105344917007223e+00
2.500000000000000139e-02 1.055709999999999982e-01 1.190158138296110168e-01
0.000000000000000000e+00 8.885759999999999709e-04 1.187712311377131513e+00
0.000000000000000000e+00 2.042880000000000065e-04 1.035194854400093289e+00
6.250000000000000347e-03 5.032509999999999588e-03 3.038223300259645931e-01
0.000000000000000000e+00 2.280760000000000166e-05 2.159745678464544572e+00
0.000000000000000000e+00 2.448510000000000096e-03 1.737174282227032407e+00
0.000000000000000000e+00 8.208640000000000337e-04 2.939346502458056731e-01
3.437500000000000278e-02 9.400820000000000010e-02 4.193931118856364826e+00
9.374999999999999653e-03 2.694460000000000084e-03 1.405458376150420241e-01
2.187499999999999861e-02 9.283909999999999385e-02 3.491016076866793494e+00
3.125000000000000173e-03 1.611580000000000044e-03 3.731684515649760669e+00
9.374999999999999653e-03 9.137320000000000164e-02 1.005193328493140914e+00
0.000000000000000000e+00 6.049280000000000195e-04 3.533471213097882924e+00
3.125000000000000173e-03 3.450749999999999824e-03 2.909524760135195898e-01
0.000000000000000000e+00 4.479939999999999964e-03 1.586347165004609483e+00
0.000000000000000000e+00 9.393280000000000162e-04 1.069876760926656845e+00
0.000000000000000000e+00 3.273579999999999784e-04 4.428273324089943230e+00
0.000000000000000000e+00 4.188640000000000202e-04 3.965157683201590899e+00
0.000000000000000000e+00 3.015299999999999838e-03 2.566749307956789572e+00
1.874999999999999931e-02 2.569280000000000175e-03 5.959079394448502098e-01
0.000000000000000000e+00 2.997060000000000175e-03 4.690664150583824465e+00
0.000000000000000000e+00 1.201220000000000022e-03 1.098792729203543761e+00
3.125000000000000173e-03 1.615550000000000102e-03 6.952403050914174321e-01
6.250000000000000347e-03 4.579629999999999812e-02 3.556774294304913653e+00
0.000000000000000000e+00 7.326919999999999570e-04 2.100063820370403622e+00
0.000000000000000000e+00 6.687870000000000273e-03 1.763611070534018666e+00
3.125000000000000173e-03 1.079169999999999990e-01 3.590450529254265888e+00
0.000000000000000000e+00 1.219199999999999928e-03 2.415772170337675551e+00
2.812500000000000069e-02 2.651580000000000169e-03 4.213787293234097397e+00
0.000000000000000000e+00 3.560869999999999942e-04 9.609909245598308170e-01
6.250000000000000347e-03 1.253860000000000044e-02 8.413499525272477575e-01
9.374999999999999653e-03 1.690179999999999894e-03 1.768303780938340619e-02
2.500000000000000139e-02 2.005310000000000165e-03 8.763068632716131123e-01
2.812500000000000069e-02 8.313600000000000850e-03 9.298587656509926802e-01
0.000000000000000000e+00 2.687300000000000105e-03 2.361252786924820768e+00
0.000000000000000000e+00 2.185980000000000128e-03 4.524940596685222083e+00
0.000000000000000000e+00 2.130369999999999920e-03 2.412534193739772181e+00
6.250000000000000347e-03 2.907950000000000118e-02 2.617616761121417390e+00
2.187499999999999861e-02 4.131969999999999567e-03 3.495652065284753807e+00
3.125000000000000173e-03 3.628460000000000019e-02 4.235218606774484584e+00
2.500000000000000139e-02 2.968900000000000011e-03 3.658754775331077624e+00
3.125000000000000173e-03 9.707159999999999400e-02 2.069010698541146276e+00
1.250000000000000069e-02 1.762689999999999917e-03 2.744440560660593498e+00
1.562500000000000000e-02 1.508100000000000065e-03 4.100419851244412328e+00
0.000000000000000000e+00 1.153670000000000086e-03 1.674439744461547752e-01
9.374999999999999653e-03 1.722369999999999977e-03 3.847840356895901870e+00
2.500000000000000139e-02 2.552640000000000117e-03 3.213305354239724299e+00
2.187499999999999861e-02 9.346809999999999841e-02 1.893789112271342390e+00
2.187499999999999861e-02 1.777600000000000057e-03 8.166866472332195981e-01
0.000000000000000000e+00 1.707259999999999941e-03 1.834243246440152131e+00
0.000000000000000000e+00 3.820799999999999739e-04 2.392306460452971351e+00
0.000000000000000000e+00 8.426759999999999936e-04 2.512125342658615867e+00
0.000000000000000000e+00 9.805440000000000770e-04 1.401718484930178921e+00
1.874999999999999931e-02 6.021120000000000248e-04 4.071878413649877793e+00
3.125000000000000173e-03 3.321600000000000073e-03 3.430712329414109085e+00
1.562500000000000000e-02 3.309949999999999871e-03 1.409127851246358532e+00
6.250000000000000347e-03 5.140350000000000127e-03 3.378312649965357295e+00
9.374999999999999653e-03 6.849920000000000444e-04 1.952621806927679060e-03
0.000000000000000000e+00 1.143740000000000078e-03 1.652042055868576664e+00
0.000000000000000000e+00 2.158269999999999980e-02 7.626138364594281516e-01
0.000000000000000000e+00 2.298460000000000013e-05 2.697690788205824308e+00
0.000000000000000000e+00 8.511359999999999499e-04 3.483187620002009766e+00
1.874999999999999931e-02 2.431010000000000115e-02 4.746874781194202697e+00
0.000000000000000000e+00 2.607320000000000102e-04 3.992235181610569228e+00
2.500000000000000139e-02 2.646529999999999803e-03 3.473483282369997927e+00
0.000000000000000000e+00 9.357439999999999638e-04 1.062045635256275711e+00
0.000000000000000000e+00 1.100800000000000086e-03 4.728123597594099614e+00
9.374999999999999653e-03 7.683839999999999941e-04 2.213913192078492465e+00
3.125000000000000173e-03 4.066239999999999612e-03 4.710922456948274828e+00
0.000000000000000000e+00 3.497759999999999932e-03 2.557468312090405149e-01
0.000000000000000000e+00 1.445059999999999964e-03 2.891046314185381050e+00
0.000000000000000000e+00 6.459370000000000389e-02 4.774578688422648653e+00
0.000000000000000000e+00 3.021949999999999810e-03 3.220645077257763056e+00
0.000000000000000000e+00 4.163640000000000136e-04 3.254366865749948268e+00
0.000000000000000000e+00 1.146620000000000104e-03 2.570477605268697285e+00
2.812500000000000069e-02 1.749439999999999893e-03 1.014621699740412275e+00
0.000000000000000000e+00 2.992579999999999893e-03 1.659815602286510039e+00
3.125000000000000173e-03 2.310400000000000214e-03 4.218943802749360650e+00
0.000000000000000000e+00 8.290720000000000338e-04 7.445337389687950447e-01
2.500000000000000139e-02 3.127739999999999947e-03 4.469655890593330128e+00
0.000000000000000000e+00 1.088130000000000087e-03 5.308627166655593976e-01
1.562500000000000000e-02 2.092539999999999938e-03 2.945365852981308485e+00
0.000000000000000000e+00 2.165569999999999908e-03 4.420584912001940481e+00
1.562500000000000000e-02 3.605759999999999955e-03 1.279334182270858156e+00
2.187499999999999861e-02 9.551410000000000455e-02 9.318322297066111704e-01
3.125000000000000000e-02 9.234539999999999416e-02 1.791327516229474615e+00
6.250000000000000347e-03 7.964099999999999999e-03 3.819162291668404485e+00
0.000000000000000000e+00 6.313630000000000631e-02 4.123146577835343329e+00
0.000000000000000000e+00 1.965629999999999895e-03 3.765912737136871247e+00
0.000000000000000000e+00 1.421759999999999994e-03 1.316800266640807848e+00
2.812500000000000069e-02 4.709310000000000405e-03 9.494607503519397751e-01
0.000000000000000000e+00 1.184960000000000093e-03 3.096542360903630886e+00
3.125000000000000173e-03 2.579619999999999917e-03 2.573476608407798683e-01
2.500000000000000139e-02 2.457600000000000062e-02 2.401638120586522707e+00
0.000000000000000000e+00 1.115520000000000053e-03 3.417981990640327261e+00
0.000000000000000000e+00 2.503490000000000142e-03 4.491554316151694870e+00
0.000000000000000000e+00 1.125569999999999999e-03 3.578478723906861170e+00
0.000000000000000000e+00 1.351489999999999896e-03 4.698496366801848900e+00
2.187499999999999861e-02 2.489470000000000138e-03 1.489750373394270078e+00
0.000000000000000000e+00 1.920339999999999894e-02 4.081715579725643472e+00
0.000000000000000000e+00 1.507690000000000072e-02 4.123204150326519546e+00
0.000000000000000000e+00 5.257279999999999592e-03 3.463212935848793528e+00
0.000000000000000000e+00 3.118909999999999912e-03 4.671582162490909518e+00
1.562500000000000000e-02 2.527419999999999840e-03 4.517768762001976413e+00
0.000000000000000000e+00 1.061120000000000032e-03 1.925412667348991302e-01
6.250000000000000347e-03 9.848759999999999459e-02 3.129389280950320540e+00
0.000000000000000000e+00 9.172479999999999566e-04 3.334143937381943257e+00
0.000000000000000000e+00 1.036669999999999953e-03 4.727238463812608593e+00
0.000000000000000000e+00 1.540479999999999996e-04 6.791325711918172470e-01
0.000000000000000000e+00 1.019839999999999939e-03 4.815261654453767193e+00
2.187499999999999861e-02 1.957060000000000050e-03 1.541229409221328561e-01
2.500000000000000139e-02 2.430850000000000025e-03 2.964220936140985252e+00
0.000000000000000000e+00 4.319460000000000010e-04 4.571647508252896230e-01
0.000000000000000000e+00 3.586939999999999833e-03 1.298937368025058214e+00
3.125000000000000173e-03 2.317309999999999943e-03 3.755122413788404945e+00
6.250000000000000347e-03 1.081060000000000007e-02 3.704192763525560483e+00
0.000000000000000000e+00 8.307390000000000434e-04 3.857578665445111188e+00
0.000000000000000000e+00 6.604869999999999665e-04 2.244891606273009099e+00
1.562500000000000000e-02 2.458219999999999850e-02 2.693634190296013919e+00
1.874999999999999931e-02 3.090620000000000086e-03 3.771322309318275057e+00
0.000000000000000000e+00 1.112700000000000104e-03 2.724700751617374461e+00
0.000000000000000000e+00 1.336060000000000025e-03 2.050646803015132580e+00
6.250000000000000347e-03 1.731120000000000055e-03 9.138301508357560277e-01
2.187499999999999861e-02 3.057249999999999898e-02 4.735222690698540404e+00
0.000000000000000000e+00 4.124520000000000009e-04 6.618951825896102203e-01
0.000000000000000000e+00 4.602240000000000172e-04 3.868218066573538838e+00
3.125000000000000173e-03 4.171580000000000253e-03 8.799312330833214402e-01
0.000000000000000000e+00 8.715240000000000400e-04 1.356174184538172955e+00
2.187499999999999861e-02 1.410749999999999895e-03 3.806212833421558361e+00
0.000000000000000000e+00 7.295500000000000335e-04 3.660088555426584733e+00
0.000000000000000000e+00 9.795839999999999236e-04 2.969021128061205550e-01
0.000000000000000000e+00 9.437440000000000499e-04 1.727876281585345009e+00
3.125000000000000173e-03 3.639299999999999827e-03 2.273980115068672703e+00
0.000000000000000000e+00 1.097150000000000078e-03 1.113840375613043943e+00
0.000000000000000000e+00 9.697920000000000281e-04 1.943178930578717711e+00
3.125000000000000173e-03 1.602050000000000045e-03 1.598953176342694071e+00
0.000000000000000000e+00 1.871870000000000088e-03 4.344913440201346511e+00
6.250000000000000347e-03 5.358270000000000047e-03 4.297952711205168086e+00
0.000000000000000000e+00 1.490009999999999946e-02 2.810575161285655543e-01
6.250000000000000347e-03 2.639939999999999908e-03 4.053096970467253257e+00
0.000000000000000000e+00 2.559099999999999916e-03 1.240136132564451099e-01
3.125000000000000173e-03 1.927550000000000097e-03 3.869864355212065954e-01
0.000000000000000000e+00 6.584349999999999665e-04 1.698163461043610267e+00
1.562500000000000000e-02 1.662339999999999998e-03 3.253256419375809561e+00
0.000000000000000000e+00 1.082239999999999938e-03 2.513940657400066225e+00
0.000000000000000000e+00 4.270340000000000073e-03 2.589568544523940474e+00
5.312499999999999861e-02 9.171120000000000660e-02 4.786541113395343494e+00
1.874999999999999931e-02 4.736510000000000199e-03 3.135802755618555704e+00
9.374999999999999653e-03 5.525500000000000030e-03 2.335452878278355016e+00
2.500000000000000139e-02 8.175419999999999215e-03 1.321351110349129332e+00
0.000000000000000000e+00 5.588990000000000277e-03 3.969394179226088504e+00
6.250000000000000347e-03 4.339459999999999845e-03 3.867984835104344654e+00
6.250000000000000347e-03 1.006269999999999942e-01 2.231832562099582695e+00
2.812500000000000069e-02 1.074070000000000025e-01 1.661144311163766929e+00
0.000000000000000000e+00 1.128129999999999975e-03 3.921459131139265253e+00
0.000000000000000000e+00 5.381760000000000189e-04 2.518580725750365179e+00
2.187499999999999861e-02 4.606530000000000173e-03 2.606562170539117762e+00
1.874999999999999931e-02 2.063039999999999926e-03 1.035049064625037207e+00
3.125000000000000173e-03 9.535639999999999741e-03 9.861748166668127258e-02
0.000000000000000000e+00 4.113620000000000232e-04 2.509648221071349106e+00
1.250000000000000069e-02 4.206340000000000252e-03 7.190067569583608043e-01
3.437500000000000278e-02 8.004209999999999450e-03 3.383477101299594558e+00
3.125000000000000173e-03 1.055060000000000026e-01 2.507182552312218426e+00
0.000000000000000000e+00 0.000000000000000000e+00 8.707316845216744872e-01
3.125000000000000173e-03 3.720129999999999878e-03 8.461474130708734886e-01
2.187499999999999861e-02 1.071359999999999951e-01 4.693655832366539826e+00
3.125000000000000173e-03 4.301499999999999768e-03 1.133687162382089220e+00
0.000000000000000000e+00 1.560830000000000030e-03 3.020328227607922411e+00
0.000000000000000000e+00 4.248920000000000106e-04 6.458696075703768136e-01
3.125000000000000000e-02 2.864639999999999895e-03 1.889722098340002043e+00
0.000000000000000000e+00 3.268989999999999830e-03 4.162837295254911973e-01
3.125000000000000173e-03 7.569959999999999710e-03 2.181922172974888774e+00
3.125000000000000173e-03 5.051970000000000245e-03 1.678186304002479812e+00
3.125000000000000173e-03 1.431890000000000072e-02 1.675126110113722699e-01
1.250000000000000069e-02 2.429380000000000081e-03 4.536110952180276712e+00
0.000000000000000000e+00 3.887359999999999861e-04 3.665267492898782287e+00
2.187499999999999861e-02 2.446719999999999885e-03 4.228002530592076980e+00
0.000000000000000000e+00 3.864319999999999756e-04 4.683523665480745279e+00
3.125000000000000173e-03 4.466300000000000305e-03 2.535066256639860072e+00
0.000000000000000000e+00 1.152580000000000054e-03 1.472938357188313674e+00
3.125000000000000173e-03 4.620029999999999797e-03 3.039093705777433208e+00
9.374999999999999653e-03 1.031849999999999955e-02 6.191415018044837959e-01
0.000000000000000000e+00 1.285249999999999934e-03 2.432220734605173185e+00
9.374999999999999653e-03 1.385340000000000096e-03 1.589178843829263776e+00
0.000000000000000000e+00 3.301890000000000033e-03 4.734553245197239413e+00
0.000000000000000000e+00 1.053440000000000105e-03 2.144851974438827469e+00
0.000000000000000000e+00 7.300629999999999793e-04 5.843658277473356977e-01
2.187499999999999861e-02 4.871040000000000092e-03 9.415042315199889655e-01
0.000000000000000000e+00 1.504229999999999977e-02 3.593362060466186669e+00
0.000000000000000000e+00 6.122649999999999664e-04 4.620526672581538818e+00
0.000000000000000000e+00 1.374210000000000015e-02 7.060446134338937973e-01
3.437500000000000278e-02 9.390460000000000473e-02 3.749295575269825598e+00
6.562500000000000278e-02 9.218160000000000243e-02 4.710851310532379266e+00
1.874999999999999931e-02 1.958779999999999809e-03 1.613689369241809723e+00
0.000000000000000000e+00 1.019460000000000028e-03 8.578838815147205032e-02
1.874999999999999931e-02 9.229429999999999579e-02 3.954679441899376258e+00
0.000000000000000000e+00 2.324630000000000137e-05 2.592118543745189463e+00
2.187499999999999861e-02 2.132969999999999866e-01 3.888012413442540893e+00
1.874999999999999931e-02 1.803970000000000009e-03 4.310187567059243108e+00
0.000000000000000000e+00 9.825229999999999034e-04 1.232411114899150562e+00
6.250000000000000347e-03 9.553069999999999617e-02 2.436495224422856154e+00
0.000000000000000000e+00 7.205729999999999601e-04 4.984085716054052817e+00
0.000000000000000000e+00 7.330769999999999474e-04 2.419970742124153418e+00
2.812500000000000069e-02 3.594250000000000222e-02 3.937906140194539883e+00
0.000000000000000000e+00 7.576370000000000240e-04 5.392090444361857804e-01
0.000000000000000000e+00 9.075840000000000166e-04 3.836555410017212342e+00
0.000000000000000000e+00 2.271689999999999929e-05 4.754623652103688869e+00
3.125000000000000173e-03 3.348929999999999962e-03 7.163004111560633547e-01
0.000000000000000000e+00 1.651260000000000098e-03 1.124299006669206680e+00
0.000000000000000000e+00 9.284080000000000110e-03 3.304308526305917315e+00
0.000000000000000000e+00 1.121660000000000018e-03 8.479262607581383726e-01
1.562500000000000000e-02 2.765759999999999920e-03 3.759455200276707210e+00
0.000000000000000000e+00 2.895550000000000207e-03 3.816384157741703476e+00
1.874999999999999931e-02 2.250369999999999801e-03 4.272359521910401803e+00
0.000000000000000000e+00 3.183169999999999923e-03 4.678493595368084179e+00
0.000000000000000000e+00 3.690389999999999881e-04 3.266405345856959741e+00
0.000000000000000000e+00 1.154939999999999916e-03 1.419888147735559603e-01
0.000000000000000000e+00 3.557020000000000039e-04 3.260936517880611341e+00
3.125000000000000173e-03 2.562050000000000178e-03 4.692934755963730886e+00
2.500000000000000139e-02 2.661950000000000167e-03 6.334663614545893440e-01
1.250000000000000069e-02 1.372739999999999898e-03 8.265268457846830508e-01
6.250000000000000347e-03 7.592340000000000373e-03 2.004138264304660577e+00
4.062500000000000139e-02 9.168779999999999986e-02 3.443032373744755681e+00
9.374999999999999653e-03 8.956269999999999509e-02 4.057137389236909364e+00
0.000000000000000000e+00 1.598269999999999899e-02 3.842556618433116356e+00
0.000000000000000000e+00 6.674579999999999402e-02 2.366495435925489055e+00
2.500000000000000139e-02 9.381440000000000612e-02 3.699528327707313213e-02
0.000000000000000000e+00 4.190719999999999884e-04 1.128792532030802320e+00
0.000000000000000000e+00 2.277519999999999838e-05 1.836240553795797092e+00
3.125000000000000173e-03 2.760700000000000046e-03 1.564637898281382000e+00
6.250000000000000347e-03 3.808600000000000180e-02 4.755593158104810314e+00
0.000000000000000000e+00 4.827900000000000420e-03 1.216369930923024700e+00
1.874999999999999931e-02 1.728640000000000038e-03 1.239505487791885852e+00
9.374999999999999653e-03 9.722189999999999999e-02 2.916754995804824446e+00
1.250000000000000069e-02 3.020800000000000134e-03 2.803148844547429963e+00
0.000000000000000000e+00 7.073280000000000149e-04 4.054221118926133016e+00
3.125000000000000173e-03 1.838410000000000044e-02 3.019314776805665623e+00
1.250000000000000069e-02 1.834179999999999925e-03 2.381113238133197640e+00
0.000000000000000000e+00 5.821910000000000236e-04 4.825943953184833823e+00
1.562500000000000000e-02 1.837950000000000087e-03 6.476529121116997301e-01
6.250000000000000347e-03 9.481449999999999600e-02 4.318983169354321028e+00
0.000000000000000000e+00 1.067840000000000022e-03 1.752414540304989110e+00
0.000000000000000000e+00 1.172300000000000078e-02 1.634804604466248978e+00
0.000000000000000000e+00 1.561600000000000011e-03 8.122671562937494594e-01
0.000000000000000000e+00 3.769269999999999912e-04 1.061637376584845249e-01
3.125000000000000173e-03 4.462909999999999620e-03 2.980848389662961395e+00
0.000000000000000000e+00 1.168189999999999940e-03 1.831957192830949044e+00
9.374999999999999653e-03 1.876569999999999974e-02 9.329905626362566817e-01
0.000000000000000000e+00 5.049199999999999565e-04 2.867810503263656940e+00
0.000000000000000000e+00 3.779200000000000137e-04 1.727235284899377277e+00
0.000000000000000000e+00 0.000000000000000000e+00 3.762769300226042724e+00
3.125000000000000173e-03 2.838980000000000063e-03 4.706551102611908455e+00
0.000000000000000000e+00 7.319870000000000239e-04 7.756733688615025102e-01
0.000000000000000000e+00 3.982979999999999680e-03 9.221977769418882032e-01
1.250000000000000069e-02 1.515260000000000044e-03 5.695862446926219791e-01
0.000000000000000000e+00 5.370239999999999866e-04 2.140096968028502467e+00
0.000000000000000000e+00 3.071679999999999810e-03 4.961387313538463850e+00
0.000000000000000000e+00 1.116290000000000034e-03 2.857379951469250834e+00
0.000000000000000000e+00 9.259519999999999600e-04 3.679378751451294782e+00
1.874999999999999931e-02 2.454340000000000167e-03 2.162206643152516428e+00
0.000000000000000000e+00 3.837439999999999905e-04 3.698365292767508805e+00
0.000000000000000000e+00 2.859520000000000161e-04 3.010756193109864753e-02
0.000000000000000000e+00 8.403199999999999776e-04 2.225876973574603568e+00
0.000000000000000000e+00 1.477099999999999941e-02 2.742331243414272812e+00
3.125000000000000173e-03 1.843390000000000089e-03 3.720418575822776575e+00
0.000000000000000000e+00 2.503429999999999891e-02 7.886418748281620594e-01
0.000000000000000000e+00 6.199680000000000381e-04 4.728156070024448709e+00
0.000000000000000000e+00 1.702460000000000041e-03 2.492083790843795832e+00
6.250000000000000347e-03 4.811580000000000197e-03 3.357228715507084793e+00
3.125000000000000173e-03 3.712449999999999951e-03 2.514663839695205905e+00
0.000000000000000000e+00 9.434880000000000306e-04 1.813323626177576475e-01
3.125000000000000173e-03 4.471179999999999946e-03 1.670838065032029363e+00
1.250000000000000069e-02 9.988189999999999569e-02 2.700942853503660146e+00
3.125000000000000173e-03 1.172070000000000056e-02 1.255614216497868973e-01
0.000000000000000000e+00 6.020700000000000140e-04 4.803458182558205003e+00
0.000000000000000000e+00 3.475589999999999973e-04 6.569985835414143827e-01
3.125000000000000173e-03 7.861280000000000004e-03 8.964941786217450748e-01
6.250000000000000347e-03 4.663229999999999979e-03 1.922794129563032417e-02
0.000000000000000000e+00 2.146939999999999960e-03 3.111241373768126373e+00
3.125000000000000173e-03 4.895809999999999572e-03 1.317914321468815597e+00
3.125000000000000173e-03 4.466050000000000055e-03 1.029279169092973678e+00
0.000000000000000000e+00 9.160320000000000008e-04 1.409787438195462261e+00
3.125000000000000173e-03 9.335090000000000054e-02 4.986184910591772379e+00
0.000000000000000000e+00 7.693720000000000463e-04 4.865125465498372215e+00
1.874999999999999931e-02 2.728379999999999868e-03 1.544032517006764804e+00
4.374999999999999722e-02 9.171060000000000323e-02 2.715947744442083867e+00
0.000000000000000000e+00 4.298940000000000010e-04 1.812184764448576679e-01
0.000000000000000000e+00 7.251259999999999824e-04 1.874853303816753636e+00
0.000000000000000000e+00 3.549329999999999846e-04 1.247065287944153056e+00
1.250000000000000069e-02 2.043709999999999798e-03 1.036873847773997603e+00
0.000000000000000000e+00 9.375730000000000305e-04 1.612614516988947200e-01
0.000000000000000000e+00 6.778800000000000103e-02 8.004295958854279469e-01
0.000000000000000000e+00 1.608959999999999991e-04 4.952026503832776427e+00
6.250000000000000347e-03 2.900859999999999897e-03 4.929052575506389644e+00
0.000000000000000000e+00 1.810750000000000077e-03 1.209751261496999630e-01
0.000000000000000000e+00 1.153090000000000061e-03 5.470766448934960557e-02
0.000000000000000000e+00 5.070359999999999884e-04 2.383051602597976881e+00
3.125000000000000173e-03 2.080770000000000015e-03 3.930278880271256270e+00
2.500000000000000139e-02 4.363460000000000429e-03 2.850054371308890389e+00
0.000000000000000000e+00 1.195899999999999958e-03 2.035463433756055096e+00
0.000000000000000000e+00 7.114880000000000293e-04 6.926494740856936616e-02
6.250000000000000347e-03 3.205570000000000034e-03 2.834472851775911462e+00
3.125000000000000173e-03 4.540480000000000384e-03 4.392865285614624860e+00
3.125000000000000173e-03 1.718209999999999963e-03 2.260565107408526231e+00
0.000000000000000000e+00 7.195469999999999601e-04 1.377678773375569765e+00
0.000000000000000000e+00 6.429810000000000430e-04 4.163957006057789734e+00
9.374999999999999653e-03 1.837890000000000010e-03 2.832578809515597928e+00
1.562500000000000000e-02 3.258560000000000189e-03 2.841594546291645429e+00
0.000000000000000000e+00 4.067200000000000090e-04 4.138424590671833769e+00
0.000000000000000000e+00 1.218939999999999954e-03 4.642090654157473573e+00
0.000000000000000000e+00 1.037930000000000059e-03 4.024462267116428293e+00
1.250000000000000069e-02 9.058850000000000235e-02 1.927122610809880454e+00
2.187499999999999861e-02 2.282689999999999979e-03 4.895072987938282161e+00
0.000000000000000000e+00 5.455810000000000173e-03 2.075194669511057466e+00
0.000000000000000000e+00 1.007920000000000040e-03 3.724995916228941883e+00
0.000000000000000000e+00 7.261509999999999666e-04 4.255261506909351787e+00
3.125000000000000173e-03 3.252670000000000040e-03 1.722206487520316465e+00
0.000000000000000000e+00 5.624960000000000029e-04 7.310066664716796669e-01
2.500000000000000139e-02 3.316540000000000200e-03 3.341764245648287890e+00
3.125000000000000173e-03 1.911359999999999969e-03 2.050580961207531416e+00
0.000000000000000000e+00 1.010480000000000015e-03 2.484217594518908889e+00
6.250000000000000347e-03 1.058899999999999980e-01 4.564581556414581520e+00
1.562500000000000000e-02 3.862229999999999830e-02 1.178103898256060322e+00
0.000000000000000000e+00 4.043970000000000030e-03 8.630554163120290889e-01
1.874999999999999931e-02 2.319140000000000090e-02 2.364893343580896090e+00
