1.062499999999999972e-01 9.300630000000000008e-02 1.037526658994461393e+00
1.874999999999999931e-02 2.535359999999999957e-03 4.611613725506355621e+00
0.000000000000000000e+00 2.294940000000000088e-05 4.451592336476744904e+00
0.000000000000000000e+00 1.202820000000000061e-03 2.156724104305298262e+00
0.000000000000000000e+00 4.248920000000000106e-04 3.783770411411794932e+00
0.000000000000000000e+00 5.116990000000000080e-03 2.716617408375527454e+00
0.000000000000000000e+00 1.587199999999999982e-04 1.862305609948842200e+00
0.000000000000000000e+00 6.592899999999999629e-03 3.486759425455700168e+00
0.000000000000000000e+00 2.628290000000000140e-03 4.393890818559812672e+00
0.000000000000000000e+00 2.322320000000000154e-05 4.501718886550135856e+00
0.000000000000000000e+00 3.679190000000000238e-02 5.401148620692347579e-01
0.000000000000000000e+00 1.515980000000000105e-03 3.816223319407381354e+00
3.125000000000000173e-03 1.894269999999999982e-03 1.374333178235349173e+00
6.250000000000000347e-03 2.080770000000000015e-03 2.669124615369532272e+00
1.562500000000000000e-02 1.197480000000000072e-02 9.027945213822269332e-01
5.000000000000000278e-02 9.446589999999999501e-03 3.385915109943464785e+00
0.000000000000000000e+00 1.362719999999999990e-03 7.871730271633514686e-02
3.125000000000000173e-03 1.812419999999999917e-03 1.133542754037406119e+00
0.000000000000000000e+00 1.811780000000000031e-03 3.974844612861263560e+00
0.000000000000000000e+00 5.284780000000000033e-02 3.130591000776430377e+00
0.000000000000000000e+00 7.342310000000000112e-04 4.397480078593549280e+00
1.562500000000000000e-02 4.569089999999999610e-03 3.706492477651570194e+00
0.000000000000000000e+00 5.105459999999999859e-02 3.538918308777239119e+00
0.000000000000000000e+00 6.781239999999999490e-02 2.562737155731475092e+00
3.125000000000000173e-03 9.896699999999999595e-03 3.494670944151998082e+00
2.187499999999999861e-02 2.006079999999999929e-03 1.917837137410040693e+00
3.125000000000000173e-03 4.763520000000000254e-03 1.073436123683245036e+00
2.187499999999999861e-02 2.443840000000000075e-03 4.243557519027019609e+00
0.000000000000000000e+00 3.991679999999999838e-04 1.708729205577330656e-01
9.374999999999999653e-03 2.134909999999999846e-03 3.363687460434331200e+00
1.562500000000000000e-02 3.236429999999999862e-02 6.087943835701398188e-01
0.000000000000000000e+00 4.757429999999999884e-04 2.339147167922130954e+00
1.874999999999999931e-02 1.654400000000000098e-03 5.359524193380516000e-01
0.000000000000000000e+00 5.424639999999999887e-04 1.889823721754597230e+00
2.500000000000000139e-02 2.784000000000000016e-03 3.756457093513457135e+00
3.437500000000000278e-02 9.491280000000000550e-02 3.308373191686619919e+00
2.187499999999999861e-02 1.956740000000000215e-03 1.748919683251031199e+00
3.125000000000000173e-03 1.887489999999999914e-03 1.148827324165295316e+00
0.000000000000000000e+00 3.359299999999999960e-03 3.426851675121709739e+00
0.000000000000000000e+00 9.134720000000000253e-04 1.656324899630509773e+00
3.437500000000000278e-02 1.084780000000000050e-01 1.316279593842429207e+00
0.000000000000000000e+00 1.433019999999999910e-03 1.652345035963535658e+00
0.000000000000000000e+00 1.625979999999999960e-03 1.199270265051139539e+00
0.000000000000000000e+00 4.165560000000000009e-04 4.847865286991968503e+00
2.187499999999999861e-02 9.301109999999999933e-02 2.857279408932833054e+00
9.374999999999999653e-03 1.059019999999999961e-01 2.747548081303067935e+00
0.000000000000000000e+00 6.947299999999999569e-04 3.779247187232952943e+00
0.000000000000000000e+00 2.305570000000000018e-05 1.393796155071491238e+00
1.562500000000000000e-02 2.861569999999999912e-03 3.350919950789319035e+00
0.000000000000000000e+00 1.040810000000000086e-03 4.646602348348216616e-01
9.374999999999999653e-03 3.965980000000000200e-02 3.520944059985876784e+00
3.437500000000000278e-02 9.609059999999999824e-02 1.291121443612380792e-01
1.874999999999999931e-02 9.664019999999999555e-02 3.510563355229226801e+00
0.000000000000000000e+00 3.611520000000000008e-04 1.966900995101888983e-01
3.125000000000000173e-03 2.080770000000000015e-03 2.594962912228229168e+00
3.125000000000000173e-03 1.045519999999999956e-02 4.905373453437016806e+00
0.000000000000000000e+00 0.000000000000000000e+00 2.959648303098876276e+00
1.562500000000000000e-02 1.859650000000000018e-03 5.988575348580993385e-01
3.125000000000000173e-03 4.646720000000000017e-03 4.498078440141528134e+00
1.874999999999999931e-02 2.997819999999999999e-03 1.397749879697685049e-01
0.000000000000000000e+00 4.015219999999999900e-02 1.066229579575260100e+00
0.000000000000000000e+00 1.809980000000000096e-03 2.951694265141901585e+00
0.000000000000000000e+00 3.109160000000000135e-03 2.151055606560632327e+00
2.187499999999999861e-02 4.482619999999999660e-03 3.664447451187516247e+00
3.125000000000000173e-03 4.786180000000000122e-03 2.391965588454767477e+00
1.562500000000000000e-02 3.004539999999999988e-03 3.258674854802093179e+00
1.874999999999999931e-02 3.251200000000000097e-03 2.237554428597829936e+00
2.500000000000000139e-02 2.255940000000000115e-03 2.780923731523571973e+00
0.000000000000000000e+00 9.756800000000000368e-04 3.337294590556150187e-01
3.125000000000000173e-03 4.585920000000000274e-03 8.748029605130874797e-01
4.374999999999999722e-02 1.070770000000000055e-01 3.240799690003544953e+00
0.000000000000000000e+00 1.381059999999999927e-03 1.953120053776630227e+00
1.562500000000000000e-02 1.894719999999999911e-03 2.992254665866442842e+00
0.000000000000000000e+00 6.220800000000000071e-04 1.197493642192025698e+00
0.000000000000000000e+00 3.221569999999999989e-03 5.529950469782646261e-01
0.000000000000000000e+00 1.089150000000000101e-03 2.704181258526981324e+00
0.000000000000000000e+00 0.000000000000000000e+00 2.702293916374837401e+00
1.031249999999999944e-01 5.958809999999999801e-02 1.726563801409263910e+00
0.000000000000000000e+00 1.871999999999999966e-04 4.769903211601040915e+00
9.374999999999999653e-03 7.306879999999999539e-04 4.359129723317261451e+00
6.250000000000000347e-03 1.500419999999999922e-03 3.737971716414784318e+00
1.562500000000000000e-02 1.521280000000000071e-03 2.111469894866990327e+00
3.125000000000000173e-03 1.638399999999999926e-03 4.982430410377791219e+00
5.000000000000000278e-02 9.136969999999999814e-02 4.744520321471508595e+00
0.000000000000000000e+00 0.000000000000000000e+00 3.472461764582068788e+00
3.437500000000000278e-02 1.067980000000000040e-01 4.116033825644672461e+00
0.000000000000000000e+00 0.000000000000000000e+00 3.283717129881829955e+00
0.000000000000000000e+00 2.199229999999999935e-03 4.845430500903145976e+00
2.500000000000000139e-02 6.210740000000000011e-02 1.432215168711086672e+00
0.000000000000000000e+00 7.609599999999999784e-04 3.020998532535135173e+00
0.000000000000000000e+00 1.097600000000000008e-03 2.274549639858400418e+00
3.125000000000000173e-03 2.080770000000000015e-03 4.017572630507801001e+00
7.187499999999999445e-02 9.503040000000000098e-02 2.575326162920359430e+00
3.125000000000000000e-02 9.198090000000000432e-02 5.111388143307682430e-01
0.000000000000000000e+00 1.615359999999999930e-03 1.063520957421565383e-01
0.000000000000000000e+00 1.731969999999999994e-03 1.426860483951751135e+00
0.000000000000000000e+00 1.927049999999999944e-02 2.555935202434113762e+00
2.187499999999999861e-02 1.901439999999999901e-03 3.864506718300709132e+00
0.000000000000000000e+00 1.402559999999999961e-03 4.237790656392281363e+00
0.000000000000000000e+00 6.787509999999999377e-02 2.305546052789691380e+00
3.125000000000000173e-03 1.915070000000000053e-03 3.192076231986484380e+00
3.437500000000000278e-02 9.148050000000000626e-02 4.378837983493834685e+00
4.687500000000000000e-02 9.117719999999999991e-02 1.232616500589587716e+00
3.125000000000000173e-03 4.690500000000000225e-03 1.636763990271896230e+00
1.250000000000000069e-02 1.765819999999999976e-03 8.235303503389912461e-02
9.374999999999999653e-03 8.640510000000000551e-03 4.932640241364584455e+00
2.187499999999999861e-02 9.600829999999999434e-03 2.697536249268091435e+00
0.000000000000000000e+00 1.005480000000000002e-03 4.127233486571315169e+00
0.000000000000000000e+00 5.847940000000000256e-03 1.840476826304470848e+00
0.000000000000000000e+00 5.620609999999999842e-04 3.924832493989831583e+00
0.000000000000000000e+00 6.458879999999999526e-04 1.781626468527487406e+00
0.000000000000000000e+00 9.978879999999999435e-04 4.719490703107656948e+00
2.187499999999999861e-02 3.932900000000000285e-02 6.120748662264696716e-02
0.000000000000000000e+00 9.892480000000000804e-04 4.985268095676954836e+00
0.000000000000000000e+00 1.020290000000000086e-03 1.377059832208747947e+00
3.125000000000000173e-03 1.906820000000000043e-03 2.004491099605447246e+00
0.000000000000000000e+00 3.759650000000000231e-04 5.180335994037943426e-02
0.000000000000000000e+00 4.561209999999999787e-04 1.656585077657147131e+00
1.562500000000000000e-02 2.437570000000000014e-03 4.971450564919813964e+00
0.000000000000000000e+00 5.487820000000000458e-04 3.111355659567179188e+00
1.562500000000000000e-02 2.080770000000000015e-03 1.005577330835607963e+00
4.687500000000000000e-02 7.987390000000000462e-03 3.039163370356799732e+00
3.125000000000000173e-03 2.080770000000000015e-03 3.978405497357248688e+00
0.000000000000000000e+00 4.156580000000000105e-04 3.959250593275243091e+00
0.000000000000000000e+00 2.079419999999999793e-03 9.121189365309367858e-01
0.000000000000000000e+00 2.448039999999999852e-03 2.253581825942134298e+00
3.125000000000000173e-03 2.753020000000000120e-03 6.544478981874068957e-01
3.125000000000000173e-03 4.743550000000000023e-03 2.024568447997105558e+00
0.000000000000000000e+00 1.085060000000000104e-03 3.931125284624391369e+00
0.000000000000000000e+00 1.140219999999999949e-03 9.555457154660162988e-02
0.000000000000000000e+00 1.274229999999999894e-03 2.284967522904155501e+00
0.000000000000000000e+00 9.611519999999999482e-04 3.871985492579238519e-01
1.562500000000000000e-02 1.930370000000000046e-03 1.632543469992591589e+00
0.000000000000000000e+00 1.350779999999999993e-03 1.294141194844939502e+00
1.250000000000000069e-02 9.651210000000000344e-02 2.356339141934111758e+00
6.250000000000000347e-03 1.818689999999999977e-03 4.944401643861240814e+00
0.000000000000000000e+00 7.448959999999999913e-04 2.983604382678020084e+00
0.000000000000000000e+00 1.026240000000000095e-03 1.469204455271417853e+00
3.125000000000000000e-02 9.127949999999999953e-02 1.730438232195428139e+00
0.000000000000000000e+00 2.269450000000000099e-05 3.283843920034199559e+00
0.000000000000000000e+00 1.072910000000000010e-02 4.011433461587985860e+00
1.250000000000000069e-02 1.548220000000000108e-03 7.643415685733612186e-01
0.000000000000000000e+00 1.640959999999999956e-04 3.328816279829614366e+00
9.374999999999999653e-03 1.671549999999999946e-03 2.528369118971058427e+00
0.000000000000000000e+00 9.726719999999999464e-04 1.621910284745768926e+00
2.187499999999999861e-02 4.608130000000000212e-03 6.411653334325528864e-01
0.000000000000000000e+00 6.647200000000000461e-04 1.073205682696503072e+00
0.000000000000000000e+00 4.247640000000000009e-04 2.730887972169337097e+00
3.125000000000000173e-03 1.283740000000000055e-02 1.899958443886690773e+00
0.000000000000000000e+00 9.861119999999999261e-04 4.673062397169821303e+00
9.374999999999999653e-03 1.571069999999999932e-03 2.511950189832876212e+00
0.000000000000000000e+00 1.177469999999999906e-03 1.851459461751514990e+00
0.000000000000000000e+00 3.934720000000000166e-04 3.606493456653458995e-01
0.000000000000000000e+00 3.976960000000000087e-04 1.599733614318905150e+00
0.000000000000000000e+00 3.095679999999999743e-04 1.957561684921935274e+00
3.125000000000000173e-03 1.818940000000000010e-03 3.572849796271717615e+00
0.000000000000000000e+00 3.003329999999999889e-02 4.774209725588768549e+00
3.125000000000000173e-03 9.913339999999999652e-03 1.651740926166104906e+00
0.000000000000000000e+00 4.234169999999999883e-04 3.677968316708749796e+00
3.125000000000000173e-03 2.564289999999999885e-03 3.000355989069912965e+00
0.000000000000000000e+00 2.776319999999999873e-04 6.608379196633096253e-02
1.874999999999999931e-02 2.127850000000000019e-01 2.526933792200177109e+00
0.000000000000000000e+00 5.054780000000000037e-03 7.163498883016522489e-01
0.000000000000000000e+00 2.268149999999999959e-05 8.774322410691504093e-01
0.000000000000000000e+00 4.046079999999999859e-04 6.660198185033383567e-03
0.000000000000000000e+00 5.425280000000000206e-04 3.368053719768229204e+00
2.812500000000000069e-02 1.062390000000000001e-01 2.050757097046393529e+00
0.000000000000000000e+00 1.183550000000000053e-02 2.687818155161197708e+00
2.187499999999999861e-02 3.375490000000000088e-03 4.805514986423509605e+00
0.000000000000000000e+00 3.789789999999999912e-04 2.554678712228775517e+00
3.125000000000000173e-03 4.415620000000000309e-03 9.966833110472256285e-01
6.250000000000000347e-03 3.618769999999999886e-03 1.880435627781745112e+00
2.187499999999999861e-02 2.001150000000000151e-03 2.185258165559844201e+00
4.062500000000000139e-02 8.942270000000000427e-03 2.561338030303119684e+00
0.000000000000000000e+00 1.489279999999999944e-04 2.891475935685531962e+00
3.125000000000000173e-03 4.648320000000000056e-03 4.851315947151545238e+00
0.000000000000000000e+00 1.111680000000000090e-03 1.539757527547130911e-01
0.000000000000000000e+00 6.760060000000000461e-04 4.548850775757607323e+00
0.000000000000000000e+00 3.764459999999999855e-03 2.415893245246301557e+00
1.250000000000000069e-02 2.891069999999999925e-03 2.186251481458056034e+00
0.000000000000000000e+00 5.527039999999999991e-04 5.858764506797031757e-01
6.250000000000000347e-03 1.999869999999999946e-03 1.917517016461313784e+00
0.000000000000000000e+00 1.986559999999999899e-04 5.812522204700704131e-01
0.000000000000000000e+00 3.831039999999999966e-04 1.843677991450708431e+00
0.000000000000000000e+00 7.301270000000000112e-04 3.286225671946844784e+00
1.874999999999999931e-02 3.727170000000000136e-03 1.067261489964418386e+00
3.125000000000000173e-03 1.873859999999999979e-03 2.273494741533494512e+00
0.000000000000000000e+00 5.362500000000000079e-03 1.339612812367583672e+00
0.000000000000000000e+00 4.159149999999999913e-04 4.214613042064952353e+00
6.250000000000000347e-03 1.051419999999999959e-02 2.028720575230326340e+00
0.000000000000000000e+00 7.490560000000000057e-04 3.668858341255000877e+00
0.000000000000000000e+00 2.886400000000000012e-04 2.337643288019379817e+00
2.500000000000000139e-02 2.917050000000000025e-03 2.357282268698960515e+00
0.000000000000000000e+00 2.105730000000000102e-03 8.181416043071154665e-01
3.125000000000000000e-02 3.069019999999999995e-03 1.169707416757607810e+00
0.000000000000000000e+00 7.665499999999999571e-04 4.997251521725798895e+00
0.000000000000000000e+00 1.555420000000000066e-02 1.246801264036507373e+00
6.250000000000000347e-03 2.555009999999999920e-03 3.881125616371841502e+00
0.000000000000000000e+00 1.668739999999999937e-03 4.831186194033941561e+00
0.000000000000000000e+00 2.568960000000000015e-04 2.421779230759926627e+00
0.000000000000000000e+00 1.631999999999999987e-03 1.690833467733587892e+00
9.375000000000000000e-02 9.273770000000000624e-02 4.619948075358602857e+00
4.062500000000000139e-02 4.047819999999999890e-02 1.308064932583733464e+00
0.000000000000000000e+00 1.586689999999999975e-03 2.122786343132341269e+00
2.812500000000000069e-02 9.032149999999999901e-02 1.714733109281574297e+00
0.000000000000000000e+00 8.955070000000000304e-04 1.774868792154438157e-02
0.000000000000000000e+00 6.520229999999999472e-04 4.156739965721260255e+00
0.000000000000000000e+00 3.066179999999999947e-03 4.717489171226675104e+00
3.125000000000000173e-03 4.395389999999999887e-03 4.328610434874646806e-02
0.000000000000000000e+00 1.001759999999999977e-03 6.247613663676704343e-01
1.562500000000000000e-02 2.040580000000000171e-03 1.635174862766942683e+00
0.000000000000000000e+00 1.513660000000000005e-03 1.951420456208367016e+00
1.874999999999999931e-02 1.246730000000000060e-02 2.234370494689768449e+00
2.500000000000000139e-02 2.493309999999999884e-03 3.973121957869017340e+00
3.125000000000000173e-03 6.509199999999999708e-03 1.842780324064787756e+00
3.125000000000000173e-03 4.409729999999999726e-03 9.467809460841891678e-01
0.000000000000000000e+00 7.493000000000000257e-05 1.047217584577849747e+00
0.000000000000000000e+00 4.111690000000000201e-04 3.957923695423033017e+00
0.000000000000000000e+00 1.211199999999999950e-03 9.192210981567644490e-01
0.000000000000000000e+00 1.134269999999999940e-03 3.084909893001111847e+00
2.187499999999999861e-02 2.245759999999999857e-03 9.730118170619184159e-01
0.000000000000000000e+00 3.390289999999999970e-02 1.704061318151500748e-01
3.125000000000000173e-03 5.248449999999999990e-03 1.421739273096902512e+00
0.000000000000000000e+00 1.069220000000000066e-03 7.314623022736749247e-01
0.000000000000000000e+00 4.978050000000000357e-03 3.705126640346241729e+00
0.000000000000000000e+00 9.256960000000000492e-04 7.647266576765937574e-01
0.000000000000000000e+00 4.360319999999999886e-04 2.890729170875556253e+00
6.250000000000000347e-03 9.777289999999999592e-02 1.160506592202820153e+00
1.250000000000000069e-02 1.218560000000000042e-03 2.861810714129559674e+00
0.000000000000000000e+00 4.242510000000000009e-04 3.393754444776035051e+00
3.125000000000000173e-03 4.744720000000000187e-02 4.089386012439551799e+00
1.562500000000000000e-02 2.215099999999999795e-03 1.713702477704980298e+00
0.000000000000000000e+00 1.080959999999999950e-03 4.734637022250160143e+00
0.000000000000000000e+00 3.406080000000000023e-04 2.694555882701776817e+00
0.000000000000000000e+00 5.454399999999999873e-03 2.894021933003645408e+00
2.500000000000000139e-02 9.475949999999999651e-02 4.411769742706177944e+00
1.250000000000000069e-02 1.020969999999999933e-01 3.549895342502438655e+00
3.125000000000000173e-03 2.080770000000000015e-03 9.690940964366823174e-01
3.125000000000000173e-03 4.761239999999999917e-02 5.192428181137470622e-01
0.000000000000000000e+00 1.386819999999999980e-03 2.374570803401865327e+00
0.000000000000000000e+00 1.989930000000000171e-02 4.648734578470543610e+00
6.250000000000000347e-03 1.070019999999999999e-01 3.744373004894088197e+00
6.250000000000000347e-03 1.203260000000000050e-03 2.805169748385634598e+00
2.187499999999999861e-02 2.117739999999999900e-01 4.612158448068729655e+00
0.000000000000000000e+00 9.024319999999999955e-04 2.690683077896266262e+00
3.125000000000000173e-03 4.582400000000000362e-03 1.820172757919453321e+00
0.000000000000000000e+00 1.299600000000000061e-02 2.524997494753440375e+00
0.000000000000000000e+00 3.927040000000000131e-04 1.156640924196640219e+00
2.500000000000000139e-02 1.666240000000000039e-03 4.127672230722852831e+00
3.125000000000000173e-03 1.719470000000000026e-02 2.633425455946252214e+00
9.374999999999999653e-03 2.341760000000000022e-03 2.844595169384179112e+00
6.250000000000000347e-03 1.026340000000000065e-02 2.109951011971364476e+00
0.000000000000000000e+00 7.989120000000000379e-04 2.440960363156158275e-01
0.000000000000000000e+00 0.000000000000000000e+00 1.823236352484658873e+00
2.500000000000000139e-02 2.389249999999999881e-03 2.896345376760216528e+00
0.000000000000000000e+00 9.977709999999999357e-02 2.274707400521000622e+00
0.000000000000000000e+00 9.169889999999999985e-04 5.391878770429109347e-01
3.125000000000000173e-03 2.031040000000000015e-03 2.834791132663433411e-01
6.250000000000000347e-03 1.062779999999999975e-02 1.289463671317568227e+00
0.000000000000000000e+00 9.534720000000000218e-04 2.188358812620023741e+00
1.562500000000000000e-02 2.182659999999999895e-03 4.650386432840443618e+00
1.562500000000000000e-02 2.809209999999999832e-02 2.238257274771781269e+00
0.000000000000000000e+00 3.037180000000000001e-03 3.360007248607545627e+00
0.000000000000000000e+00 1.177629999999999996e-02 2.074498593997573082e+00
0.000000000000000000e+00 1.105340000000000012e-03 3.807788176183730222e+00
0.000000000000000000e+00 9.541120000000000156e-04 2.259924844006676814e+00
1.562500000000000000e-02 3.331390000000000046e-03 4.658185400636959628e+00
0.000000000000000000e+00 3.172480000000000092e-04 1.403526321091267404e+00
0.000000000000000000e+00 9.365760000000000534e-04 4.669351062114876605e+00
0.000000000000000000e+00 1.708029999999999922e-03 3.987499691228697074e+00
0.000000000000000000e+00 1.020990000000000049e-03 1.581204094992838538e+00
2.500000000000000139e-02 3.302080000000000206e-03 1.166377606299512371e+00
1.562500000000000000e-02 2.931580000000000037e-03 4.203964446839692393e+00
0.000000000000000000e+00 1.710340000000000081e-03 4.874438385430504894e+00
5.625000000000000139e-02 8.989499999999999227e-03 3.638354665470253657e+00
0.000000000000000000e+00 4.593910000000000203e-04 8.898897685473450281e-01
0.000000000000000000e+00 1.781759999999999963e-04 4.563558991226927652e+00
3.125000000000000173e-03 4.538689999999999738e-03 1.941050067561331804e+00
9.374999999999999653e-03 1.959680000000000102e-03 1.679085251997369799e-01
1.874999999999999931e-02 2.897279999999999908e-03 2.164948382529761073e+00
5.000000000000000278e-02 9.199530000000000207e-02 2.924848111631719316e+00
9.374999999999999653e-03 1.985279999999999857e-03 2.156820516700553192e+00
3.125000000000000173e-03 1.508349999999999969e-02 3.307291944764803038e+00
2.500000000000000139e-02 1.994370000000000084e-03 4.056861535565911225e+00
0.000000000000000000e+00 1.563579999999999961e-03 3.475625995381103728e+00
0.000000000000000000e+00 3.474560000000000018e-04 9.366574574816827203e-01
6.250000000000000347e-03 1.638399999999999926e-02 1.262370173792471295e+00
0.000000000000000000e+00 3.822720000000000154e-04 4.908134648062601357e+00
0.000000000000000000e+00 4.163640000000000136e-04 4.422699668211325985e+00
0.000000000000000000e+00 1.046459999999999925e-03 7.211531515273866821e-01
3.125000000000000173e-03 4.458560000000000301e-03 3.983808966107116323e-01
0.000000000000000000e+00 3.763840000000000068e-04 3.138450051536459284e+00
9.374999999999999653e-03 9.544500000000000206e-02 4.033710471448308965e+00
0.000000000000000000e+00 1.118850000000000009e-03 4.282728725089190114e+00
0.000000000000000000e+00 1.527459999999999929e-02 2.138158786668944433e+00
0.000000000000000000e+00 7.140319999999999697e-04 3.944062205132769172e+00
6.250000000000000347e-03 1.272899999999999986e-03 8.742852982279147867e-01
0.000000000000000000e+00 5.238910000000000268e-03 9.597253346176892741e-02
0.000000000000000000e+00 7.358980000000000209e-04 2.316423998856320665e+00
6.250000000000000347e-03 1.412990000000000079e-02 2.433620772356952955e+00
0.000000000000000000e+00 7.259589999999999793e-04 3.952747663887425489e+00
0.000000000000000000e+00 1.454659999999999981e-03 2.448656750750139111e+00
0.000000000000000000e+00 3.068160000000000115e-04 3.493857873010587589e+00
1.250000000000000069e-02 1.921090000000000081e-03 4.089663794843953148e+00
0.000000000000000000e+00 6.697600000000000385e-04 2.196086433817068695e+00
3.125000000000000173e-03 1.286039999999999926e-02 1.470618933666210104e+00
0.000000000000000000e+00 1.044929999999999904e-03 2.622846041593149824e+00
0.000000000000000000e+00 7.580799999999999518e-04 1.817157380216894325e+00
0.000000000000000000e+00 4.726140000000000202e-03 3.640921348914564870e+00
2.500000000000000139e-02 9.254700000000000426e-02 2.528080244757152428e+00
0.000000000000000000e+00 6.513099999999999445e-02 2.932093806220859022e-01
9.374999999999999653e-03 1.007429999999999992e-01 5.107158885424462058e-01
0.000000000000000000e+00 1.819139999999999906e-03 4.367731122127925580e+00
3.125000000000000173e-03 4.576639999999999875e-03 4.770668639523589771e-01
1.562500000000000000e-02 9.238520000000000065e-02 7.964763453684176042e-01
3.125000000000000173e-03 1.403839999999999949e-03 2.083534701836584180e+00
0.000000000000000000e+00 0.000000000000000000e+00 2.486406373187733720e+00
3.125000000000000173e-03 2.083230000000000151e-03 2.807278307487175883e+00
1.562500000000000000e-02 9.283039999999999348e-02 3.471813931461623426e+00
3.125000000000000173e-03 1.521219999999999994e-03 3.165925009578049121e+00
0.000000000000000000e+00 1.254909999999999923e-03 2.519167883139695974e+00
0.000000000000000000e+00 1.178620000000000015e-03 4.695599297690944418e-01
0.000000000000000000e+00 1.454020000000000095e-03 1.670010428295549687e+00
6.250000000000000347e-03 2.070750000000000091e-01 4.743712050287090420e+00
0.000000000000000000e+00 2.529279999999999745e-04 2.706304360764371530e+00
0.000000000000000000e+00 5.547450000000000428e-04 1.973419520290330409e+00
2.187499999999999861e-02 2.648510000000000187e-03 8.701313476224747934e-01
3.125000000000000173e-03 1.282939999999999992e-03 2.080777873507316134e+00
0.000000000000000000e+00 7.962239999999999986e-04 2.444010785426619314e+00
3.125000000000000173e-03 4.950210000000000027e-03 4.945936122456383366e+00
3.125000000000000173e-03 4.532610000000000285e-03 2.358752885929298326e+00
3.125000000000000173e-03 3.802880000000000019e-04 3.455241963252991821e-01
1.874999999999999931e-02 9.410010000000000596e-02 1.823456022396049425e+00
6.250000000000000347e-03 1.726499999999999953e-03 4.927899300110644143e-01
3.125000000000000173e-03 1.733820000000000066e-03 4.964649894227844307e+00
0.000000000000000000e+00 1.093570000000000089e-03 2.121287712612800025e+00
1.250000000000000069e-02 9.224250000000000504e-02 3.373734892551593756e+00
4.374999999999999722e-02 9.208030000000000381e-02 3.603126082925859563e+00
0.000000000000000000e+00 4.550169999999999909e-02 4.623901921660801051e+00
0.000000000000000000e+00 2.888200000000000142e-02 4.677502487448094826e+00
6.250000000000000347e-03 3.919490000000000300e-03 4.658205769779911520e+00
1.874999999999999931e-02 2.609789999999999853e-03 1.145953527225864743e+00
0.000000000000000000e+00 1.624189999999999965e-03 2.997179184014433062e+00
1.874999999999999931e-02 1.413649999999999976e-02 2.310696002857361986e+00
0.000000000000000000e+00 4.001279999999999746e-04 4.275725656237842287e+00
0.000000000000000000e+00 8.333039999999999892e-04 2.199822541839052015e+00
1.562500000000000000e-02 1.714180000000000044e-03 2.396610900488076901e+00
0.000000000000000000e+00 1.259329999999999911e-03 6.502470087889727912e-01
6.250000000000000347e-03 2.695100000000000186e-03 2.657732935243833916e-01
0.000000000000000000e+00 1.854530000000000067e-03 4.277935855676523458e-01
1.562500000000000000e-02 2.247620000000000087e-03 3.556517296494646985e+00
0.000000000000000000e+00 7.076829999999999666e-04 1.436115226995825500e+00
3.125000000000000173e-03 7.677810000000000190e-03 3.063591370368934363e-01
0.000000000000000000e+00 2.966399999999999788e-04 1.764190444879698560e+00
2.187499999999999861e-02 1.622659999999999944e-03 1.527438963548908735e+00
2.500000000000000139e-02 2.107139999999999968e-03 1.465546933876826774e+00
0.000000000000000000e+00 4.770900000000000011e-04 4.312526638846746252e+00
0.000000000000000000e+00 1.067199999999999920e-03 3.588394812349921636e+00
0.000000000000000000e+00 1.753219999999999995e-03 4.180589234818939737e+00
0.000000000000000000e+00 1.574019999999999976e-03 8.341213681793402390e-01
0.000000000000000000e+00 9.835519999999999506e-04 3.917192614895781411e-01
0.000000000000000000e+00 1.647550000000000013e-03 2.822706038126160166e+00
6.250000000000000347e-03 1.870020000000000016e-03 4.659383584262638545e-01
0.000000000000000000e+00 2.504960000000000086e-03 3.989569858281477366e+00
0.000000000000000000e+00 5.829760000000000237e-04 4.126854425112791880e+00
0.000000000000000000e+00 2.741899999999999893e-02 3.347984558825662926e+00
0.000000000000000000e+00 4.291240000000000202e-04 3.521767370578015477e+00
3.125000000000000173e-03 2.080770000000000015e-03 3.893097347319851576e-01
0.000000000000000000e+00 1.227070000000000027e-03 1.915629797441047444e+00
0.000000000000000000e+00 1.780240000000000086e-05 9.175805332007636039e-01
6.250000000000000347e-03 5.073280000000000324e-03 1.090571700282972234e+00
0.000000000000000000e+00 1.718400000000000081e-04 4.966502044854538944e+00
0.000000000000000000e+00 1.759359999999999906e-04 4.139587147312316695e+00
0.000000000000000000e+00 7.307680000000000209e-04 3.440642491334668485e+00
0.000000000000000000e+00 1.943169999999999923e-03 2.281680800300234235e+00
1.250000000000000069e-02 2.098430000000000087e-03 2.180967251822752750e+00
1.562500000000000000e-02 7.937259999999999802e-03 2.514968975579714883e+00
0.000000000000000000e+00 1.300289999999999953e-03 1.005957463660565043e+00
0.000000000000000000e+00 2.491519999999999889e-04 3.310162847559288579e+00
2.812500000000000069e-02 9.149749999999999550e-02 1.199055826572257732e+00
5.937499999999999722e-02 9.586880000000000748e-03 2.770437658379249601e+00
3.125000000000000173e-03 2.453120000000000040e-03 2.105062471931029133e+00
1.562500000000000000e-02 9.782040000000000179e-02 2.262661065409305561e+00
9.374999999999999653e-03 1.063850000000000039e-02 4.568717071853824585e+00
2.500000000000000139e-02 3.219070000000000091e-03 1.283184111796480398e+00
2.187499999999999861e-02 2.085179999999999846e-03 1.689611484853181800e-01
3.437500000000000278e-02 9.231999999999999929e-02 4.114648286869292626e+00
1.250000000000000069e-02 1.839169999999999998e-03 1.118615820217094825e-01
0.000000000000000000e+00 4.840900000000000411e-03 4.870414662333827138e+00
5.625000000000000139e-02 9.326400000000000315e-03 4.261245041254980492e+00
0.000000000000000000e+00 9.196799999999999767e-04 1.167790409487450276e+00
2.187499999999999861e-02 3.291839999999999870e-03 3.419720014240415829e+00
0.000000000000000000e+00 2.750720000000000118e-04 3.398112895207026973e+00
6.250000000000000347e-03 1.500159999999999948e-03 4.569851613028368398e+00
9.374999999999999653e-03 2.425730000000000074e-03 1.485441986645020807e+00
0.000000000000000000e+00 4.682409999999999914e-04 4.757816197478446973e+00
0.000000000000000000e+00 1.381059999999999927e-03 4.973775231533451802e+00
6.250000000000000347e-03 4.423419999999999956e-03 2.524305611899742452e+00
0.000000000000000000e+00 2.296869999999999915e-05 2.388885142429876041e+00
0.000000000000000000e+00 3.047300000000000009e-02 1.821641009684623613e+00
0.000000000000000000e+00 5.283140000000000058e-02 2.583764488360001277e+00
3.125000000000000173e-03 4.524099999999999649e-03 4.605991664672038688e+00
1.250000000000000069e-02 4.678909999999999667e-03 2.999834350862644161e+00
0.000000000000000000e+00 1.122509999999999957e-03 3.223320342261229321e+00
0.000000000000000000e+00 7.703039999999999757e-04 3.884894040165697948e+00
0.000000000000000000e+00 1.773760000000000094e-03 1.401205608603988573e+00
0.000000000000000000e+00 1.125569999999999999e-03 1.802449903699433476e+00
3.125000000000000173e-03 1.820030000000000042e-03 1.733366576063677389e+00
0.000000000000000000e+00 2.825990000000000229e-04 2.401492700495641675e+00
0.000000000000000000e+00 4.889599999999999806e-04 2.575777038822955056e+00
2.187499999999999861e-02 2.676169999999999938e-02 1.785196832720015170e-01
0.000000000000000000e+00 1.608319999999999943e-04 4.469327447386271857e+00
2.500000000000000139e-02 1.061679999999999985e-01 4.025246709073810436e+00
0.000000000000000000e+00 3.809730000000000061e-02 9.968318865782838101e-01
0.000000000000000000e+00 3.788800000000000045e-04 4.417022850898832953e-01
3.125000000000000173e-03 9.613159999999999761e-02 2.920314135933810729e+00
0.000000000000000000e+00 1.658369999999999940e-03 9.063209688082363158e-01
2.812500000000000069e-02 3.485890000000000169e-03 3.668879999531483804e+00
0.000000000000000000e+00 1.071740000000000062e-03 4.818181192377414490e+00
3.125000000000000173e-03 1.393959999999999991e-02 1.730611774179615203e+00
3.125000000000000000e-02 1.021129999999999954e-02 4.477221181425679042e+00
2.812500000000000069e-02 9.350509999999999378e-02 2.717700189437403768e+00
2.187499999999999861e-02 4.758710000000000023e-02 3.803885772846112623e+00
0.000000000000000000e+00 3.874559999999999983e-04 2.633977491683187067e-01
2.500000000000000139e-02 1.077100000000000002e-01 2.016465615069134465e+00
0.000000000000000000e+00 1.125120000000000070e-03 4.955686607627043827e+00
0.000000000000000000e+00 1.421500000000000020e-03 1.198606828163389926e+00
0.000000000000000000e+00 2.398719999999999965e-04 1.179364501635243867e+00
2.500000000000000139e-02 7.907330000000000608e-03 3.136800047048428741e+00
0.000000000000000000e+00 2.279399999999999894e-05 2.029698814148432451e+00
0.000000000000000000e+00 5.016960000000000430e-04 4.150632357192294286e+00
0.000000000000000000e+00 0.000000000000000000e+00 7.410127852525261183e-01
3.125000000000000173e-03 4.704129999999999943e-03 4.859090200455386643e+00
3.125000000000000000e-02 1.217900000000000059e-02 3.127776232661563682e+00
1.562500000000000000e-02 2.562239999999999917e-03 1.675212415953495348e+00
9.374999999999999653e-03 2.311039999999999883e-03 2.882212100228900287e+00
0.000000000000000000e+00 9.672959999999999762e-04 3.998617118140579851e+00
1.874999999999999931e-02 1.598779999999999949e-03 2.257772101044000390e+00
2.187499999999999861e-02 2.123019999999999907e-01 1.864665244562339064e+00
6.250000000000000347e-03 3.292859999999999884e-03 2.842309062073983927e+00
2.187499999999999861e-02 2.457469999999999793e-03 3.383316256926716115e+00
1.874999999999999931e-02 2.968900000000000011e-03 1.047516755822236467e-01
6.250000000000000347e-03 9.539720000000000144e-02 6.441486785523570235e-01
9.374999999999999653e-03 1.671549999999999946e-03 2.168242108458255935e+00
1.562500000000000000e-02 1.604219999999999952e-03 7.593128780791075227e-01
0.000000000000000000e+00 1.390880000000000068e-02 4.296079561110018652e+00
0.000000000000000000e+00 1.924029999999999968e-03 3.663753846303833051e+00
2.500000000000000139e-02 1.198530000000000081e-02 2.339857153710384052e-01
0.000000000000000000e+00 1.948619999999999866e-02 2.914893688241765979e+00
2.187499999999999861e-02 2.462779999999999917e-03 1.837134647315609159e+00
0.000000000000000000e+00 2.298069999999999836e-05 4.930017068539727987e+00
0.000000000000000000e+00 2.067570000000000172e-02 4.974666995684103199e+00
0.000000000000000000e+00 2.739740000000000057e-03 8.024258374914727820e-01
0.000000000000000000e+00 1.053700000000000079e-03 1.750920915498664909e+00
2.187499999999999861e-02 2.332330000000000167e-02 4.242198682288655931e-01
6.250000000000000347e-03 9.811139999999999445e-03 4.412575145626889572e+00
1.874999999999999931e-02 3.387520000000000201e-03 3.350559932146313091e+00
2.812500000000000069e-02 3.024390000000000064e-03 4.766533011700820666e+00
0.000000000000000000e+00 4.209160000000000202e-04 4.349072908874594745e+00
0.000000000000000000e+00 1.182719999999999952e-03 1.653934706045907976e+00
0.000000000000000000e+00 4.775390000000000234e-04 2.434360312362040979e+00
0.000000000000000000e+00 1.139650000000000081e-03 4.723532905840111873e+00
3.125000000000000000e-02 3.125710000000000294e-02 1.916207023696413492e+00
0.000000000000000000e+00 5.265299999999999885e-04 1.636150030069229544e+00
1.874999999999999931e-02 2.311039999999999883e-03 4.421623718906633194e+00
3.125000000000000173e-03 3.819990000000000104e-03 3.972881270730923120e+00
0.000000000000000000e+00 1.899409999999999987e-02 6.384534955163617687e-01
3.125000000000000173e-03 4.915580000000000123e-03 2.475773105146683584e+00
1.000000000000000056e-01 4.647230000000000111e-02 2.900260833377727110e+00
0.000000000000000000e+00 1.950520000000000032e-02 2.835269930461102206e+00
0.000000000000000000e+00 6.972359999999999496e-04 1.562347750211896091e+00
0.000000000000000000e+00 1.269439999999999935e-03 5.328176022645991772e-01
2.187499999999999861e-02 1.957570000000000057e-03 3.700925554111622162e+00
0.000000000000000000e+00 2.308459999999999917e-05 3.476742118957010685e+00
0.000000000000000000e+00 5.044070000000000107e-04 4.048135847922271324e+00
3.125000000000000173e-03 1.027460000000000005e-03 5.456803986856756383e-01
3.125000000000000173e-03 9.911839999999999540e-02 2.456077135527925837e+00
0.000000000000000000e+00 1.099649999999999976e-03 4.199864702227642077e+00
0.000000000000000000e+00 1.015360000000000091e-03 2.960138466198681151e+00
0.000000000000000000e+00 1.766500000000000112e-05 7.656406594723136338e-01
4.687500000000000000e-02 9.270020000000000343e-03 3.944404758665415400e+00
3.125000000000000173e-03 4.627329999999999811e-03 3.508539882109680708e+00
0.000000000000000000e+00 2.284720000000000040e-05 1.754284589286131402e+00
0.000000000000000000e+00 1.133759999999999933e-03 1.415924788106540655e+00
2.187499999999999861e-02 1.879999999999999944e-03 1.354860822119106523e+00
3.125000000000000173e-03 4.691459999999999728e-03 1.589565572458045972e+00
0.000000000000000000e+00 9.805440000000000770e-04 1.054983950163099760e+00
0.000000000000000000e+00 2.286239999999999984e-05 2.712043931888306059e+00
3.125000000000000173e-03 5.558659999999999990e-03 4.342777012240689238e+00
0.000000000000000000e+00 2.296360000000000152e-05 4.647397136789640726e+00
0.000000000000000000e+00 1.033470000000000092e-03 3.479701855806543342e+00
0.000000000000000000e+00 1.165379999999999932e-03 4.202571546641874711e+00
1.562500000000000000e-02 2.332669999999999796e-03 1.354242939504736842e+00
0.000000000000000000e+00 0.000000000000000000e+00 3.298514191047263733e-01
1.562500000000000000e-02 2.405710000000000140e-02 3.421257162407042696e+00
2.187499999999999861e-02 6.683360000000000169e-03 3.717202646778201114e+00
0.000000000000000000e+00 3.596769999999999785e-04 6.660543857149664460e-01
0.000000000000000000e+00 4.421760000000000165e-04 3.327648306627761343e+00
3.749999999999999861e-02 9.629379999999999884e-03 4.757733163845831115e+00
0.000000000000000000e+00 8.321500000000000338e-04 3.407729352023713965e-02
3.125000000000000173e-03 1.089789999999999986e-03 1.759400950901968574e+00
1.562500000000000000e-02 2.211330000000000066e-03 7.549525513820026790e-01
0.000000000000000000e+00 4.280959999999999887e-04 6.062036596607417449e-01
4.687500000000000000e-02 9.094760000000000344e-02 3.874408349675059871e+00
0.000000000000000000e+00 9.491840000000000520e-04 3.124675254219201115e+00
3.125000000000000173e-03 1.863550000000000059e-03 2.464617095780163414e+00
0.000000000000000000e+00 1.066179999999999906e-03 3.131506928524535605e-01
0.000000000000000000e+00 6.471100000000000463e-02 3.594307420590692637e+00
3.125000000000000173e-03 8.017280000000000326e-04 3.122975129616325063e+00
0.000000000000000000e+00 9.816960000000000009e-04 4.027206158727669738e+00
0.000000000000000000e+00 5.598079999999999636e-04 8.027642532687573329e-01
1.562500000000000000e-02 1.760700000000000025e-03 1.692043853073864623e+00
0.000000000000000000e+00 7.067860000000000462e-04 2.595763423373757650e+00
0.000000000000000000e+00 4.144930000000000142e-02 2.688617246594145804e+00
0.000000000000000000e+00 3.066179999999999947e-03 9.262416406588874773e-01
1.562500000000000000e-02 9.159989999999999799e-02 1.528946096867722204e+00
2.187499999999999861e-02 9.142319999999999613e-02 3.185256992973695578e+00
2.812500000000000069e-02 7.544190000000000097e-03 2.468898733157587344e+00
3.125000000000000000e-02 3.125710000000000294e-02 7.025915058388293444e-01
2.812500000000000069e-02 1.318079999999999903e-03 2.767314785661669330e+00
3.125000000000000173e-03 1.777180000000000079e-02 2.782661141188845111e+00
0.000000000000000000e+00 1.817089999999999938e-03 2.822854202041973792e+00
0.000000000000000000e+00 7.258310000000000239e-04 4.157758489153696502e+00
6.250000000000000347e-03 1.275069999999999893e-03 3.393573343330232639e+00
1.874999999999999931e-02 1.211650000000000097e-03 3.507574483765892204e+00
3.125000000000000173e-03 2.029819999999999888e-03 1.828619814551099676e+00
6.250000000000000347e-03 4.742460000000000425e-03 1.685335039472278140e+00
0.000000000000000000e+00 7.393610000000000113e-04 4.337778967627026194e-01
3.125000000000000173e-03 4.995330000000000083e-03 3.695637527232807251e+00
0.000000000000000000e+00 5.055490000000000157e-03 9.052825396183872275e-01
0.000000000000000000e+00 0.000000000000000000e+00 2.862463700478196094e-01
1.874999999999999931e-02 9.261780000000000013e-02 1.478230856683903749e+00
6.250000000000000347e-03 9.648489999999999844e-02 1.838550395945280247e+00
0.000000000000000000e+00 3.286659999999999842e-03 1.783797080025775639e+00
0.000000000000000000e+00 9.625229999999999897e-02 1.618570732073003615e+00
0.000000000000000000e+00 1.970620000000000184e-03 2.774788787183806615e+00
0.000000000000000000e+00 3.979619999999999685e-02 2.158876951031996061e+00
0.000000000000000000e+00 5.101139999999999885e-04 2.069415977214664082e+00
0.000000000000000000e+00 1.469709999999999940e-02 4.260239910456151691e+00
0.000000000000000000e+00 3.424999999999999903e-05 2.018712774324114889e+00
3.125000000000000173e-03 5.097789999999999613e-03 1.159622373592749778e+00
0.000000000000000000e+00 1.189970000000000047e-03 3.592290448526353153e+00
6.250000000000000347e-03 1.222269999999999910e-03 3.143775036756713437e+00
1.874999999999999931e-02 1.622979999999999996e-03 3.320473898939690915e-01
0.000000000000000000e+00 4.687809999999999720e-03 4.234614337849498256e+00
0.000000000000000000e+00 4.546820000000000028e-03 3.808923591923755403e+00
0.000000000000000000e+00 1.245760000000000053e-03 8.238370897432206741e-01
0.000000000000000000e+00 3.264319999999999809e-03 3.170676894063328977e+00
4.687500000000000000e-02 9.157819999999999849e-02 2.115443033339743817e+00
0.000000000000000000e+00 1.745529999999999998e-02 1.291112116857726200e+00
0.000000000000000000e+00 2.175909999999999975e-05 2.444754511478040904e+00
0.000000000000000000e+00 3.435070000000000137e-03 1.527724253350776218e-01
0.000000000000000000e+00 9.093120000000000109e-04 4.448478825456558816e-01
0.000000000000000000e+00 1.501519999999999938e-02 5.056077792126012493e-01
2.187499999999999861e-02 9.496319999999999501e-04 1.971089390639280126e+00
0.000000000000000000e+00 1.022340000000000054e-03 1.617581356378690050e+00
0.000000000000000000e+00 2.301000000000000162e-05 3.641593808982477753e+00
0.000000000000000000e+00 4.645700000000000003e-03 2.885026566414818916e+00
0.000000000000000000e+00 1.628930000000000005e-03 2.659675839336998582e+00
3.125000000000000173e-03 1.264130000000000028e-03 3.545629395699073649e-01
2.500000000000000139e-02 2.790270000000000077e-03 2.441171826386772103e+00
2.500000000000000139e-02 1.063290000000000068e-01 3.441798793422082170e+00
1.562500000000000000e-02 1.399870000000000107e-03 2.688500114899648352e+00
0.000000000000000000e+00 1.160540000000000052e-03 3.911821864716271691e+00
3.125000000000000000e-02 8.533759999999999610e-03 2.151292928159429962e+00
9.374999999999999653e-03 2.576000000000000165e-03 2.586147475522825090e+00
0.000000000000000000e+00 2.037759999999999951e-04 2.223579403368336482e-01
3.125000000000000173e-03 2.116219999999999820e-03 2.591503607513887530e+00
0.000000000000000000e+00 3.123530000000000230e-04 4.545523502448498121e+00
0.000000000000000000e+00 1.494459999999999972e-03 4.940697532499860323e-01
3.125000000000000173e-03 9.360509999999999664e-02 3.912280418903066437e+00
9.374999999999999653e-03 3.309569999999999960e-03 2.823811960305544044e+00
2.500000000000000139e-02 2.068990000000000152e-03 3.939732175287317784e+00
0.000000000000000000e+00 3.189760000000000035e-04 2.029321751864854306e+00
0.000000000000000000e+00 6.978619999999999615e-03 1.509382640193032143e+00
9.374999999999999653e-03 4.879359999999999947e-02 3.497937808196848852e+00
0.000000000000000000e+00 3.173050000000000176e-02 2.584533401373716455e+00
0.000000000000000000e+00 2.789760000000000070e-03 2.116773185142221791e+00
2.187499999999999861e-02 4.754500000000000046e-03 4.955619405616085160e-01
0.000000000000000000e+00 2.174550000000000042e-05 3.566274602902240076e+00
0.000000000000000000e+00 2.468599999999999961e-02 8.109165261849626827e-02
3.125000000000000173e-03 9.319239999999999469e-02 3.344466414478021843e+00
0.000000000000000000e+00 9.367040000000000088e-04 1.452442493405861512e+00
0.000000000000000000e+00 1.397950000000000017e-03 4.287035655635768272e+00
0.000000000000000000e+00 1.175739999999999988e-03 1.242359186351277289e-01
9.374999999999999653e-03 1.787200000000000073e-03 1.330045380287541157e+00
0.000000000000000000e+00 8.000880000000000145e-04 1.123134680821609166e+00
1.562500000000000000e-02 6.746850000000000416e-03 3.588697584770437210e+00
1.250000000000000069e-02 4.015649999999999775e-02 4.471719638107680694e+00
3.125000000000000173e-03 2.054499999999999903e-03 2.085007115620596263e-01
5.000000000000000278e-02 9.199530000000000207e-02 3.232713340154011128e+00
1.562500000000000000e-02 2.299520000000000210e-03 2.340681287890134410e+00
0.000000000000000000e+00 4.260460000000000202e-04 4.070938658688337597e+00
2.187499999999999861e-02 1.061440000000000083e-03 4.837610502782213606e-01
0.000000000000000000e+00 7.382709999999999793e-04 1.339091866141570275e+00
3.125000000000000173e-03 5.071939999999999608e-03 1.078718866264459786e+00
0.000000000000000000e+00 9.112319999999999925e-04 3.377250282203396292e+00
3.125000000000000173e-03 1.766720000000000053e-03 1.239522825531401695e+00
1.250000000000000069e-02 3.847300000000000112e-03 7.721794277123855688e-01
0.000000000000000000e+00 7.170559999999999868e-04 3.175235562888784058e-01
9.374999999999999653e-03 1.858049999999999979e-03 5.641190598362777475e-01
0.000000000000000000e+00 1.704699999999999965e-03 3.176806067556625646e-01
1.562500000000000000e-02 2.585230000000000167e-02 2.822883250824847590e+00
5.937499999999999722e-02 9.262510000000000188e-02 5.529314248901423534e-01
0.000000000000000000e+00 1.083360000000000017e-01 1.749132949727986164e+00
3.125000000000000173e-03 1.932740000000000066e-03 1.622952666397390331e+00
1.250000000000000069e-02 2.396859999999999963e-02 3.244552455451767958e+00
1.562500000000000000e-02 2.683070000000000073e-03 9.783763989145388695e-01
0.000000000000000000e+00 5.790079999999999966e-04 3.622279590652230485e+00
0.000000000000000000e+00 2.012749999999999956e-02 9.359811843142679111e-01
3.125000000000000173e-03 1.036739999999999971e-03 3.522160322981177094e-01
5.625000000000000139e-02 8.844670000000000656e-03 1.306679176455609159e+00
0.000000000000000000e+00 2.239489999999999797e-03 2.728306061389757176e+00
3.437500000000000278e-02 9.327420000000000155e-02 4.745203733801335311e+00
1.562500000000000000e-02 2.900740000000000176e-03 7.116855482585959791e-01
9.374999999999999653e-03 3.278660000000000081e-03 1.628258559434991870e+00
2.812500000000000069e-02 6.797179999999999889e-03 4.781876003968188016e+00
1.874999999999999931e-02 5.850179999999999964e-03 2.973656463415199180e+00
0.000000000000000000e+00 6.151509999999999791e-04 3.185164429028441546e+00
0.000000000000000000e+00 8.587620000000000019e-04 4.418216563782219275e+00
0.000000000000000000e+00 1.098269999999999932e-03 4.402702380914333524e+00
0.000000000000000000e+00 2.904509999999999904e-03 2.500005214248525842e+00
2.187499999999999861e-02 2.571910000000000168e-02 2.493054342536819235e+00
0.000000000000000000e+00 5.215359999999999614e-04 2.351027082220496389e+00
6.250000000000000347e-03 9.707520000000000038e-02 4.707093580819146972e+00
3.125000000000000173e-03 9.551529999999999743e-02 3.310131881248954411e+00
1.250000000000000069e-02 2.035840000000000132e-03 3.927674021514638625e+00
3.125000000000000173e-03 5.781699999999999860e-03 1.343589658006627996e+00
3.125000000000000173e-03 4.469060000000000393e-03 2.310582832092946237e+00
7.499999999999999722e-02 2.651289999999999897e-02 3.857544383215982808e+00
3.125000000000000173e-03 4.637249999999999879e-03 2.833996848489159781e+00
1.562500000000000000e-02 2.580670000000000186e-03 1.974532087135935088e+00
2.812500000000000069e-02 3.531330000000000059e-03 2.568774947931527386e+00
0.000000000000000000e+00 3.682110000000000157e-03 1.453692796885283745e+00
0.000000000000000000e+00 2.524290000000000214e-03 5.879798800333402298e-01
0.000000000000000000e+00 5.114299999999999576e-03 1.343222637351965121e+00
0.000000000000000000e+00 2.966399999999999788e-04 1.839921741496838958e+00
2.812500000000000069e-02 9.147760000000000613e-02 3.018396621864094520e-02
3.125000000000000173e-03 2.722560000000000171e-03 4.931327969160982150e+00
0.000000000000000000e+00 7.888640000000000149e-04 7.283548953358420786e-01
