0.000000000000000000e+00 9.850239999999999257e-04 8.363434863616298065e-01
0.000000000000000000e+00 9.091200000000000236e-04 1.487898475420594391e+00
1.562500000000000000e-02 3.664580000000000181e-03 1.010251260700735898e+00
5.000000000000000278e-02 9.323649999999999993e-02 4.020255040264084201e+00
2.812500000000000069e-02 1.584700000000000084e-03 3.229488938152726973e+00
0.000000000000000000e+00 2.003899999999999865e-03 3.353131139788687154e+00
2.187499999999999861e-02 1.391169999999999950e-03 3.310052940302608437e+00
0.000000000000000000e+00 5.253120000000000012e-04 1.207807109463823636e+00
0.000000000000000000e+00 4.117470000000000136e-04 9.897477412300292876e-02
0.000000000000000000e+00 2.255799999999999985e-05 3.581075486786724493e+00
3.125000000000000173e-03 1.489019999999999970e-03 2.074502321421851647e+00
2.187499999999999861e-02 2.192959999999999875e-03 2.803307116209297067e-01
0.000000000000000000e+00 4.077899999999999754e-03 1.353224732860554447e+00
0.000000000000000000e+00 1.994529999999999914e-02 2.721582252144394420e+00
0.000000000000000000e+00 7.300629999999999793e-04 1.583636484721114845e+00
5.937499999999999722e-02 3.611260000000000164e-02 9.393171440609832112e-01
0.000000000000000000e+00 1.067419999999999914e-03 1.475624327123290058e+00
0.000000000000000000e+00 1.009979999999999949e-03 2.814897165044180305e+00
0.000000000000000000e+00 2.126359999999999882e-04 3.347129001232276746e+00
0.000000000000000000e+00 0.000000000000000000e+00 3.461752213270693268e+00
0.000000000000000000e+00 2.098559999999999911e-04 4.875319048128068378e-01
0.000000000000000000e+00 7.423360000000000158e-04 6.172766483295394346e-01
0.000000000000000000e+00 6.323330000000000617e-02 2.931346324216079324e+00
3.125000000000000173e-03 1.310719999999999941e-02 1.542730229003993481e+00
0.000000000000000000e+00 3.392000000000000050e-03 1.015613106617180961e+00
3.125000000000000173e-03 3.976890000000000286e-02 1.429909429577721491e+00
0.000000000000000000e+00 4.041020000000000202e-03 7.155059814113778893e-01
3.125000000000000173e-03 4.618559999999999853e-03 1.777665388705362837e+00
3.125000000000000173e-03 4.948669999999999632e-03 4.468666737848283610e+00
0.000000000000000000e+00 1.692989999999999903e-03 2.601891494558352225e+00
1.562500000000000000e-02 2.655869999999999845e-03 3.599316934410568436e+00
1.562500000000000000e-02 1.489279999999999944e-03 4.843523735858620505e+00
1.000000000000000056e-01 9.219019999999999992e-02 4.387835381405594148e+00
9.374999999999999653e-03 3.072189999999999817e-03 1.645912020662114728e+00
2.500000000000000139e-02 1.083270000000000066e-01 3.602559907671676331e+00
6.250000000000000347e-03 9.941640000000000199e-02 2.743176912492686359e+00
3.125000000000000173e-03 2.706749999999999955e-03 1.064053247673924396e+00
9.374999999999999653e-03 2.168830000000000063e-03 4.307867818248910297e+00
0.000000000000000000e+00 1.081920000000000104e-03 1.374999163396926516e+00
1.250000000000000069e-02 9.355670000000000652e-02 1.444338481780194083e+00
0.000000000000000000e+00 1.002660000000000053e-03 3.608654324136832514e+00
3.125000000000000173e-03 9.507949999999999735e-02 9.389611226248151254e-02
0.000000000000000000e+00 2.492799999999999985e-04 2.307455430202466573e+00
0.000000000000000000e+00 4.482690000000000112e-03 1.556431546104100505e+00
3.125000000000000173e-03 1.892450000000000035e-02 5.658676467601753135e-01
0.000000000000000000e+00 1.496640000000000036e-03 2.596693771850849153e+00
1.874999999999999931e-02 3.797500000000000094e-03 4.388880569864039849e-01
0.000000000000000000e+00 1.006020000000000048e-03 1.574108946301111978e+00
0.000000000000000000e+00 4.320640000000000158e-04 3.057680993228217847e-01
0.000000000000000000e+00 1.236139999999999938e-03 2.423203386502945200e+00
0.000000000000000000e+00 1.737150000000000022e-03 3.222508769458025224e+00
3.125000000000000173e-03 3.356359999999999899e-02 9.558631786130061814e-01
9.374999999999999653e-03 9.686939999999999440e-02 2.512878392166235209e+00
0.000000000000000000e+00 1.022550000000000021e-02 3.437160847707922517e+00
0.000000000000000000e+00 3.951829999999999926e-02 2.479312109183577029e+00
1.250000000000000069e-02 1.520579999999999892e-03 1.914916954708338892e+00
3.125000000000000173e-03 2.305220000000000186e-03 2.073291629020074245e-01
0.000000000000000000e+00 2.679679999999999931e-04 1.282096903808696009e+00
1.093750000000000000e-01 1.007200000000000040e-01 4.855203293748714621e+00
3.125000000000000173e-03 4.229759999999999943e-03 1.004700461078207763e+00
1.874999999999999931e-02 1.812100000000000082e-03 1.727253534218875508e+00
6.250000000000000347e-03 1.472189999999999957e-03 2.763389908585210275e+00
1.250000000000000069e-02 2.389500000000000131e-03 1.154187809677402754e+00
0.000000000000000000e+00 3.581379999999999893e-03 5.887404021296527290e-01
2.500000000000000139e-02 2.416510000000000186e-03 7.420404847931311165e-01
0.000000000000000000e+00 1.409089999999999995e-03 5.088627082834384918e-01
0.000000000000000000e+00 1.266690000000000003e-03 6.421626825353277113e-01
1.250000000000000069e-02 2.436740000000000173e-03 6.140520271245564210e-02
9.374999999999999653e-03 1.055109999999999937e-01 4.531508660451707193e+00
2.500000000000000139e-02 1.092769999999999991e-01 1.691463677379445585e+00
3.125000000000000173e-03 1.330299999999999972e-03 2.789478003453523591e+00
0.000000000000000000e+00 0.000000000000000000e+00 1.865905674438920858e+00
0.000000000000000000e+00 2.311489999999999812e-03 1.078923488957008292e+00
0.000000000000000000e+00 2.912769999999999856e-03 2.558842252941429418e+00
1.562500000000000000e-02 1.638399999999999926e-03 1.904487996859456800e+00
2.187499999999999861e-02 5.179330000000000218e-03 3.588083312417471582e+00
0.000000000000000000e+00 2.884419999999999953e-03 3.352884031245277452e+00
1.562500000000000000e-02 4.471170000000000005e-03 2.286064046287455298e+00
1.250000000000000069e-02 2.499069999999999937e-03 2.995974814769813754e+00
3.125000000000000173e-03 2.793259999999999840e-02 1.050218303124900165e+00
2.500000000000000139e-02 1.968450000000000061e-03 5.092652257733465415e-01
2.812500000000000069e-02 2.418050000000000147e-03 2.420026064556583645e+00
3.125000000000000173e-03 3.554299999999999821e-03 4.045506588172112394e+00
0.000000000000000000e+00 3.194720000000000068e-04 2.103499302913299118e+00
0.000000000000000000e+00 2.007549999999999873e-03 2.551314103170301717e+00
3.125000000000000173e-03 1.706370000000000022e-03 3.869928114122744844e+00
0.000000000000000000e+00 7.250239999999999810e-03 3.844971531489063565e+00
9.374999999999999653e-03 2.855680000000000197e-03 4.570405380019397334e+00
0.000000000000000000e+00 1.832829999999999919e-03 1.865561792356511983e+00
0.000000000000000000e+00 3.511939999999999854e-03 1.344755947077826530e+00
0.000000000000000000e+00 2.323040000000000039e-05 3.255941822976349265e+00
1.874999999999999931e-02 5.242619999999999919e-03 2.490943852794690550e+00
0.000000000000000000e+00 1.602429999999999957e-03 2.112340503055955665e+00
7.499999999999999722e-02 9.297500000000000209e-02 3.572372166930202653e+00
0.000000000000000000e+00 1.235799999999999919e-02 3.145300266671690714e+00
0.000000000000000000e+00 1.928770000000000007e-03 4.149512061421395392e-01
0.000000000000000000e+00 1.315710000000000100e-03 6.459044670214425521e-01
0.000000000000000000e+00 3.862399999999999883e-04 2.993283593731151271e+00
0.000000000000000000e+00 3.727359999999999766e-04 1.583471799683840997e+00
0.000000000000000000e+00 3.013119999999999774e-04 4.174637676699328281e+00
1.250000000000000069e-02 1.556740000000000033e-03 3.300146005513089342e+00
0.000000000000000000e+00 9.790079999999999616e-04 4.584639311563074138e+00
0.000000000000000000e+00 6.330240000000000433e-04 1.874588292812402024e+00
2.500000000000000139e-02 4.407939999999999948e-03 3.318634733220214628e+00
0.000000000000000000e+00 1.176119999999999943e-02 1.842593257755556380e+00
0.000000000000000000e+00 4.895739999999999988e-03 1.109637197664175456e+00
1.562500000000000000e-02 2.464699999999999790e-03 4.447577862393337078e-01
0.000000000000000000e+00 8.879359999999999770e-04 2.378288211230646265e+00
0.000000000000000000e+00 1.034940000000000035e-03 3.168424367524584895e+00
0.000000000000000000e+00 2.665789999999999913e-03 3.476595316359127885e+00
0.000000000000000000e+00 1.340540000000000091e-03 6.445788998966306416e-02
6.250000000000000347e-03 2.257599999999999798e-03 3.754702920904205321e+00
0.000000000000000000e+00 4.917100000000000203e-04 3.019453699688882775e+00
0.000000000000000000e+00 1.815379999999999956e-04 4.267690570112137927e+00
0.000000000000000000e+00 1.180859999999999939e-03 2.634101457828438519e+00
3.125000000000000173e-03 2.332349999999999961e-03 4.246561305921503049e+00
0.000000000000000000e+00 1.309850000000000077e-02 4.652936839801388835e+00
0.000000000000000000e+00 4.047570000000000009e-04 4.180516324361085445e+00
0.000000000000000000e+00 8.925890000000000560e-03 5.584391529765569961e-01
6.250000000000000347e-03 6.710889999999999911e-02 2.036097146332100483e+00
0.000000000000000000e+00 7.202520000000000016e-04 5.526152425542552038e-01
0.000000000000000000e+00 9.710079999999999840e-04 1.786021896374916373e+00
3.125000000000000173e-03 1.080330000000000040e-01 2.520319201900782069e+00
0.000000000000000000e+00 3.982720000000000249e-04 1.118661101090543397e+00
9.374999999999999653e-03 2.650749999999999895e-03 5.291680005060872549e-01
0.000000000000000000e+00 2.588480000000000208e-03 4.707006054881255785e+00
6.250000000000000347e-03 1.003210000000000039e-02 1.885159465777107579e+00
3.125000000000000173e-03 4.840259999999999875e-03 4.070707115715600288e+00
0.000000000000000000e+00 6.077769999999999917e-04 1.717401156048941502e+00
0.000000000000000000e+00 9.859199999999999388e-04 4.612615672047660986e+00
3.125000000000000173e-03 9.772240000000000093e-02 2.149401921668722792e+00
0.000000000000000000e+00 3.706749999999999975e-03 3.999023877260401871e+00
0.000000000000000000e+00 9.726080000000000229e-04 5.200291192886918878e-01
0.000000000000000000e+00 6.463800000000000014e-04 3.399688207944577378e+00
1.250000000000000069e-02 1.856320000000000062e-03 4.220017967347547305e+00
0.000000000000000000e+00 1.078530000000000070e-03 2.257690016530435440e+00
3.437500000000000278e-02 6.237699999999999668e-03 1.848337033155495579e+00
0.000000000000000000e+00 1.223869999999999949e-03 1.499885363909086999e+00
0.000000000000000000e+00 2.426619999999999992e-03 1.982855813218029173e+00
0.000000000000000000e+00 5.185920000000000113e-04 3.184612357318453046e+00
0.000000000000000000e+00 9.775230000000001071e-04 2.248926701986153631e+00
9.374999999999999653e-03 2.592319999999999954e-03 1.295398557644080739e+00
2.812500000000000069e-02 1.301859999999999996e-02 5.018084107421943996e-01
3.125000000000000173e-03 2.379389999999999891e-03 4.557246372898255515e+00
0.000000000000000000e+00 4.031999999999999885e-04 3.626630876392600289e+00
2.500000000000000139e-02 9.156400000000000650e-02 8.785658794225881252e-03
0.000000000000000000e+00 1.751940000000000008e-03 4.525372267902763923e+00
0.000000000000000000e+00 5.172959999999999885e-04 1.900763007607745969e+00
0.000000000000000000e+00 1.488800000000000019e-02 1.156433974153664446e+00
0.000000000000000000e+00 1.093500000000000071e-03 1.220150363521303571e+00
7.187499999999999445e-02 9.072879999999999834e-02 2.578238865858945017e-01
4.687500000000000000e-02 9.226800000000000279e-02 6.649503570040771194e-01
0.000000000000000000e+00 3.737850000000000135e-04 3.837246627871661708e+00
0.000000000000000000e+00 2.293540000000000067e-05 1.280250648262954538e+00
9.374999999999999653e-03 9.150759999999999450e-02 4.269859131053973300e+00
3.125000000000000000e-02 2.531260000000000020e-03 6.437660084026314289e-01
0.000000000000000000e+00 2.056189999999999841e-03 3.098569018156199562e+00
1.562500000000000000e-02 1.172099999999999921e-03 3.467482724387018767e+00
0.000000000000000000e+00 3.952000000000000109e-04 8.415781742508238183e-01
0.000000000000000000e+00 1.004480000000000086e-03 6.516906396356048070e-02
0.000000000000000000e+00 4.464450000000000016e-03 2.183354806260589420e+00
0.000000000000000000e+00 3.551890000000000039e-04 3.084040787073385470e+00
0.000000000000000000e+00 2.127420000000000092e-03 3.263238293111375032e+00
0.000000000000000000e+00 1.154569999999999945e-03 1.255467316871617944e+00
0.000000000000000000e+00 4.164279999999999913e-04 2.237282798895837033e+00
0.000000000000000000e+00 3.769600000000000229e-04 8.192076206851345299e-01
0.000000000000000000e+00 2.314240000000000123e-04 1.348605031446777902e+00
3.749999999999999861e-02 9.395140000000000435e-02 3.356655011447695625e-01
0.000000000000000000e+00 1.647809999999999987e-03 1.439131483360017727e-01
1.562500000000000000e-02 3.513790000000000142e-03 2.024082388334921490e+00
6.250000000000000347e-03 1.064060000000000006e-01 2.698363506897816233e+00
0.000000000000000000e+00 9.358079999999999957e-04 1.519751904976335943e+00
3.437500000000000278e-02 9.213880000000000681e-02 2.039680675788074993e+00
0.000000000000000000e+00 3.809729999999999887e-03 4.756968301108448038e+00
0.000000000000000000e+00 7.348720000000000209e-04 4.462827143744157787e+00
9.687500000000000278e-02 9.135379999999999889e-02 8.215491051976597792e-01
2.187499999999999861e-02 2.741060000000000024e-03 1.492715117390658319e+00
0.000000000000000000e+00 6.955329999999999846e-02 3.022399991061014646e+00
2.812500000000000069e-02 3.125380000000000085e-03 2.176626343095555693e-01
0.000000000000000000e+00 9.706240000000000093e-04 3.625699891453147750e+00
0.000000000000000000e+00 1.090180000000000055e-03 2.122622462361916540e+00
2.812500000000000069e-02 2.186879999999999987e-03 4.160928029193518007e+00
3.125000000000000173e-03 9.892950000000000355e-02 1.400070212405709613e+00
2.500000000000000139e-02 2.738430000000000031e-03 3.039442558231687741e+00
6.250000000000000347e-03 3.806020000000000236e-02 4.855418176030978916e-01
0.000000000000000000e+00 7.784769999999999667e-04 4.852259829484132148e+00
3.125000000000000173e-03 1.783179999999999835e-02 1.071037009199606427e+00
1.562500000000000000e-02 1.974979999999999878e-03 4.299944916070542966e+00
0.000000000000000000e+00 4.855039999999999920e-04 3.129699302307491937e+00
0.000000000000000000e+00 4.049279999999999828e-04 3.862939656535471222e+00
1.250000000000000069e-02 3.442499999999999814e-03 4.625986503023689522e+00
3.125000000000000173e-03 1.757990000000000073e-03 3.029189146823440204e+00
1.250000000000000069e-02 4.413819999999999723e-03 1.806254819577429727e+00
1.562500000000000000e-02 2.924609999999999797e-03 3.686835663132998597e+00
1.562500000000000000e-02 1.887489999999999914e-03 4.373227116872172360e+00
0.000000000000000000e+00 9.983629999999999415e-04 3.511138333526517830e+00
0.000000000000000000e+00 9.645440000000000133e-04 3.281819855584349632e+00
0.000000000000000000e+00 1.701379999999999950e-03 7.192662910909120022e-01
1.562500000000000000e-02 2.109070000000000111e-01 3.592156292835389397e+00
0.000000000000000000e+00 1.432509999999999903e-03 4.812919520621589120e-01
3.125000000000000173e-03 4.400259999999999588e-03 4.619237031350599487e+00
9.374999999999999653e-03 2.198460000000000171e-03 2.909879377277881485e+00
0.000000000000000000e+00 8.199299999999999644e-03 7.982486478701311672e-01
2.187499999999999861e-02 3.003279999999999839e-02 1.489696478051544926e+00
0.000000000000000000e+00 1.052540000000000029e-03 6.733564021777732611e-01
9.374999999999999653e-03 1.891579999999999911e-03 4.176939563611695938e+00
0.000000000000000000e+00 2.106239999999999946e-04 2.620944345942318066e+00
0.000000000000000000e+00 0.000000000000000000e+00 2.258866787895729811e+00
1.250000000000000069e-02 1.819709999999999991e-03 2.406593177536811456e+00
0.000000000000000000e+00 3.033110000000000103e-04 3.834666588796964426e+00
9.374999999999999653e-03 1.429120000000000086e-03 4.278901124779055820e+00
3.125000000000000173e-03 4.348219999999999863e-03 7.579720580678822595e-01
6.250000000000000347e-03 9.967529999999999446e-02 4.769471260714405858e+00
1.250000000000000069e-02 3.044149999999999981e-02 2.039388685607963048e+00
0.000000000000000000e+00 1.072189999999999949e-02 1.253989285987688884e-02
2.500000000000000139e-02 1.798209999999999956e-03 1.956794844654901500e+00
9.374999999999999653e-03 2.604480000000000163e-03 3.336639349602621873e+00
0.000000000000000000e+00 4.540220000000000193e-03 4.845945227899052909e+00
1.250000000000000069e-02 3.905409999999999784e-03 4.632517439805498682e+00
0.000000000000000000e+00 1.044739999999999948e-03 7.071336164249936163e-01
1.562500000000000000e-02 2.197119999999999889e-03 2.009474437880591324e+00
0.000000000000000000e+00 3.485439999999999806e-03 1.634013028261244171e+00
0.000000000000000000e+00 9.058240000000000389e-03 2.583242746274894142e-01
0.000000000000000000e+00 3.183999999999999873e-04 3.318446728844604898e+00
6.250000000000000347e-03 3.188419999999999969e-03 7.464556644347791758e-01
0.000000000000000000e+00 3.982720000000000249e-04 3.943149489827688203e+00
0.000000000000000000e+00 9.585919999999999727e-04 1.996547127693242718e+00
0.000000000000000000e+00 9.763200000000000307e-04 4.102853007390700135e+00
6.250000000000000347e-03 1.633090000000000019e-03 2.645711866704829163e+00
1.562500000000000000e-02 2.910269999999999958e-03 1.396043664195120160e+00
9.374999999999999653e-03 1.738369999999999933e-03 4.887565346443175862e+00
1.562500000000000000e-02 3.328509999999999802e-03 4.048901608050859302e+00
1.874999999999999931e-02 6.326659999999999576e-03 1.659772852862210213e+00
1.250000000000000069e-02 2.736189999999999890e-03 3.066459867071585910e-01
2.812500000000000069e-02 3.758779999999999760e-02 4.315344651265078824e+00
0.000000000000000000e+00 1.308099999999999975e-03 4.948919951496106862e+00
0.000000000000000000e+00 1.852860000000000010e-03 7.805274027238490175e-01
1.250000000000000069e-02 1.759619999999999934e-03 3.595528032675926466e-01
0.000000000000000000e+00 1.979500000000000010e-02 6.633567156258829423e-01
1.874999999999999931e-02 2.655170000000000100e-03 3.173633981613410704e-02
2.500000000000000139e-02 3.104829999999999830e-03 6.187254096691974237e-01
0.000000000000000000e+00 9.331199999999999564e-04 4.340283061061780856e+00
0.000000000000000000e+00 1.167230000000000004e-03 3.290210858194138943e+00
0.000000000000000000e+00 2.811070000000000148e-03 4.701544492508642925e+00
1.562500000000000000e-02 1.947460000000000033e-03 4.002152244587166230e+00
0.000000000000000000e+00 1.133820000000000010e-03 3.020949530891398727e+00
0.000000000000000000e+00 1.092609999999999935e-03 9.496849367388721097e-01
3.125000000000000173e-03 9.867070000000000007e-02 1.124054443010623627e+00
6.250000000000000347e-03 1.788539999999999922e-03 1.372801267097134570e-01
3.125000000000000173e-03 1.072189999999999992e-03 4.545248374672555158e+00
4.374999999999999722e-02 1.057379999999999987e-01 9.388401711627120116e-01
9.374999999999999653e-03 2.130560000000000093e-03 2.340584268785238287e+00
0.000000000000000000e+00 2.151419999999999808e-03 4.829328710927183188e+00
2.812500000000000069e-02 6.841090000000000192e-03 3.641704920422191627e+00
0.000000000000000000e+00 1.419329999999999897e-03 3.911031026993716520e+00
9.374999999999999653e-03 1.645250000000000011e-03 1.972636055194870064e+00
0.000000000000000000e+00 7.095479999999999496e-04 2.346457786969120551e+00
0.000000000000000000e+00 1.033660000000000048e-03 3.327571499273973554e+00
1.562500000000000000e-02 2.770819999999999794e-03 3.337035124936373442e+00
0.000000000000000000e+00 4.282910000000000232e-04 4.457757695591068270e+00
0.000000000000000000e+00 4.308560000000000233e-04 3.172952853180285082e+00
0.000000000000000000e+00 1.074480000000000053e-03 3.362177382927470148e+00
0.000000000000000000e+00 3.687419999999999847e-03 5.653837608063838616e-01
2.187499999999999861e-02 2.301119999999999815e-03 1.243328555469072505e+00
1.874999999999999931e-02 2.277760000000000201e-03 5.820015515670029504e-01
0.000000000000000000e+00 7.814269999999999897e-03 9.205214743680611988e-01
0.000000000000000000e+00 2.231160000000000166e-05 4.491914836036509096e-01
0.000000000000000000e+00 2.422080000000000066e-03 2.498686584263556387e+00
1.250000000000000069e-02 6.968319999999999853e-04 3.752204191759950902e+00
0.000000000000000000e+00 1.000189999999999977e-03 2.804353588678379694e+00
0.000000000000000000e+00 1.128319999999999931e-03 1.828439350764191618e+00
2.500000000000000139e-02 1.833409999999999944e-03 3.303753806540834503e+00
3.125000000000000173e-03 6.085980000000000383e-03 2.700925384840890509e+00
1.874999999999999931e-02 4.814080000000000095e-03 2.363848825599577541e+00
0.000000000000000000e+00 1.400000000000000029e-02 1.909569196887204612e+00
3.125000000000000173e-03 1.816190000000000165e-02 3.579128070692023655e+00
3.125000000000000173e-03 2.312809999999999866e-02 3.856118924696941619e+00
2.500000000000000139e-02 2.259010000000000098e-03 6.104820981620562304e-01
0.000000000000000000e+00 2.299199999999999942e-05 6.627746658807531777e-01
0.000000000000000000e+00 3.497379999999999912e-04 1.862392458920850036e+00
0.000000000000000000e+00 1.239620000000000088e-03 4.538170076870002845e+00
3.437500000000000278e-02 9.345970000000000666e-02 6.732028021339780954e-01
3.125000000000000173e-03 9.977199999999999958e-02 2.705098364841926006e+00
0.000000000000000000e+00 3.797079999999999900e-02 3.724820234275298514e+00
2.500000000000000139e-02 2.781379999999999963e-03 3.456757611799692320e+00
3.125000000000000173e-03 4.677380000000000079e-03 2.605857093857626428e+00
1.562500000000000000e-02 4.004480000000000366e-03 1.073176645551337405e+00
6.875000000000000555e-02 3.965359999999999718e-02 2.062360125514475673e+00
0.000000000000000000e+00 1.200449999999999955e-02 1.736709599459740794e+00
6.250000000000000347e-03 2.278459999999999947e-03 1.126204597397933993e-01
0.000000000000000000e+00 9.683200000000000531e-04 4.524894877871467713e+00
1.250000000000000069e-02 9.801450000000000440e-02 2.260798480644232722e-01
0.000000000000000000e+00 2.416380000000000090e-03 1.173749398293169488e+00
0.000000000000000000e+00 1.157440000000000031e-03 3.408299988260541369e+00
0.000000000000000000e+00 1.077819999999999950e-03 3.780573533614970394e+00
6.250000000000000347e-03 1.058349999999999985e-01 3.519127205782272672e+00
0.000000000000000000e+00 9.735679999999999595e-04 3.035135317840000901e+00
1.250000000000000069e-02 2.253629999999999956e-03 1.379725288479782819e+00
9.374999999999999653e-03 9.364039999999999864e-02 3.946545614363704324e+00
1.874999999999999931e-02 2.878459999999999786e-03 3.919636893399919053e+00
6.250000000000000000e-02 5.353460000000000163e-02 2.704666517638167900e+00
0.000000000000000000e+00 2.219739999999999859e-05 4.655461137882447531e+00
0.000000000000000000e+00 2.661759999999999994e-03 3.320850888755661146e+00
3.125000000000000000e-02 9.803559999999999358e-03 3.998619535118264068e-01
3.125000000000000173e-03 9.808429999999999926e-02 2.894825274572881968e-01
3.125000000000000000e-02 2.570620000000000023e-03 4.276567267646289139e+00
2.500000000000000139e-02 2.316610000000000197e-03 5.011107684725113476e-01
0.000000000000000000e+00 9.896959999999999785e-04 4.328832319656418903e+00
0.000000000000000000e+00 4.247000000000000232e-04 3.103737827506328983e+00
1.562500000000000000e-02 1.224830000000000103e-03 3.841392088023579454e+00
0.000000000000000000e+00 1.073390000000000021e-03 3.065652266962332728e+00
0.000000000000000000e+00 4.318079999999999965e-04 3.238900183239016073e+00
2.500000000000000139e-02 2.883070000000000164e-03 1.934753779538080920e+00
0.000000000000000000e+00 5.752010000000000109e-04 2.145187314514835464e+00
0.000000000000000000e+00 3.865219999999999941e-03 1.294861799033482086e+00
1.250000000000000069e-02 1.791550000000000043e-03 4.089411512087234080e+00
0.000000000000000000e+00 2.109719999999999852e-05 4.907612274471262026e+00
1.250000000000000069e-02 1.000100000000000017e-01 2.854555455893291516e+00
3.125000000000000000e-02 3.645849999999999785e-02 3.446540028470424399e+00
1.250000000000000069e-02 1.857219999999999921e-03 4.137227172207159853e+00
0.000000000000000000e+00 1.350009999999999925e-02 2.309672694464251386e+00
1.000000000000000056e-01 8.109589999999999854e-02 6.115303162863977571e-01
0.000000000000000000e+00 2.633219999999999918e-03 4.487433109556862476e+00
0.000000000000000000e+00 1.515910000000000087e-03 8.285806258114003509e-01
3.125000000000000173e-03 1.178369999999999982e-03 2.134421276662227918e+00
0.000000000000000000e+00 1.157440000000000031e-03 1.462443467047033874e+00
3.125000000000000173e-03 7.953039999999999762e-03 2.579812977609917013e+00
0.000000000000000000e+00 1.804160000000000019e-04 3.725444102298822280e+00
0.000000000000000000e+00 2.547340000000000021e-02 2.317421280256985572e+00
2.500000000000000139e-02 2.870779999999999860e-03 1.683589277030896447e+00
2.500000000000000139e-02 1.819010000000000028e-03 4.856651196757838740e+00
3.125000000000000000e-02 6.537859999999999505e-02 2.364656442654331503e+00
0.000000000000000000e+00 2.203580000000000122e-03 4.136729581882319096e+00
4.374999999999999722e-02 9.157990000000000574e-02 8.040816111985132908e-01
0.000000000000000000e+00 8.137659999999999685e-03 2.127555439786435798e+00
0.000000000000000000e+00 1.189970000000000047e-03 4.474775742929113065e+00
1.874999999999999931e-02 3.987390000000000378e-03 2.245317642701291749e+00
0.000000000000000000e+00 3.868480000000000096e-03 4.430707433786003513e+00
3.125000000000000173e-03 4.272190000000000362e-03 1.237310811056395732e+00
0.000000000000000000e+00 7.290369999999999793e-04 9.754314905496891397e-01
0.000000000000000000e+00 6.461889999999999648e-03 3.330108231408472452e+00
0.000000000000000000e+00 5.081909999999999596e-04 4.511322969302165475e+00
0.000000000000000000e+00 1.185089999999999972e-03 1.800608037748967494e+00
0.000000000000000000e+00 3.929590000000000166e-04 1.692679737699177567e+00
3.125000000000000173e-03 9.608669999999999711e-02 8.888938480897551342e-01
0.000000000000000000e+00 2.250430000000000139e-02 2.218023190843043224e+00
0.000000000000000000e+00 4.193790000000000191e-03 2.885015446096025116e+00
0.000000000000000000e+00 2.480319999999999834e-03 2.924572041383845633e+00
0.000000000000000000e+00 1.144639999999999937e-03 2.920008469415293906e+00
4.374999999999999722e-02 9.392929999999999335e-02 4.000333592348067846e+00
2.187499999999999861e-02 2.616830000000000111e-03 3.637699147176187253e+00
6.250000000000000347e-03 1.914560000000000047e-03 1.131605911574579126e+00
0.000000000000000000e+00 4.190570000000000232e-04 9.263797996086325925e-01
2.187499999999999861e-02 4.322620000000000108e-03 2.460848145699395806e-01
2.500000000000000139e-02 1.855490000000000004e-03 4.106437905098752950e+00
1.874999999999999931e-02 2.428609999999999883e-03 2.845660220852177069e+00
1.562500000000000000e-02 9.487740000000000062e-02 1.179134776543275809e+00
2.187499999999999861e-02 5.208380000000000301e-03 4.764611963608256229e-01
9.374999999999999653e-03 4.852099999999999816e-03 3.603805578632377049e+00
0.000000000000000000e+00 2.254300000000000084e-05 2.109586551395980614e+00
0.000000000000000000e+00 3.658820000000000128e-03 9.252619030101999487e-01
1.562500000000000000e-02 4.416060000000000298e-03 3.389761961733734452e+00
9.374999999999999653e-03 2.411649999999999992e-03 2.137209306932299047e+00
0.000000000000000000e+00 3.782729999999999882e-04 4.122049178869835462e-01
3.125000000000000173e-03 2.806590000000000126e-02 7.153484310506297295e-01
1.562500000000000000e-02 3.127579999999999943e-02 1.922437310647151953e+00
9.374999999999999653e-03 1.681280000000000057e-03 2.502134443787232154e+00
2.812500000000000069e-02 3.136449999999999828e-03 4.603512650496590197e+00
0.000000000000000000e+00 3.794919999999999912e-04 4.764409298959865202e-01
0.000000000000000000e+00 7.660800000000000378e-04 2.091538750937807833e+00
6.875000000000000555e-02 2.619729999999999975e-02 1.411363835419416901e+00
1.874999999999999931e-02 9.231269999999999754e-02 3.029186374469097220e+00
0.000000000000000000e+00 1.375670000000000018e-02 2.728930329940046029e+00
0.000000000000000000e+00 1.157059999999999903e-03 1.414054142469935993e+00
3.125000000000000173e-03 8.543739999999999321e-03 3.429194445749528253e+00
9.374999999999999653e-03 1.887100000000000062e-03 3.524913600517692869e-01
1.562500000000000000e-02 8.993170000000000330e-02 1.384598843301751980e+00
1.874999999999999931e-02 2.594819999999999852e-03 3.147228889434909860e+00
0.000000000000000000e+00 8.934540000000000147e-04 4.599326921063283891e+00
0.000000000000000000e+00 4.318179999999999913e-04 1.483977168438899596e+00
4.374999999999999722e-02 3.951679999999999776e-02 4.348016231234460349e+00
0.000000000000000000e+00 4.368580000000000380e-03 3.959683272944158450e+00
0.000000000000000000e+00 9.502720000000000524e-04 3.855937053878032650e+00
0.000000000000000000e+00 4.148250000000000136e-04 4.257618029377069568e+00
2.500000000000000139e-02 9.163710000000000258e-03 1.589715632468469586e+00
0.000000000000000000e+00 1.654270000000000003e-03 2.003221069751599526e+00
1.874999999999999931e-02 2.492610000000000138e-03 1.235562883735097373e-01
9.374999999999999653e-03 1.650690000000000013e-03 4.219459556754915575e+00
0.000000000000000000e+00 4.450559999999999889e-04 3.574127546401211220e+00
3.125000000000000173e-03 1.921710000000000085e-02 4.327860860100344098e+00
0.000000000000000000e+00 7.338880000000000316e-04 7.471810984508725495e-01
6.875000000000000555e-02 9.299670000000000158e-02 4.729670544393547615e+00
3.125000000000000173e-03 5.752509999999999742e-03 2.701202864983408780e+00
0.000000000000000000e+00 3.792740000000000174e-03 4.531914548803733567e+00
3.125000000000000173e-03 9.869060000000000679e-03 2.553634215635364191e-01
0.000000000000000000e+00 1.210880000000000035e-04 1.985473050656072491e+00
0.000000000000000000e+00 1.292739999999999905e-03 4.047284088956518922e+00
0.000000000000000000e+00 9.464220000000000401e-04 2.556523822209443964e+00
0.000000000000000000e+00 1.776099999999999901e-02 3.964178369857068063e+00
2.500000000000000139e-02 2.218620000000000141e-03 3.301878622688087628e+00
0.000000000000000000e+00 7.353849999999999667e-04 3.411665841747289818e+00
1.562500000000000000e-02 7.052209999999999729e-03 2.249006497653927017e-01
1.250000000000000069e-02 1.976899999999999838e-02 4.563329601166501881e+00
2.500000000000000139e-02 1.165700000000000069e-02 3.477408363016575965e+00
2.187499999999999861e-02 2.318080000000000140e-03 4.281028064438889835e+00
1.874999999999999931e-02 3.191230000000000195e-03 9.547927287437868449e-01
0.000000000000000000e+00 7.202520000000000016e-04 4.035527451895443152e-01
5.625000000000000139e-02 9.060719999999999885e-02 2.815379658427587195e+00
3.125000000000000173e-03 4.605950000000000148e-03 4.041128491843819504e+00
2.187499999999999861e-02 2.705470000000000184e-03 3.401483141566972179e+00
2.187499999999999861e-02 3.012219999999999915e-03 3.888086388523220860e-01
3.125000000000000173e-03 1.521790000000000078e-03 2.852936451432250387e+00
0.000000000000000000e+00 4.285439999999999952e-04 3.244777558107474480e+00
3.125000000000000173e-03 2.571030000000000190e-03 4.775558873650021852e+00
5.625000000000000139e-02 9.098430000000000406e-02 7.113863662640346197e-01
2.500000000000000139e-02 9.086959999999999482e-02 1.839593442019431535e+00
2.500000000000000139e-02 3.368959999999999837e-03 3.285908475975892529e+00
3.125000000000000173e-03 1.644800000000000081e-03 1.813149202342669408e+00
1.250000000000000069e-02 9.611559999999999548e-02 9.327675801216139817e-01
0.000000000000000000e+00 1.198269999999999978e-03 3.580886885712243561e+00
3.125000000000000173e-03 2.693440000000000070e-03 3.117832345063264121e+00
3.125000000000000173e-03 1.723300000000000092e-03 3.310198284919536604e+00
0.000000000000000000e+00 2.564859999999999970e-03 6.006757136255030938e-01
0.000000000000000000e+00 1.293569999999999963e-03 2.827326762265981230e+00
2.500000000000000139e-02 2.720259999999999952e-03 3.933983346388450375e+00
1.874999999999999931e-02 1.453890000000000000e-03 1.278887576678404692e+00
3.125000000000000173e-03 4.696829999999999929e-03 4.694385294621051585e+00
3.749999999999999861e-02 9.328029999999999655e-02 1.219391487357119885e+00
2.812500000000000069e-02 3.657339999999999810e-03 4.004644185213876106e+00
0.000000000000000000e+00 2.661759999999999994e-03 1.831143645106539264e+00
0.000000000000000000e+00 3.523710000000000210e-03 2.179217224453389612e+00
6.250000000000000347e-03 9.776749999999999330e-02 3.639068552194034467e+00
0.000000000000000000e+00 5.080619999999999884e-04 4.659095731227241854e-01
0.000000000000000000e+00 1.207940000000000012e-03 3.203366886771866096e+00
0.000000000000000000e+00 1.172609999999999928e-03 4.164100350482937252e+00
0.000000000000000000e+00 1.502910000000000097e-03 1.727584730564513116e-01
1.250000000000000069e-02 4.647489999999999781e-03 3.625640987690927464e+00
1.874999999999999931e-02 5.561280000000000043e-03 4.220295440561834255e+00
0.000000000000000000e+00 5.075840000000000516e-04 4.913205871095362554e+00
0.000000000000000000e+00 6.880129999999999926e-03 5.898672553691236553e-01
0.000000000000000000e+00 1.025599999999999993e-03 9.949148446430611248e-01
0.000000000000000000e+00 3.540100000000000018e-03 2.693561008328537731e-01
0.000000000000000000e+00 3.839359999999999778e-04 1.901730937863173487e+00
6.250000000000000347e-03 9.762859999999999594e-02 3.086937485764023492e+00
1.562500000000000000e-02 1.453120000000000019e-03 2.940375382149537753e+00
2.187499999999999861e-02 2.796739999999999816e-03 2.335957218976849603e+00
3.125000000000000173e-03 4.319360000000000387e-03 4.526500095471123863e+00
3.125000000000000173e-03 1.682600000000000068e-02 4.666563460788812456e+00
1.250000000000000069e-02 1.609790000000000049e-03 2.506086234523019041e+00
0.000000000000000000e+00 0.000000000000000000e+00 2.495167799753910121e+00
3.125000000000000173e-03 1.341099999999999931e-02 4.637884527224873210e+00
1.250000000000000069e-02 2.113279999999999933e-03 3.970686171862627845e+00
1.250000000000000069e-02 4.612930000000000329e-03 2.847922359726778874e-01
3.125000000000000173e-03 4.915199999999999778e-03 1.361087540679748908e+00
2.187499999999999861e-02 4.291330000000000318e-03 2.901688091612305342e+00
5.625000000000000139e-02 3.723220000000000002e-02 8.654333969343902533e-01
9.374999999999999653e-03 1.900860000000000093e-03 3.871385363261436563e+00
6.250000000000000347e-03 2.116560000000000108e-01 1.374038197387071891e+00
1.562500000000000000e-02 4.020160000000000053e-03 4.908133321668039173e+00
4.062500000000000139e-02 3.934850000000000153e-02 8.697676380714830513e-01
0.000000000000000000e+00 1.079160000000000015e-03 4.809167427059303002e+00
0.000000000000000000e+00 2.367549999999999950e-03 2.940316656377506277e-02
3.125000000000000173e-03 1.076160000000000051e-03 6.866269516527945260e-01
0.000000000000000000e+00 1.165010000000000004e-02 6.925660279499584737e-01
0.000000000000000000e+00 1.059979999999999950e-02 2.159158303520912980e+00
0.000000000000000000e+00 1.879310000000000138e-05 2.933922327007549402e+00
1.562500000000000000e-02 1.883069999999999926e-03 1.374063701405465299e+00
6.250000000000000347e-03 2.663679999999999867e-03 3.510842257198254490e-01
2.500000000000000139e-02 2.611259999999999797e-03 1.569934803558077352e+00
3.125000000000000173e-03 4.791169999999999977e-03 1.466242978958773424e+00
3.125000000000000173e-03 1.044100000000000063e-02 3.525964148487492622e-05
0.000000000000000000e+00 3.671300000000000171e-03 1.035595385176754757e+00
3.125000000000000173e-03 1.919270000000000004e-02 3.604597023449252369e+00
0.000000000000000000e+00 2.269320000000000153e-05 2.096709524583945772e+00
0.000000000000000000e+00 4.315610000000000106e-04 3.221297914971898990e-01
2.500000000000000139e-02 4.223489999999999883e-03 3.821907613995618291e+00
1.250000000000000069e-02 9.507559999999999623e-02 1.658965508923476717e+00
0.000000000000000000e+00 7.897600000000000280e-04 2.067822871322388956e-01
3.125000000000000173e-03 9.752410000000000245e-02 3.339016530950295714e+00
0.000000000000000000e+00 1.866039999999999840e-05 3.823664717676103386e+00
3.125000000000000173e-03 1.015070000000000035e-02 1.175519813296983962e+00
0.000000000000000000e+00 9.285300000000000021e-04 2.322987673141796439e+00
1.562500000000000000e-02 1.401600000000000025e-03 3.173530740824733520e+00
0.000000000000000000e+00 5.018880000000000303e-04 3.522255708955117637e+00
1.562500000000000000e-02 4.083329999999999599e-03 3.522900181334567726e+00
1.874999999999999931e-02 2.009790000000000014e-03 2.770181211044860703e+00
9.374999999999999653e-03 2.769220000000000188e-03 8.247099663821511051e-01
0.000000000000000000e+00 1.203840000000000075e-03 1.970620930409894278e+00
3.125000000000000173e-03 1.203169999999999934e-02 3.513052505983855323e+00
3.125000000000000173e-03 2.201090000000000164e-03 1.991800522922462235e+00
3.125000000000000173e-03 2.032700000000000132e-03 3.585213438107150097e+00
6.250000000000000347e-03 7.379840000000000141e-04 2.080882268829514992e+00
0.000000000000000000e+00 3.917440000000000223e-04 1.527248116438454373e+00
0.000000000000000000e+00 4.006080000000000405e-03 4.205577400338952110e+00
1.874999999999999931e-02 1.552900000000000070e-03 3.245644530742289202e+00
6.250000000000000347e-03 2.262210000000000176e-03 4.115013616137121133e+00
2.500000000000000139e-02 2.079419999999999793e-03 4.110653138988332955e+00
0.000000000000000000e+00 2.122880000000000166e-03 4.345941058423640868e+00
8.437500000000000555e-02 5.643959999999999949e-02 2.488712353397872779e+00
0.000000000000000000e+00 4.233729999999999785e-03 1.057292451684670009e+00
1.562500000000000000e-02 2.516579999999999859e-02 1.759150081963328116e+00
0.000000000000000000e+00 2.570069999999999820e-03 3.082649114843221572e+00
0.000000000000000000e+00 3.127229999999999940e-03 1.725007185918364661e+00
0.000000000000000000e+00 1.617920000000000122e-04 2.148608805745688244e+00
3.125000000000000173e-03 9.562589999999999979e-02 1.479285736594175393e+00
0.000000000000000000e+00 5.167040000000000348e-03 1.419969981469303422e+00
3.125000000000000000e-02 4.239739999999999655e-03 2.721133189304729694e+00
0.000000000000000000e+00 4.094939999999999691e-02 2.729113041673975060e-01
0.000000000000000000e+00 2.831999999999999990e-04 3.977679233013819982e+00
0.000000000000000000e+00 1.044989999999999981e-03 5.087843441569001035e-01
2.500000000000000139e-02 1.946299999999999983e-03 4.509860591425959520e+00
1.874999999999999931e-02 3.760959999999999824e-03 1.403208294427279457e+00
0.000000000000000000e+00 9.832319999999998995e-04 4.272402243046718340e+00
0.000000000000000000e+00 6.216960000000000324e-04 9.933039269568044727e-01
3.125000000000000173e-03 4.915199999999999778e-03 1.030974716580809858e+00
0.000000000000000000e+00 4.210320000000000035e-03 7.654450253244599045e-01
0.000000000000000000e+00 5.661310000000000127e-03 7.806461062988268029e-01
0.000000000000000000e+00 2.271440000000000058e-05 3.542197921049787812e+00
0.000000000000000000e+00 1.743739999999999917e-03 2.625197901111063992e+00
2.500000000000000139e-02 3.165590000000000070e-02 2.029466523166312264e+00
0.000000000000000000e+00 2.283889999999999914e-05 1.883716815103349429e+00
1.562500000000000000e-02 2.516579999999999859e-02 3.379554175214509293e+00
0.000000000000000000e+00 3.574209999999999974e-03 3.673476594319771582e+00
2.500000000000000139e-02 5.142459999999999740e-03 2.394718587863064130e+00
0.000000000000000000e+00 4.557059999999999930e-03 1.772429760342617122e+00
0.000000000000000000e+00 6.319739999999999906e-03 4.177699431178206524e+00
1.250000000000000069e-02 1.728829999999999993e-03 2.806902384507979242e+00
0.000000000000000000e+00 4.792639999999999921e-03 8.016812940165607415e-01
0.000000000000000000e+00 1.323579999999999982e-03 3.483757247037629234e+00
1.874999999999999931e-02 4.313469999999999804e-03 1.015736975009871035e+00
0.000000000000000000e+00 2.295440000000000167e-05 4.989263015305430926e+00
1.562500000000000000e-02 4.248319999999999874e-03 1.265387438866853564e+00
1.562500000000000000e-02 2.528449999999999795e-03 3.320477350480159018e+00
0.000000000000000000e+00 3.757819999999999824e-03 4.357111431610104724e+00
6.250000000000000000e-02 9.155339999999999312e-02 1.986361866884736482e+00
0.000000000000000000e+00 4.016639999999999816e-04 2.006958185842129705e+00
0.000000000000000000e+00 4.116179999999999882e-04 1.823186132096731971e+00
0.000000000000000000e+00 1.721730000000000092e-03 4.156180538598952090e+00
0.000000000000000000e+00 4.124159999999999762e-04 2.139533084481279879e+00
0.000000000000000000e+00 7.275520000000000164e-04 1.340272613898046306e+00
1.874999999999999931e-02 1.579780000000000030e-03 1.442864143997468762e-02
1.874999999999999931e-02 2.428609999999999883e-03 6.508515879334719756e-01
3.125000000000000173e-03 9.623859999999999359e-02 3.862240757180111395e+00
0.000000000000000000e+00 3.990340000000000206e-03 3.732403652065742428e+00
0.000000000000000000e+00 1.114619999999999977e-03 1.596243801901950476e+00
0.000000000000000000e+00 3.359510000000000230e-04 3.927185982083654547e+00
0.000000000000000000e+00 2.190779999999999811e-03 4.652888170725312023e+00
0.000000000000000000e+00 1.140399999999999964e-03 2.477046121789455047e+00
0.000000000000000000e+00 1.092740000000000031e-03 9.169799961276886568e-01
1.874999999999999931e-02 9.595700000000000063e-02 3.144568857358776004e+00
0.000000000000000000e+00 1.772029999999999959e-03 4.278832968482698895e+00
2.500000000000000139e-02 2.092740000000000052e-03 4.857935678071924279e+00
1.562500000000000000e-02 9.560789999999999567e-02 1.922917710209614661e+00
0.000000000000000000e+00 1.308099999999999975e-03 4.880916184260173374e+00
0.000000000000000000e+00 9.176959999999999631e-04 2.321414634142091593e+00
0.000000000000000000e+00 1.130040000000000038e-02 3.010404960890276538e+00
2.812500000000000069e-02 1.931329999999999983e-03 1.569265251324718502e+00
1.250000000000000069e-02 2.687360000000000183e-03 4.776249249497518612e+00
2.500000000000000139e-02 2.314430000000000133e-03 4.856962866641366894e+00
0.000000000000000000e+00 2.373060000000000187e-03 2.055427451563654362e+00
3.125000000000000173e-03 2.065279999999999894e-01 4.150242100300881809e+00
9.374999999999999653e-03 1.560060000000000049e-03 1.454581543304597879e+00
0.000000000000000000e+00 7.260230000000000112e-04 2.318158536002639991e+00
2.500000000000000139e-02 1.064319999999999988e-01 2.210462351411994320e+00
1.250000000000000069e-02 3.257789999999999991e-03 2.701460957598682100e+00
0.000000000000000000e+00 1.309850000000000077e-02 1.688576800951439694e+00
0.000000000000000000e+00 1.697280000000000013e-03 1.808394757565784383e-01
3.125000000000000173e-03 4.320130000000000151e-03 4.256536319661533341e+00
9.374999999999999653e-03 2.186179999999999807e-03 4.302667486956794463e+00
0.000000000000000000e+00 2.287640000000000005e-05 3.635113642959050928e+00
2.187499999999999861e-02 3.124989999999999799e-03 2.313386547327682674e+00
1.562500000000000000e-02 2.734020000000000200e-03 3.973665972292263149e+00
2.500000000000000139e-02 2.734460000000000189e-03 4.934652215518849694e+00
3.125000000000000173e-03 3.622139999999999822e-03 2.309522085366125133e+00
0.000000000000000000e+00 1.231909999999999906e-03 2.919743077270858578e+00
1.250000000000000069e-02 2.809309999999999932e-02 4.619607819927640247e-01
0.000000000000000000e+00 3.717699999999999998e-03 2.397448042636851628e+00
0.000000000000000000e+00 9.974009999999999734e-04 4.008367448224024798e+00
3.437500000000000278e-02 1.026129999999999924e-02 1.085319880898775846e+00
6.250000000000000347e-03 2.006079999999999929e-03 3.545862331873955497e+00
1.874999999999999931e-02 3.182529999999999821e-03 1.235829338369842656e+00
9.374999999999999653e-03 9.467760000000000065e-02 9.576337662469119882e-01
1.250000000000000069e-02 2.831619999999999970e-03 4.394040992650702471e+00
0.000000000000000000e+00 5.215999999999999933e-04 4.892058139895433477e+00
0.000000000000000000e+00 5.190280000000000457e-04 2.386035069143110476e+00
0.000000000000000000e+00 4.385280000000000081e-03 3.102616107036293869e+00
2.187499999999999861e-02 1.802299999999999952e-03 2.001684758684916243e+00
3.125000000000000173e-03 2.238850000000000128e-03 3.751099673528401901e+00
3.437500000000000278e-02 9.173130000000000173e-02 4.021229582301209859e+00
0.000000000000000000e+00 2.041470000000000090e-03 2.402337564153647076e+00
0.000000000000000000e+00 2.295959999999999952e-05 2.976205250410181691e+00
0.000000000000000000e+00 5.939950000000000481e-04 5.261914973505271709e-01
2.812500000000000069e-02 4.414210000000000009e-03 6.863031065330499336e-01
1.874999999999999931e-02 4.334909999999999979e-03 4.300241186084918787e-01
0.000000000000000000e+00 1.978300000000000110e-03 2.393045673100905990e+00
3.125000000000000173e-03 2.189500000000000040e-03 3.232532935820978004e+00
0.000000000000000000e+00 3.585880000000000165e-04 4.834304658433954849e+00
0.000000000000000000e+00 5.132560000000000204e-04 3.960122688384043244e+00
0.000000000000000000e+00 2.072899999999999916e-03 7.001764479660332885e-01
9.374999999999999653e-03 2.691520000000000197e-03 3.675496288380971421e+00
9.374999999999999653e-03 9.291670000000000484e-02 3.317614146504120676e+00
2.500000000000000139e-02 1.232900000000000098e-03 4.065664719163367025e+00
0.000000000000000000e+00 0.000000000000000000e+00 3.425091676041123190e+00
1.156250000000000056e-01 8.986270000000000369e-02 1.807744312229420114e+00
0.000000000000000000e+00 1.145860000000000064e-03 3.228440832156793228e+00
0.000000000000000000e+00 4.049920000000000147e-04 3.399495422402837974e+00
0.000000000000000000e+00 9.894400000000000677e-04 2.315953898088704221e+00
1.874999999999999931e-02 9.106490000000000418e-02 4.022352363779571505e+00
0.000000000000000000e+00 9.131850000000000384e-03 3.693141350507389564e-01
2.187499999999999861e-02 2.691460000000000120e-03 1.107186237525176198e-01
1.874999999999999931e-02 2.800149999999999861e-02 4.310324343045641271e+00
0.000000000000000000e+00 3.977180000000000298e-02 2.520167802900759035e+00
0.000000000000000000e+00 3.050820000000000094e-03 1.059992079822125177e+00
1.062499999999999972e-01 8.074779999999999458e-02 1.068489690672346226e+00
9.374999999999999653e-03 7.070719999999999957e-04 3.943847888838845073e+00
0.000000000000000000e+00 7.371809999999999474e-04 4.221427846656128358e-01
2.812500000000000069e-02 1.623939999999999932e-03 1.060637923600374233e+00
3.125000000000000173e-03 1.727210000000000073e-03 4.880300217753621439e+00
0.000000000000000000e+00 2.655359999999999730e-04 3.910726844965389803e-01
9.374999999999999653e-03 2.563580000000000199e-03 1.276893894242911554e+00
1.874999999999999931e-02 9.119670000000000554e-02 3.892189422905807827e+00
0.000000000000000000e+00 1.203989999999999921e-02 3.221369543471912955e+00
0.000000000000000000e+00 3.456700000000000050e-03 2.908895049345383566e-02
9.374999999999999653e-03 9.319940000000000169e-02 6.271144249285987016e-02
0.000000000000000000e+00 2.469700000000000020e-03 1.699805629124329531e+00
2.812500000000000069e-02 3.949380000000000251e-02 1.912978202401695027e+00
3.125000000000000173e-03 2.030979999999999938e-03 3.241843171242051014e+00
0.000000000000000000e+00 3.982720000000000249e-04 2.413574390316385987e+00
9.374999999999999653e-03 3.059200000000000200e-03 2.682719568869366800e+00
0.000000000000000000e+00 3.550269999999999902e-03 4.783577558702241106e+00
0.000000000000000000e+00 1.918720000000000061e-03 2.983853282489243419e+00
0.000000000000000000e+00 2.286900000000000076e-05 4.824475170036324201e+00
0.000000000000000000e+00 4.313299999999999947e-03 2.928767715445236064e+00
1.874999999999999931e-02 4.167170000000000422e-03 3.594092333773866610e+00
0.000000000000000000e+00 1.037479999999999913e-03 2.972996553486489280e+00
0.000000000000000000e+00 3.727550000000000047e-03 1.670823221452955032e-02
0.000000000000000000e+00 4.037120000000000270e-04 7.503745525009986039e-02
0.000000000000000000e+00 3.504480000000000095e-02 1.345880312332792705e+00
0.000000000000000000e+00 1.360639999999999983e-03 5.050529918704371735e-01
0.000000000000000000e+00 1.472000000000000001e-04 4.037910272696251468e+00
