6.250000000000000347e-03 9.499069999999999736e-02 3.946098453264959893e+00
0.000000000000000000e+00 0.000000000000000000e+00 4.264037754807192826e-01
1.874999999999999931e-02 1.205520000000000029e-02 3.190215613312362919e+00
0.000000000000000000e+00 6.208640000000000513e-04 4.451377416911917351e+00
0.000000000000000000e+00 1.718110000000000055e-05 4.759249673893377164e+00
0.000000000000000000e+00 3.708670000000000022e-02 3.592791418139682946e+00
0.000000000000000000e+00 2.078079999999999999e-04 3.762023624370983033e+00
2.500000000000000139e-02 2.577540000000000126e-03 2.769851892025226858e-01
9.374999999999999653e-03 5.236360000000000320e-02 3.710799558105513540e+00
0.000000000000000000e+00 1.058370000000000101e-03 1.551903821309399856e+00
3.125000000000000173e-03 2.447550000000000160e-03 3.061804332340709145e+00
0.000000000000000000e+00 4.234810000000000202e-04 2.209691756999079271e+00
0.000000000000000000e+00 9.357439999999999638e-04 2.578271525253130303e+00
9.374999999999999653e-03 2.123579999999999912e-01 3.787428597849738843e+00
9.062499999999999722e-02 6.002400000000000097e-02 2.130000532876330066e+00
0.000000000000000000e+00 4.692030000000000137e-04 4.846157542221294356e+00
1.874999999999999931e-02 2.131459999999999952e-03 9.741255540471244201e-01
9.374999999999999653e-03 2.592060000000000197e-03 2.139353447174179301e+00
0.000000000000000000e+00 4.233530000000000106e-04 4.995474140619239556e+00
0.000000000000000000e+00 4.665089999999999884e-04 9.362021132892750508e-01
2.187499999999999861e-02 2.448769999999999853e-03 2.713383440908605060e+00
0.000000000000000000e+00 4.901950000000000404e-03 1.057132528522811032e+00
0.000000000000000000e+00 4.300739999999999945e-03 3.450476724680245244e+00
0.000000000000000000e+00 3.828479999999999774e-04 4.546566693820222937e+00
9.374999999999999653e-03 1.776959999999999954e-03 1.081690472414768678e+00
0.000000000000000000e+00 8.756609999999999741e-03 3.063535480620085405e+00
3.125000000000000173e-03 9.915389999999999621e-03 7.972059433089967451e-01
0.000000000000000000e+00 8.622249999999999923e-04 1.501263416167899489e+00
3.749999999999999861e-02 9.181069999999999509e-02 4.483690305488413408e+00
0.000000000000000000e+00 5.075200000000000197e-04 9.762791458180603010e-01
0.000000000000000000e+00 9.180800000000000462e-04 4.154845282538012441e+00
2.500000000000000139e-02 1.462399999999999985e-03 4.877511218786806380e-01
1.874999999999999931e-02 4.364739999999999766e-03 8.287735102405496823e-01
0.000000000000000000e+00 1.011900000000000039e-03 4.622678957166458602e+00
0.000000000000000000e+00 5.468159999999999904e-04 7.227517498896296466e-01
2.500000000000000139e-02 3.265979999999999925e-03 1.744235687773161292e+00
0.000000000000000000e+00 1.627520000000000030e-04 3.725067938560485459e+00
0.000000000000000000e+00 1.992849999999999830e-02 2.966962441719755983e+00
1.562500000000000000e-02 2.056130000000000197e-03 1.827073083751262317e+00
3.437500000000000278e-02 3.069979999999999931e-02 2.771414519959359168e+00
0.000000000000000000e+00 2.168960000000000159e-03 1.044296923474055117e+00
0.000000000000000000e+00 2.344189999999999902e-03 3.439428696759962989e+00
0.000000000000000000e+00 3.898620000000000210e-03 2.618336907512209155e+00
0.000000000000000000e+00 7.326919999999999570e-04 3.013490050899457984e+00
1.250000000000000069e-02 2.385920000000000141e-03 3.726406589758712862e+00
1.250000000000000069e-02 4.582350000000000312e-02 2.409089686613844705e+00
0.000000000000000000e+00 4.333499999999999679e-03 3.314708278132175501e+00
0.000000000000000000e+00 3.995520000000000126e-04 1.017952467410355055e+00
6.250000000000000347e-03 5.323519999999999988e-03 1.886965109911991512e+00
0.000000000000000000e+00 7.098049999999999846e-04 4.841908768024455689e+00
7.499999999999999722e-02 9.248299999999999577e-02 2.915968215085467108e+00
0.000000000000000000e+00 4.458550000000000360e-03 4.236788237949519420e+00
0.000000000000000000e+00 4.179030000000000136e-04 4.560088209974793472e+00
0.000000000000000000e+00 4.328059999999999893e-03 3.689603146460325167e+00
2.812500000000000069e-02 8.512189999999999340e-03 2.795883128537350881e+00
0.000000000000000000e+00 2.598850000000000205e-03 3.179747120972804542e+00
0.000000000000000000e+00 5.213250000000000002e-03 4.422458707881542495e+00
2.187499999999999861e-02 2.634050000000000193e-03 7.808139971991256978e-01
0.000000000000000000e+00 1.305740000000000026e-02 4.543097500425936630e+00
0.000000000000000000e+00 7.073630000000000239e-04 2.850788023917347758e+00
1.250000000000000069e-02 2.356739999999999963e-03 3.023090580796258031e+00
0.000000000000000000e+00 7.814910000000000433e-04 2.929120769370856525e+00
0.000000000000000000e+00 8.273420000000000080e-04 2.761087939000034241e-01
0.000000000000000000e+00 7.321149999999999793e-04 6.556335073409508274e-01
0.000000000000000000e+00 3.957790000000000201e-04 3.659968295265488170e+00
3.125000000000000173e-03 1.639550000000000035e-03 1.683392314164917192e+00
4.374999999999999722e-02 9.107060000000000155e-02 2.762423700483906952e+00
0.000000000000000000e+00 1.882619999999999997e-03 1.078240518012163029e+00
3.125000000000000000e-02 9.133310000000000040e-02 5.862074210067280688e-01
0.000000000000000000e+00 5.487180000000000139e-04 8.614398382588500658e-01
0.000000000000000000e+00 3.778240000000000201e-04 3.040290699234582394e+00
1.562500000000000000e-02 3.024809999999999999e-02 4.944477109624559219e+00
0.000000000000000000e+00 3.510019999999999980e-03 3.953049088877674144e+00
0.000000000000000000e+00 9.292799999999999932e-04 3.704547201066203499e+00
8.437500000000000555e-02 4.090499999999999692e-02 1.548787831703983375e+00
0.000000000000000000e+00 1.162819999999999956e-03 4.951201685992209001e+00
7.187499999999999445e-02 1.704610000000000153e-02 2.002773469946935059e+00
3.125000000000000173e-03 2.621440000000000055e-03 1.123189402594251707e+00
0.000000000000000000e+00 3.731780000000000080e-03 4.261370263008467774e+00
0.000000000000000000e+00 9.569920000000000423e-04 4.052857586107449173e+00
6.250000000000000347e-03 1.158210000000000012e-03 4.434500015007849072e+00
0.000000000000000000e+00 1.165119999999999958e-03 2.183020741536275011e+00
0.000000000000000000e+00 9.201279999999999832e-04 1.150924675846298761e+00
0.000000000000000000e+00 3.901439999999999834e-04 2.075909422886359490e+00
0.000000000000000000e+00 1.011249999999999996e-03 3.287185048629544859e+00
0.000000000000000000e+00 1.063869999999999963e-03 1.795556718187378831e+00
0.000000000000000000e+00 4.959039999999999629e-03 4.822489615672126639e+00
0.000000000000000000e+00 6.767620000000000233e-03 2.763338104288147079e+00
0.000000000000000000e+00 3.901949999999999950e-03 4.381266341770443162e+00
0.000000000000000000e+00 1.108669999999999968e-03 4.896183255460567763e-01
6.250000000000000347e-03 6.799359999999999953e-03 1.697808454158268976e+00
2.187499999999999861e-02 4.193020000000000427e-03 1.310728878228905048e+00
1.250000000000000069e-02 9.415519999999999445e-02 2.055104007585939030e+00
2.187499999999999861e-02 2.186560000000000153e-03 2.718996159776046362e+00
0.000000000000000000e+00 4.116480000000000269e-04 4.688664637597335982e+00
0.000000000000000000e+00 2.693179999999999880e-03 3.196288893409655607e+00
3.125000000000000173e-03 1.493279999999999955e-02 6.467296210750345109e-01
3.125000000000000173e-03 8.388610000000000511e-02 1.978560029257309782e+00
1.874999999999999931e-02 2.263419999999999929e-03 1.427271901601724347e+00
0.000000000000000000e+00 7.069780000000000335e-04 3.701642423939883297e+00
0.000000000000000000e+00 4.293810000000000010e-04 4.359998413928180661e+00
0.000000000000000000e+00 5.941819999999999567e-04 4.055391624990954291e+00
3.125000000000000173e-03 2.762579999999999897e-02 4.543849500343982939e+00
0.000000000000000000e+00 2.882560000000000265e-04 3.734798652926915707e+00
0.000000000000000000e+00 2.902340000000000215e-03 2.880002100974734525e+00
0.000000000000000000e+00 3.426460000000000096e-03 3.478993494951283960e+00
0.000000000000000000e+00 5.139200000000000018e-03 1.116201839456546496e+00
0.000000000000000000e+00 2.218749999999999802e-03 3.779180266075767847e+00
9.374999999999999653e-03 2.349379999999999871e-03 2.517018284305018838e+00
1.250000000000000069e-02 2.185729999999999878e-03 6.831570169398060166e-02
0.000000000000000000e+00 1.093910000000000021e-03 2.816703727231169463e+00
2.187499999999999861e-02 9.220129999999999992e-02 3.334884687059655572e+00
0.000000000000000000e+00 5.119939999999999908e-03 1.774458132020463985e+00
0.000000000000000000e+00 1.299900000000000101e-03 4.751404210126910499e+00
0.000000000000000000e+00 1.123899999999999942e-03 2.430424941180133747e+00
3.125000000000000173e-03 1.028079999999999966e-02 4.329463828531343594e+00
1.874999999999999931e-02 3.244990000000000114e-03 1.663916220522251965e+00
0.000000000000000000e+00 0.000000000000000000e+00 2.266155759366191180e+00
0.000000000000000000e+00 1.710850000000000088e-03 3.508377680493375284e+00
3.125000000000000173e-03 4.682750000000000280e-03 3.060982786876373485e+00
3.125000000000000173e-03 1.055299999999999988e-01 8.531576589640388342e-01
0.000000000000000000e+00 1.145339999999999900e-03 4.287978879779426045e+00
1.874999999999999931e-02 2.408319999999999819e-03 2.111697455139245339e+00
0.000000000000000000e+00 3.554279999999999939e-02 1.788765976408630998e+00
6.250000000000000347e-03 1.646590000000000076e-03 2.032623950923650558e+00
2.500000000000000139e-02 1.853819999999999947e-03 2.312500090983095724e+00
2.812500000000000069e-02 2.035330000000000125e-03 3.120514804846858503e+00
0.000000000000000000e+00 1.018180000000000040e-03 3.439790619610189726e+00
2.812500000000000069e-02 9.319180000000000519e-02 4.602016051722098489e+00
3.437500000000000278e-02 9.301399999999999946e-02 3.060107008828750086e+00
0.000000000000000000e+00 1.507350000000000009e-02 2.764868137286857319e+00
3.125000000000000173e-03 1.972419999999999903e-03 2.061315301370941988e+00
1.874999999999999931e-02 9.064060000000000172e-02 3.502952362113372242e+00
0.000000000000000000e+00 3.734640000000000008e-04 1.025386490091561020e+00
0.000000000000000000e+00 8.943999999999999477e-04 1.696027192016308360e-01
3.437500000000000278e-02 2.532990000000000155e-03 3.101573048932344090e+00
0.000000000000000000e+00 3.650559999999999959e-04 2.276187586778216421e+00
1.562500000000000000e-02 2.513019999999999924e-03 1.666832737390972596e+00
9.374999999999999653e-03 1.873789999999999961e-03 7.668475180616030062e-01
0.000000000000000000e+00 2.777599999999999969e-04 1.368438817647672945e+00
0.000000000000000000e+00 2.121660000000000039e-03 1.365593020935449431e+00
0.000000000000000000e+00 4.048659999999999932e-03 2.427560354028970746e+00
0.000000000000000000e+00 4.656120000000000137e-04 1.423241802530991196e+00
0.000000000000000000e+00 2.176640000000000085e-04 3.876642028543062501e+00
9.062499999999999722e-02 9.206419999999999881e-02 2.889565758042244248e+00
0.000000000000000000e+00 1.017789999999999971e-03 3.089890672087185042e+00
0.000000000000000000e+00 2.028990000000000047e-03 1.046957463292974566e-02
0.000000000000000000e+00 4.867070000000000250e-03 2.809764051088659897e+00
2.187499999999999861e-02 2.723900000000000019e-03 2.499425720870520173e+00
1.250000000000000069e-02 2.660159999999999955e-03 7.207656807371359831e-01
3.125000000000000000e-02 2.059459999999999937e-03 3.038677921105823465e+00
9.374999999999999653e-03 1.050610000000000016e-01 3.815081563445895441e+00
1.874999999999999931e-02 5.326850000000000161e-03 1.849565948046009822e+00
3.437500000000000278e-02 9.273679999999999424e-02 1.226771670345832010e+00
6.250000000000000347e-03 1.029640000000000069e-02 3.731975945521504023e+00
3.125000000000000173e-03 1.007860000000000006e-02 9.570915577270122654e-01
0.000000000000000000e+00 2.693890000000000000e-03 1.116515370767847237e+00
2.812500000000000069e-02 1.986299999999999871e-03 3.239278936450873392e+00
0.000000000000000000e+00 4.265590000000000202e-04 4.311994359887457939e+00
0.000000000000000000e+00 9.585859999999999867e-03 3.389326624569340751e+00
0.000000000000000000e+00 3.454210000000000093e-03 3.279014536049531081e+00
1.874999999999999931e-02 1.723329999999999914e-03 3.471449748244519462e+00
0.000000000000000000e+00 5.359489999999999740e-03 1.459964132622010968e+00
6.250000000000000347e-03 6.799359999999999953e-03 2.770860297266891870e+00
0.000000000000000000e+00 1.112570000000000009e-03 8.263522783126914240e-01
0.000000000000000000e+00 3.161999999999999880e-04 2.288215848411506492e+00
0.000000000000000000e+00 3.066430000000000197e-03 1.716978346521463195e+00
3.125000000000000173e-03 5.104509999999999603e-03 1.934569597961688814e+00
6.250000000000000347e-03 1.022679999999999943e-02 4.754077248731176653e+00
2.500000000000000139e-02 1.825149999999999993e-03 3.357407792320193263e+00
0.000000000000000000e+00 9.207080000000000082e-04 1.200088066510760054e+00
1.250000000000000069e-02 2.508100000000000086e-03 1.331417821417232306e+00
2.500000000000000139e-02 1.885890000000000092e-03 2.577225502879600949e+00
1.874999999999999931e-02 3.060569999999999957e-02 1.375997878858449264e+00
0.000000000000000000e+00 1.512320000000000049e-04 1.896066015135868810e+00
6.250000000000000347e-03 1.735540000000000043e-03 3.375986667040030031e+00
0.000000000000000000e+00 9.873279999999999904e-04 3.087980098599741652e+00
0.000000000000000000e+00 1.103170000000000105e-03 7.217698712091286106e-01
0.000000000000000000e+00 1.644990000000000037e-03 1.563276826258094943e+00
0.000000000000000000e+00 3.649279999999999863e-04 3.418615438890302727e+00
6.250000000000000347e-03 1.626049999999999978e-03 3.176506684584491147e+00
0.000000000000000000e+00 3.378050000000000063e-03 1.661229309709504331e+00
5.312499999999999861e-02 1.058039999999999953e-01 8.690267498839410187e-01
0.000000000000000000e+00 5.217219999999999844e-03 2.790415934649744134e+00
1.562500000000000000e-02 4.072580000000000124e-03 1.786264461174799090e+00
2.500000000000000139e-02 2.265919999999999827e-03 2.953502202380055675e+00
3.749999999999999861e-02 9.286200000000000010e-02 2.156625668496553461e-01
0.000000000000000000e+00 9.994240000000000589e-04 1.267637851366020252e+00
3.125000000000000173e-03 4.409859999999999822e-03 3.748713565530184866e+00
6.250000000000000347e-03 5.297220000000000054e-03 1.889472600950170555e-01
0.000000000000000000e+00 6.290659999999999568e-04 9.260468226236423517e-01
0.000000000000000000e+00 3.823769999999999882e-04 4.143233808538766993e+00
6.250000000000000347e-03 1.860099999999999948e-03 3.480587768797717807e+00
0.000000000000000000e+00 1.039299999999999946e-03 3.415456653230589446e+00
0.000000000000000000e+00 4.199680000000000015e-04 2.410899955061728051e+00
0.000000000000000000e+00 2.295740000000000148e-05 4.901424063840681633e+00
0.000000000000000000e+00 5.289029999999999470e-04 3.422082930657868616e+00
6.250000000000000347e-03 9.736169999999999547e-02 3.395359247385716372e+00
1.250000000000000069e-02 1.397760000000000061e-03 3.209541414453906505e+00
2.500000000000000139e-02 2.256699999999999939e-03 4.156065836503239019e+00
0.000000000000000000e+00 3.382109999999999977e-02 5.172443768979428924e-01
0.000000000000000000e+00 5.495040000000000298e-04 5.552176750824222573e-01
1.874999999999999931e-02 1.824319999999999935e-03 1.443106160244262526e+00
0.000000000000000000e+00 9.639680000000000514e-04 4.026277718510853809e+00
0.000000000000000000e+00 1.077459999999999946e-01 1.137879216597513787e+00
2.812500000000000069e-02 1.936580000000000029e-03 4.705735410185790890e+00
0.000000000000000000e+00 1.518079999999999994e-03 3.564001727357687166e+00
3.125000000000000173e-03 9.795489999999999753e-02 1.199321870631373965e+00
1.250000000000000069e-02 1.263399999999999940e-02 7.571207684114994452e-01
3.125000000000000173e-03 1.308229999999999983e-02 2.272335986920425377e+00
1.562500000000000000e-02 2.373380000000000021e-03 3.769991088224764475e+00
2.500000000000000139e-02 2.217600000000000127e-03 1.694002746874423426e-01
1.562500000000000000e-02 9.400350000000000372e-02 3.217073361697457834e+00
0.000000000000000000e+00 1.169340000000000050e-03 4.844415685851981124e+00
3.125000000000000173e-03 2.465469999999999988e-03 4.656681178980432101e+00
0.000000000000000000e+00 3.798760000000000201e-04 2.852580990687648921e+00
0.000000000000000000e+00 4.222629999999999786e-04 4.989538736673440056e+00
3.125000000000000000e-02 1.131869999999999925e-02 1.065443538645653554e+00
3.437500000000000278e-02 9.125569999999999515e-02 1.536530240020000271e+00
3.125000000000000173e-03 5.194820000000000167e-03 1.707251622296980242e+00
0.000000000000000000e+00 2.306939999999999973e-05 5.651528492764790190e-02
0.000000000000000000e+00 1.035969999999999990e-03 2.013222471912960998e+00
1.250000000000000069e-02 8.882560000000000282e-04 2.691003108049774717e+00
2.500000000000000139e-02 3.227069999999999852e-03 2.517771428218902763e+00
5.312499999999999861e-02 9.246959999999999902e-02 3.124734847333987542e+00
0.000000000000000000e+00 2.647719999999999783e-04 2.606951056804382549e+00
9.374999999999999653e-03 1.598400000000000038e-03 1.835886202455583316e+00
1.874999999999999931e-02 1.353009999999999977e-02 3.241327848706637038e+00
0.000000000000000000e+00 4.209810000000000136e-04 3.250438766529260448e+00
1.562500000000000000e-02 1.355969999999999962e-03 3.675828632809675867e+00
2.187499999999999861e-02 9.336440000000000017e-02 1.257755501814763477e+00
3.125000000000000173e-03 1.965249999999999983e-03 1.130859268502119042e+00
4.374999999999999722e-02 2.472009999999999832e-02 2.562253508365517796e+00
0.000000000000000000e+00 9.566719999999999911e-04 3.227388051943861136e+00
1.250000000000000069e-02 2.559679999999999941e-03 1.450194699453751790e+00
0.000000000000000000e+00 0.000000000000000000e+00 2.817049772478496195e+00
0.000000000000000000e+00 1.250500000000000092e-03 1.075889601780893212e+00
3.125000000000000173e-03 6.574339999999999698e-03 3.651245134097760303e+00
0.000000000000000000e+00 9.024000000000000337e-04 2.491892321719348047e+00
6.250000000000000347e-03 3.382019999999999905e-03 3.655394644970598073e+00
0.000000000000000000e+00 2.097019999999999787e-03 1.868755582273329274e+00
0.000000000000000000e+00 2.424580000000000019e-04 1.826295280627548978e+00
0.000000000000000000e+00 2.227489999999999912e-05 2.382666359501988573e+00
3.125000000000000173e-03 4.122599999999999702e-03 3.533181053807188832e+00
0.000000000000000000e+00 9.265430000000000497e-04 2.582358480082358465e-01
0.000000000000000000e+00 1.034500000000000046e-03 3.503321847409917478e+00
0.000000000000000000e+00 3.777979999999999793e-03 3.409282080791579794e+00
0.000000000000000000e+00 1.148539999999999978e-03 3.291686892055810887e+00
1.562500000000000000e-02 9.204229999999999356e-02 1.977762956675243045e+00
9.374999999999999653e-03 9.494289999999999674e-02 4.978406739805004477e+00
0.000000000000000000e+00 2.189489999999999839e-02 2.419334881069991283e+00
3.125000000000000173e-03 9.084460000000000798e-03 1.255553347236655348e+00
0.000000000000000000e+00 4.071670000000000150e-02 2.974066974017222531e+00
0.000000000000000000e+00 3.186299999999999983e-03 3.770725385070394786e+00
1.250000000000000069e-02 2.040450000000000076e-03 6.533626395503333573e-01
0.000000000000000000e+00 4.222079999999999800e-04 4.815016880674927613e+00
0.000000000000000000e+00 1.909700000000000029e-05 3.424162985729670705e+00
0.000000000000000000e+00 7.996989999999999654e-02 2.421212371517178497e-01
1.250000000000000069e-02 3.112450000000000112e-03 4.552060177256550544e-01
1.874999999999999931e-02 1.977730000000000026e-03 4.780885825867450478e+00
0.000000000000000000e+00 1.044540000000000052e-03 1.396477686733232471e+00
0.000000000000000000e+00 3.556380000000000262e-04 2.808487264072923484e+00
2.500000000000000139e-02 9.244070000000000065e-02 4.697079464844749808e+00
0.000000000000000000e+00 2.085130000000000143e-05 8.907860761901348345e-01
0.000000000000000000e+00 4.674619999999999991e-03 4.231072227785817930e+00
2.187499999999999861e-02 1.839549999999999909e-03 1.009631972405417688e+00
1.562500000000000000e-02 3.465080000000000243e-02 1.519182915563254133e+00
6.250000000000000347e-03 9.832079999999999986e-02 2.564313379556701467e+00
2.812500000000000069e-02 9.204149999999999832e-02 1.006044393183179730e+00
0.000000000000000000e+00 9.249920000000000234e-04 2.874802428738034266e+00
5.937499999999999722e-02 3.955100000000000282e-02 4.359307680432086940e+00
3.437500000000000278e-02 3.067119999999999916e-02 1.624599226854801071e+00
0.000000000000000000e+00 1.098819999999999918e-03 3.452656797865949478e+00
0.000000000000000000e+00 3.562150000000000039e-04 4.550069038614637407e+00
2.187499999999999861e-02 9.316720000000000557e-02 1.776123340684699237e+00
0.000000000000000000e+00 7.687679999999999687e-04 2.823890801368312164e+00
1.562500000000000000e-02 1.288770000000000063e-03 8.349536691055192694e-01
2.812500000000000069e-02 7.187139999999999848e-03 4.096031905132332618e+00
3.125000000000000173e-03 2.825779999999999959e-02 1.395294255003840078e+00
0.000000000000000000e+00 8.404229999999999730e-04 4.229032539256146528e+00
3.125000000000000173e-03 1.631679999999999936e-03 1.066244335352952710e+00
3.125000000000000173e-03 8.613010000000000804e-03 1.812597045795518280e+00
0.000000000000000000e+00 9.704320000000000220e-04 9.111613843990062911e-01
0.000000000000000000e+00 6.647680000000000429e-04 2.940156703039322750e+00
0.000000000000000000e+00 1.575679999999999930e-04 3.881908669477502904e+00
1.250000000000000069e-02 2.449980000000000040e-03 2.743059498560898479e+00
6.250000000000000347e-03 1.187260000000000095e-03 1.164588320354520423e+00
0.000000000000000000e+00 1.838080000000000128e-04 3.550564348738804998e-01
0.000000000000000000e+00 3.165060000000000096e-02 1.077227501303617441e+00
6.250000000000000347e-03 6.799359999999999953e-03 2.095186618371354115e+00
0.000000000000000000e+00 4.421379999999999928e-03 1.969519120176121962e+00
1.250000000000000069e-02 2.656060000000000018e-03 1.712664054770181465e+00
0.000000000000000000e+00 7.362830000000000112e-04 2.028272527041008022e+00
3.125000000000000173e-03 5.212030000000000309e-03 2.821395630885161765e+00
3.125000000000000173e-03 4.915199999999999778e-03 2.232634246238747178e+00
5.000000000000000278e-02 9.334599999999999842e-02 4.785187661920514479e+00
0.000000000000000000e+00 1.766310000000000034e-05 1.030570819371259716e+00
0.000000000000000000e+00 3.356549999999999812e-02 3.584856374682362734e+00
0.000000000000000000e+00 1.000770000000000002e-03 3.098211279236595672e-02
1.874999999999999931e-02 1.792130000000000068e-03 1.467101221928618360e+00
0.000000000000000000e+00 1.965160000000000171e-02 2.271348052273233442e+00
0.000000000000000000e+00 1.124290000000000012e-03 4.474155255674357790e+00
0.000000000000000000e+00 0.000000000000000000e+00 4.444659360357147371e+00
1.874999999999999931e-02 2.565700000000000185e-03 1.908322958694258498e+00
3.125000000000000173e-03 9.281710000000000307e-03 3.213889186217546712e+00
0.000000000000000000e+00 4.544699999999999608e-03 3.417316381812328885e+00
2.812500000000000069e-02 9.162270000000000136e-02 4.922514240784709116e+00
3.125000000000000173e-03 2.406140000000000188e-03 4.228861582735365943e-01
0.000000000000000000e+00 1.945600000000000075e-04 3.271398277953514455e+00
1.874999999999999931e-02 1.670660000000000027e-03 3.861309449329024535e+00
1.562500000000000000e-02 2.043199999999999791e-03 3.652731247975635753e+00
0.000000000000000000e+00 3.792450000000000161e-03 4.103016762708599607e+00
0.000000000000000000e+00 1.007400000000000092e-03 4.270516012064168976e+00
0.000000000000000000e+00 9.617480000000000083e-04 2.880048381572501981e+00
9.374999999999999653e-03 2.348160000000000178e-03 4.756058513323260684e+00
0.000000000000000000e+00 7.328200000000000209e-04 2.710071400642029893e+00
3.125000000000000173e-03 3.497220000000000103e-03 4.003645922727153028e+00
1.250000000000000069e-02 5.259110000000000000e-03 3.789909919921501391e+00
0.000000000000000000e+00 7.330130000000000239e-04 3.815349899847004345e+00
6.250000000000000000e-02 4.051720000000000321e-02 4.315505454288905973e+00
2.500000000000000139e-02 2.351680000000000090e-03 3.457105407751742909e+00
6.250000000000000347e-03 1.772350000000000010e-03 1.532357621567200789e+00
0.000000000000000000e+00 1.022029999999999944e-03 3.210772311794547917e+00
0.000000000000000000e+00 6.724790000000000238e-04 5.960876401207582109e-01
0.000000000000000000e+00 4.399489999999999824e-03 3.060318662249029042e+00
0.000000000000000000e+00 5.070359999999999884e-04 1.627165706395201639e+00
4.687500000000000000e-02 9.268909999999999649e-02 3.608416559899087162e+00
0.000000000000000000e+00 1.310659999999999950e-03 5.155279843757970548e-01
0.000000000000000000e+00 1.022029999999999944e-03 1.632205044998269461e+00
3.125000000000000173e-03 3.015869999999999922e-03 4.055505561163835759e-01
0.000000000000000000e+00 5.278080000000000532e-04 3.572500205625178671e-01
0.000000000000000000e+00 4.906620000000000426e-03 1.204644183426342163e+00
6.250000000000000347e-03 1.674300000000000094e-03 2.631941941192375456e+00
2.812500000000000069e-02 9.471050000000000302e-02 2.406872361867272048e+00
0.000000000000000000e+00 9.283839999999999801e-04 1.521810379637056787e+00
4.374999999999999722e-02 1.066809999999999981e-01 6.619146735591036057e-01
0.000000000000000000e+00 0.000000000000000000e+00 3.154703864329299723e+00
0.000000000000000000e+00 3.809219999999999880e-03 3.726442009950468481e+00
3.125000000000000000e-02 9.153150000000000175e-02 4.347922046803643248e+00
2.187499999999999861e-02 2.077120000000000008e-03 8.663180299452344357e-02
1.562500000000000000e-02 2.700349999999999799e-03 3.038831285594045806e+00
2.812500000000000069e-02 9.169689999999999785e-02 3.240090435124419077e+00
0.000000000000000000e+00 2.825990000000000229e-04 3.412872375746913711e+00
0.000000000000000000e+00 5.516030000000000108e-04 1.762628164365751093e+00
0.000000000000000000e+00 4.109769999999999786e-04 1.325139054943236250e-01
0.000000000000000000e+00 1.349200000000000052e-02 3.216436574064026388e+00
0.000000000000000000e+00 3.842559999999999748e-04 3.695985392331801123e+00
2.500000000000000139e-02 2.533289999999999847e-02 4.926959615577476193e+00
1.250000000000000069e-02 2.413929999999999895e-02 2.855130619644339340e+00
2.187499999999999861e-02 1.988540000000000012e-03 2.525023673930416379e+00
1.250000000000000069e-02 2.007940000000000159e-03 2.052247080151387237e+00
6.250000000000000347e-03 2.132160000000000132e-03 2.659312731164293897e+00
0.000000000000000000e+00 2.172540000000000148e-03 4.723714330655205629e+00
0.000000000000000000e+00 1.837429999999999966e-02 2.679820098698563857e+00
3.125000000000000173e-03 1.305539999999999999e-03 4.289691585395571494e+00
0.000000000000000000e+00 7.441060000000000209e-04 1.623770754874748201e-01
0.000000000000000000e+00 3.935359999999999943e-04 2.665024554628097953e+00
0.000000000000000000e+00 7.324360000000000462e-04 2.464507475202368347e+00
0.000000000000000000e+00 7.992479999999999724e-03 2.519492721222178044e+00
0.000000000000000000e+00 4.330869999999999685e-03 3.372641953907851153e-01
0.000000000000000000e+00 1.989120000000000092e-04 7.254167101444275456e-02
0.000000000000000000e+00 3.872640000000000110e-04 2.839569592914117369e+00
0.000000000000000000e+00 2.757250000000000152e-03 3.303801356745382112e+00
0.000000000000000000e+00 6.517539999999999445e-02 1.169884748980096756e+00
9.374999999999999653e-03 2.870100000000000082e-02 3.063192980747662553e+00
2.187499999999999861e-02 1.075409999999999977e-01 3.922560075659252021e+00
0.000000000000000000e+00 3.917749999999999705e-02 4.166056327345371457e+00
1.874999999999999931e-02 9.245680000000000565e-02 3.901115785465104402e+00
0.000000000000000000e+00 4.423869999999999886e-03 2.251314306031021673e+00
2.812500000000000069e-02 2.685059999999999964e-03 1.876336048757157204e+00
0.000000000000000000e+00 1.102949999999999894e-03 5.232461567259077961e-01
6.250000000000000347e-03 4.946179999999999674e-03 2.745588242344505048e+00
2.812500000000000069e-02 9.227430000000000354e-02 5.860129549562798079e-01
0.000000000000000000e+00 7.764480000000000036e-04 4.684193818469849724e+00
0.000000000000000000e+00 1.065889999999999893e-03 3.382804004407101051e+00
0.000000000000000000e+00 9.438720000000000053e-04 1.361299957619371837e-01
0.000000000000000000e+00 5.249919999999999500e-04 4.266933001578024687e+00
2.500000000000000139e-02 2.285500000000000205e-03 5.223044424942263619e-01
0.000000000000000000e+00 2.721410000000000062e-03 1.466563046722217489e+00
0.000000000000000000e+00 2.650880000000000207e-04 3.117087120328748684e-01
3.125000000000000000e-02 1.077520000000000006e-01 1.423938078310147848e+00
9.374999999999999653e-03 2.024000000000000191e-03 1.806754312377385041e+00
0.000000000000000000e+00 8.822399999999999557e-04 3.580157248788326640e+00
0.000000000000000000e+00 5.797540000000000332e-04 2.290185265883630361e+00
0.000000000000000000e+00 1.215250000000000011e-02 2.789861938670700869e+00
0.000000000000000000e+00 3.840439999999999826e-02 3.286476196209533462e+00
0.000000000000000000e+00 7.354500000000000143e-04 2.077018280759259206e+00
6.250000000000000347e-03 1.285060000000000022e-02 2.890240249838560427e-01
3.125000000000000173e-03 2.757160000000000166e-02 3.497996547688240199e+00
9.374999999999999653e-03 2.024000000000000191e-03 2.241802526370448412e+00
0.000000000000000000e+00 1.095229999999999988e-03 1.027161792940416429e+00
0.000000000000000000e+00 3.260219999999999872e-03 1.840683747951317617e+00
0.000000000000000000e+00 9.675519999999999954e-04 5.737914984199676827e-02
2.500000000000000139e-02 3.262269999999999840e-03 2.073025592155857133e+00
2.812500000000000069e-02 2.876420000000000192e-03 3.685615985167085995e+00
1.874999999999999931e-02 1.911680000000000020e-03 1.588474805071109941e+00
1.562500000000000000e-02 2.668349999999999889e-03 1.120482261697741677e+00
1.562500000000000000e-02 4.611139999999999683e-03 1.724013370313575599e+00
3.437500000000000278e-02 9.470829999999999527e-02 1.793863865086888776e+00
0.000000000000000000e+00 2.171719999999999814e-03 4.587852448676426498e+00
0.000000000000000000e+00 3.279680000000000095e-02 1.241839349364770584e-01
6.250000000000000000e-02 1.066949999999999982e-01 6.896098788885385300e-01
0.000000000000000000e+00 1.694589999999999942e-03 7.340750933157141889e-01
6.250000000000000347e-03 1.318800000000000007e-02 1.452530061584083487e+00
0.000000000000000000e+00 1.576960000000000026e-04 1.987709709869986519e+00
0.000000000000000000e+00 9.553279999999999715e-04 2.977572820374740026e+00
2.187499999999999861e-02 2.992900000000000161e-03 4.748986268551742995e+00
3.125000000000000173e-03 2.586689999999999996e-03 1.206553143196098521e-01
2.500000000000000139e-02 2.456260000000000041e-03 4.588460516216582796e+00
2.500000000000000139e-02 1.846589999999999950e-03 2.337255304496266284e+00
0.000000000000000000e+00 3.792639999999999792e-04 1.100321695978510039e+00
0.000000000000000000e+00 1.276429999999999926e-02 3.709069524727895306e+00
1.250000000000000069e-02 2.880260000000000112e-02 1.570706005312380693e+00
0.000000000000000000e+00 3.727359999999999766e-04 2.139503793242440111e+00
0.000000000000000000e+00 9.061759999999999650e-04 4.314187391200544397e+00
0.000000000000000000e+00 5.682760000000000459e-04 2.171824450034564258e+00
0.000000000000000000e+00 5.147839999999999881e-03 2.320790130163876253e+00
0.000000000000000000e+00 1.385860000000000043e-03 3.497842272516232809e-01
3.125000000000000173e-03 2.835799999999999866e-03 3.570521834225091062e+00
0.000000000000000000e+00 2.930690000000000118e-03 4.377700282058408554e+00
0.000000000000000000e+00 1.015679999999999925e-03 4.553239087425033915e+00
0.000000000000000000e+00 4.577879999999999883e-04 4.530253608991563485e-02
0.000000000000000000e+00 5.465280000000000311e-03 1.670408815205379316e+00
0.000000000000000000e+00 1.766460000000000079e-03 2.023920651155084016e+00
5.625000000000000139e-02 9.250300000000000189e-02 1.722694931453345291e+00
2.500000000000000139e-02 2.019899999999999821e-03 2.948571544433909786e+00
2.812500000000000069e-02 7.509920000000000484e-02 2.059383097006283414e+00
0.000000000000000000e+00 6.104700000000000014e-04 2.585854449841726854e+00
0.000000000000000000e+00 1.512259999999999993e-02 2.348096457469809994e+00
3.125000000000000173e-03 9.967349999999999821e-02 6.898100117281175114e-01
0.000000000000000000e+00 1.724750000000000046e-05 4.318654145440389058e+00
0.000000000000000000e+00 3.737789999999999949e-03 2.080169952882410245e-01
6.250000000000000347e-03 1.646590000000000076e-03 4.491141617312309542e+00
0.000000000000000000e+00 7.409639999999999890e-04 4.816545491316454042e-01
0.000000000000000000e+00 2.656000000000000049e-04 3.034958693948392572e+00
0.000000000000000000e+00 2.154940000000000154e-03 1.872034917067205706e+00
1.874999999999999931e-02 2.384059999999999912e-03 4.220887294269100032e+00
0.000000000000000000e+00 4.200189999999999913e-04 3.258559172561357631e+00
4.687500000000000000e-02 9.253329999999999889e-02 2.590720523529953745e+00
1.874999999999999931e-02 1.530179999999999908e-03 1.037953643756112099e+00
1.562500000000000000e-02 9.957430000000000447e-02 7.398292593935268391e-01
0.000000000000000000e+00 1.143740000000000078e-03 1.931972781932659977e+00
4.374999999999999722e-02 9.197080000000000533e-02 1.069427816739439319e+00
0.000000000000000000e+00 9.454080000000000122e-04 2.257644905427919069e-01
0.000000000000000000e+00 4.525819999999999843e-03 6.938022209789757033e-01
0.000000000000000000e+00 0.000000000000000000e+00 4.315603606788233293e+00
0.000000000000000000e+00 4.314619999999999914e-03 1.510905715929107274e+00
2.187499999999999861e-02 9.161360000000000336e-02 2.891024865930708065e-01
1.874999999999999931e-02 3.296040000000000081e-02 3.585121366896443007e+00
0.000000000000000000e+00 4.200830000000000232e-04 9.877764713144310260e-01
0.000000000000000000e+00 4.064449999999999834e-03 4.552318131473221285e+00
0.000000000000000000e+00 1.549440000000000127e-04 2.512464304552119998e-01
0.000000000000000000e+00 3.917749999999999705e-02 1.523454368835148287e+00
0.000000000000000000e+00 2.170909999999999854e-05 3.114292481697277903e+00
2.187499999999999861e-02 1.855939999999999934e-03 3.747696319850310154e+00
0.000000000000000000e+00 5.652479999999999657e-04 2.216143848696078278e-01
0.000000000000000000e+00 1.835009999999999983e-03 1.158242739391496245e-01
2.187499999999999861e-02 2.642110000000000031e-03 1.114893277531029403e+00
3.125000000000000173e-03 1.892759999999999929e-02 4.505065604219764097e+00
3.125000000000000173e-03 4.477120000000000231e-03 4.500065619710643894e+00
0.000000000000000000e+00 6.788910000000000430e-04 4.020947163964500026e-01
0.000000000000000000e+00 5.530879999999999738e-04 6.818778220183802086e-01
2.812500000000000069e-02 2.132130000000000136e-01 4.240808521865783831e+00
9.374999999999999653e-03 9.652810000000000556e-02 1.691190686951507427e+00
1.250000000000000069e-02 1.669439999999999900e-03 4.292916819394883454e+00
6.250000000000000347e-03 2.187900000000000001e-03 3.908789125356007865e+00
3.749999999999999861e-02 9.187420000000000309e-02 3.678883629771900754e+00
0.000000000000000000e+00 7.276900000000000208e-04 2.788765786836151506e+00
6.250000000000000347e-03 2.044560000000000127e-02 1.868754298563366500e+00
0.000000000000000000e+00 4.963269999999999661e-04 2.669699152373617324e+00
6.250000000000000347e-03 1.019079999999999986e-02 2.934012532194524292e-01
1.874999999999999931e-02 2.088640000000000115e-03 1.848585666136259853e-01
0.000000000000000000e+00 4.102719999999999913e-04 2.935902629350817694e+00
0.000000000000000000e+00 2.286940000000000164e-05 1.721802522710084160e+00
2.187499999999999861e-02 4.032349999999999823e-02 3.309026635874778854e+00
3.125000000000000173e-03 1.613379999999999979e-03 1.555345647283703059e+00
0.000000000000000000e+00 1.521470000000000027e-03 3.486000806546749597e+00
2.187499999999999861e-02 1.475579999999999991e-03 1.184966448256956628e+00
6.250000000000000347e-03 3.618769999999999886e-03 4.216210535603473808e+00
0.000000000000000000e+00 1.349200000000000052e-02 3.188351992604201435e+00
6.562500000000000278e-02 9.158990000000000187e-02 4.528374671195295242e+00
3.125000000000000173e-03 9.901500000000000579e-03 4.695536962732596464e+00
9.374999999999999653e-03 2.008599999999999969e-02 1.881890829170975721e+00
5.000000000000000278e-02 2.942780000000000049e-02 4.251408365770891429e+00
0.000000000000000000e+00 1.247419999999999952e-03 3.896311242197628033e+00
0.000000000000000000e+00 1.162559999999999982e-03 1.620860253775194826e+00
3.125000000000000173e-03 1.064999999999999974e-01 3.185409335406102826e+00
0.000000000000000000e+00 9.811200000000000390e-04 1.172350609786260156e-01
5.000000000000000278e-02 1.061789999999999956e-01 2.832501391779055133e+00
9.374999999999999653e-03 1.073879999999999973e-01 4.878641602889718598e+00
9.374999999999999653e-03 2.499200000000000033e-03 4.764005581687458246e-01
0.000000000000000000e+00 2.864000000000000226e-04 2.984854708706317084e+00
0.000000000000000000e+00 2.794749999999999925e-03 7.929831231636152999e-02
2.187499999999999861e-02 2.178499999999999881e-03 4.238980942106279626e-01
0.000000000000000000e+00 1.182399999999999901e-03 9.963247538560576766e-01
1.562500000000000000e-02 9.105710000000000193e-02 3.518100554939742608e+00
0.000000000000000000e+00 4.506819999999999923e-03 4.015248598385342760e+00
2.500000000000000139e-02 1.863740000000000015e-03 2.732501201215037367e-01
2.500000000000000139e-02 2.975100000000000054e-03 1.930967883978819133e+00
0.000000000000000000e+00 4.738839999999999914e-04 1.580610441635252883e+00
3.125000000000000173e-03 6.664770000000000416e-03 2.055844329206281795e+00
3.125000000000000173e-03 8.088379999999999181e-03 9.627923505245539193e-01
3.437500000000000278e-02 1.655940000000000059e-03 1.412042536537776893e+00
0.000000000000000000e+00 1.003710000000000106e-03 1.215380729575838981e+00
2.500000000000000139e-02 2.019260000000000152e-03 3.601107644115591810e+00
0.000000000000000000e+00 9.910400000000001066e-04 2.552735629144166740e+00
9.374999999999999653e-03 2.242050000000000206e-03 3.219227091765061388e+00
2.500000000000000139e-02 2.076349999999999810e-03 4.860770772625259362e+00
1.562500000000000000e-02 2.699009999999999951e-03 2.800547615892357456e+00
1.250000000000000069e-02 1.544379999999999928e-03 1.653044509883671020e+00
2.187499999999999861e-02 1.946869999999999851e-02 1.079117849041763000e+00
2.187499999999999861e-02 9.216580000000000605e-02 6.896178653467333053e-01
2.812500000000000069e-02 3.161859999999999844e-03 1.777869959666716904e+00
0.000000000000000000e+00 7.273060000000000462e-04 5.110727235320799977e-02
0.000000000000000000e+00 2.599869999999999785e-03 2.604013850450943579e+00
0.000000000000000000e+00 1.151550000000000100e-03 8.866642328330004430e-01
0.000000000000000000e+00 7.296139999999999570e-04 1.007721989773094240e+00
0.000000000000000000e+00 4.523519999999999950e-04 3.750723236388942006e-01
3.125000000000000173e-03 9.722010000000000374e-02 4.941046586426300458e+00
0.000000000000000000e+00 1.059140000000000081e-03 1.052122555461609821e-01
0.000000000000000000e+00 3.520829999999999967e-03 4.720190014660440525e+00
0.000000000000000000e+00 8.587519999999999529e-04 4.703124078212339576e-01
0.000000000000000000e+00 8.845570000000000516e-03 2.710407991851326415e+00
1.874999999999999931e-02 2.895040000000000200e-03 2.718964910424701564e+00
6.250000000000000347e-03 9.485430000000000250e-02 1.487276850622611946e+00
0.000000000000000000e+00 2.518399999999999740e-04 4.965138981554281905e+00
0.000000000000000000e+00 2.111180000000000001e-02 2.335621576047612002e+00
0.000000000000000000e+00 8.956160000000000119e-04 2.895084772483899727e+00
0.000000000000000000e+00 3.907390000000000169e-03 3.012278101419429976e-01
9.374999999999999653e-03 1.660929999999999915e-03 4.390155371360823011e+00
0.000000000000000000e+00 4.743739999999999762e-03 6.712841610581610219e-03
0.000000000000000000e+00 1.232060000000000100e-03 3.281456664638309650e+00
6.250000000000000347e-03 1.670459999999999914e-03 1.426765362426017925e+00
0.000000000000000000e+00 4.375229999999999918e-03 9.819766229634380172e-01
0.000000000000000000e+00 1.603839999999999877e-04 3.838628677948324741e-01
0.000000000000000000e+00 3.730790000000000104e-04 4.840839022203756059e+00
0.000000000000000000e+00 4.477430000000000299e-02 2.168890973598112559e+00
0.000000000000000000e+00 3.903360000000000250e-04 1.518051899061108045e+00
3.125000000000000173e-03 9.444750000000000367e-02 2.448529157041310356e+00
9.374999999999999653e-03 3.494530000000000032e-03 3.809319807557547399e+00
1.562500000000000000e-02 1.677719999999999906e-02 2.915133558135588387e+00
0.000000000000000000e+00 1.110529999999999981e-03 4.842198727959448945e+00
0.000000000000000000e+00 1.944509999999999988e-03 2.518992434306555062e+00
0.000000000000000000e+00 4.501759999999999941e-04 3.596423954558900071e+00
0.000000000000000000e+00 6.323850000000000304e-02 2.448042270538979270e+00
0.000000000000000000e+00 1.223810000000000089e-03 2.138016892574097660e+00
0.000000000000000000e+00 1.823299999999999921e-03 2.545319431809571764e+00
0.000000000000000000e+00 4.588799999999999975e-04 2.510107460023799142e+00
0.000000000000000000e+00 1.134720000000000086e-03 1.703983591406486475e+00
0.000000000000000000e+00 9.563520000000000484e-04 1.642049382189679108e+00
3.125000000000000173e-03 2.971839999999999898e-03 3.179998870339118433e+00
0.000000000000000000e+00 1.866880000000000124e-04 5.716690510730609853e-01
0.000000000000000000e+00 1.747470000000000100e-03 4.983184991361966354e-02
0.000000000000000000e+00 1.122750000000000050e-03 4.707324456969900872e+00
6.250000000000000347e-03 9.647519999999999707e-02 3.878976248089171186e+00
1.562500000000000000e-02 1.430850000000000004e-02 8.922647078797613096e-01
0.000000000000000000e+00 1.893119999999999927e-04 8.699887513223303337e-01
0.000000000000000000e+00 1.799039999999999906e-04 3.290921535295671774e+00
0.000000000000000000e+00 4.058469999999999786e-04 1.152682029028276878e+00
2.812500000000000069e-02 2.367230000000000115e-03 2.947844200145357529e+00
3.125000000000000173e-03 1.687169999999999989e-03 1.686554510196250911e+00
0.000000000000000000e+00 4.985080000000000457e-04 2.841616298140526631e+00
0.000000000000000000e+00 2.185560000000000128e-05 3.743336662981193275e+00
1.250000000000000069e-02 1.515389999999999923e-03 3.844483528689496055e+00
0.000000000000000000e+00 3.952000000000000109e-04 3.856342546691908790e+00
2.812500000000000069e-02 9.386410000000000586e-02 4.102302266301015798e+00
3.125000000000000173e-03 5.146419999999999641e-03 2.190479750202590115e+00
6.250000000000000000e-02 9.233520000000000616e-02 2.876986075221882322e-01
0.000000000000000000e+00 2.629759999999999975e-04 3.719323546392966584e+00
0.000000000000000000e+00 3.560869999999999942e-04 1.383541739759913014e+00
2.187499999999999861e-02 2.241790000000000015e-03 3.915060762609297917e+00
0.000000000000000000e+00 1.274940000000000014e-03 1.954047336317425998e+00
0.000000000000000000e+00 9.251199999999999788e-04 2.357543258024046295e+00
2.500000000000000139e-02 2.844220000000000168e-03 4.022519787920896484e+00
0.000000000000000000e+00 4.275209999999999883e-04 3.326605626479646638e+00
0.000000000000000000e+00 4.818689999999999606e-03 4.165919466246240432e+00
6.250000000000000347e-03 6.799359999999999953e-03 1.145117156596301422e+00
0.000000000000000000e+00 1.813890000000000077e-03 1.577557774549976255e+00
0.000000000000000000e+00 2.448829999999999930e-03 1.922925955279682908e+00
0.000000000000000000e+00 3.806719999999999765e-04 4.418761013155321216e+00
0.000000000000000000e+00 3.571260000000000146e-03 1.616176873360226640e+00
0.000000000000000000e+00 4.372479999999999986e-04 3.211592202789676165e+00
0.000000000000000000e+00 6.312510000000000343e-02 4.028860178397409619e+00
9.374999999999999653e-03 1.805179999999999979e-03 2.094682483651308935e+00
3.125000000000000173e-03 9.889270000000000005e-02 1.589813598906933301e+00
0.000000000000000000e+00 7.787849999999999807e-03 3.318414096390038814e+00
0.000000000000000000e+00 1.031299999999999968e-03 4.689778105294440280e+00
3.125000000000000173e-03 2.979569999999999962e-03 2.922823233256217179e+00
0.000000000000000000e+00 4.911359999999999814e-04 2.787483850023701137e+00
3.749999999999999861e-02 3.774430000000000146e-02 2.372138157261964864e+00
2.812500000000000069e-02 3.145789999999999871e-03 4.353798170076439433e-01
2.500000000000000139e-02 9.331480000000000330e-02 8.939360234111726200e-01
0.000000000000000000e+00 7.140960000000000016e-04 1.169165188190939730e+00
3.125000000000000173e-03 1.916610000000000015e-03 8.107369913736417466e-01
0.000000000000000000e+00 4.846480000000000232e-02 2.986162730226423090e+00
0.000000000000000000e+00 7.319870000000000239e-04 1.606898495479465616e+00
0.000000000000000000e+00 7.856640000000000455e-04 3.139676247298782918e+00
0.000000000000000000e+00 1.276790000000000086e-03 3.841911291959959618e-01
0.000000000000000000e+00 1.010800000000000066e-03 3.104445158901612878e+00
1.874999999999999931e-02 2.010050000000000205e-03 3.352970623215327794e+00
0.000000000000000000e+00 9.283839999999999801e-04 4.838359087467539510e+00
0.000000000000000000e+00 4.065049999999999913e-02 1.078190869480259995e+00
0.000000000000000000e+00 9.135999999999999807e-04 3.149146866563684810e+00
1.250000000000000069e-02 2.723010000000000101e-03 4.946724299704772676e+00
9.374999999999999653e-03 9.217100000000000293e-02 4.834636369329412098e+00
1.250000000000000069e-02 1.564220000000000063e-03 3.894765541977044165e+00
0.000000000000000000e+00 4.532289999999999583e-03 4.148114099575652247e+00
0.000000000000000000e+00 2.393979999999999980e-03 4.629783983501722489e+00
0.000000000000000000e+00 6.191270000000000237e-04 1.055782941218220694e+00
1.874999999999999931e-02 2.326529999999999831e-03 4.012314460626651424e+00
0.000000000000000000e+00 1.228190000000000098e-03 3.894376081351795804e+00
0.000000000000000000e+00 1.188100000000000094e-03 1.415315987244913476e+00
2.500000000000000139e-02 4.706930000000000142e-02 1.996301973333863833e+00
0.000000000000000000e+00 1.866099999999999972e-05 3.722639175014808899e+00
2.187499999999999861e-02 2.488579999999999785e-03 1.588779130754855551e+00
3.125000000000000173e-03 4.384579999999999901e-03 1.493485369791831108e+00
0.000000000000000000e+00 3.772159999999999879e-04 4.914851486266086367e-01
6.250000000000000347e-03 1.747340000000000004e-03 3.926019523024120161e+00
0.000000000000000000e+00 4.146959999999999882e-04 2.938099912247555956e+00
0.000000000000000000e+00 2.199039999999999871e-04 3.296280581327332815e+00
0.000000000000000000e+00 4.544900000000000155e-03 2.659674659826544163e-01
0.000000000000000000e+00 1.131969999999999938e-03 6.149064200661419344e-01
0.000000000000000000e+00 1.191970000000000009e-02 1.525659139140161935e-01
0.000000000000000000e+00 1.584640000000000061e-04 1.413035299587002136e+00
2.812500000000000069e-02 6.136320000000000229e-04 1.150215682306279685e+00
3.125000000000000173e-03 4.755389999999999964e-03 1.480634270049208112e+00
9.374999999999999653e-03 2.446080000000000216e-03 1.808018525657378861e+00
1.874999999999999931e-02 9.213380000000000181e-02 1.258067476677838137e+00
0.000000000000000000e+00 1.635839999999999950e-03 3.514185548287546146e-01
2.500000000000000139e-02 2.976260000000000103e-03 2.594146567182271212e+00
0.000000000000000000e+00 9.873279999999999904e-04 4.412045538281727630e+00
9.374999999999999653e-03 3.056899999999999982e-03 2.914006622510330935e+00
0.000000000000000000e+00 3.169919999999999899e-04 1.415408002852825309e+00
1.874999999999999931e-02 2.553660000000000131e-03 3.230001243213084017e+00
0.000000000000000000e+00 2.280400000000000054e-05 4.883402544711344717e+00
0.000000000000000000e+00 1.285700000000000081e-03 1.413825202997121000e+00
0.000000000000000000e+00 2.629120000000000198e-04 2.937740518763705122e+00
0.000000000000000000e+00 2.249919999999999871e-03 2.779130418090380417e+00
5.937499999999999722e-02 3.837840000000000001e-02 9.703119981886743073e-01
1.874999999999999931e-02 2.286460000000000142e-03 8.015305408606410165e-01
