1.250000000000000069e-02 9.258700000000000263e-02 2.024372104923910953e+00
0.000000000000000000e+00 2.716989999999999857e-03 2.169668449298999491e+00
3.125000000000000173e-03 1.908320000000000155e-02 2.715243542681073485e+00
1.562500000000000000e-02 1.644220000000000056e-03 5.140690871242298288e-01
1.562500000000000000e-02 3.157309999999999978e-03 3.043433159851216985e+00
0.000000000000000000e+00 1.725629999999999916e-03 2.908342276690324191e+00
0.000000000000000000e+00 9.428950000000000178e-04 4.328345115652040498e+00
3.125000000000000173e-03 9.705210000000000226e-02 1.983838956464081704e+00
0.000000000000000000e+00 5.918149999999999843e-04 4.986137992341551417e+00
3.125000000000000173e-03 1.558209999999999873e-01 2.529414792681386359e+00
6.250000000000000347e-03 9.554120000000000668e-02 2.664806973007772584e+00
3.125000000000000173e-03 1.057120000000000004e-01 2.315313261818923163e+00
3.125000000000000173e-03 2.218369999999999891e-03 3.607066543073333520e+00
0.000000000000000000e+00 9.730340000000000083e-04 7.757547818372029225e-01
0.000000000000000000e+00 4.241609999999999825e-03 1.271153846215949956e+00
0.000000000000000000e+00 5.437800000000000012e-04 4.443700679098351536e+00
0.000000000000000000e+00 6.045440000000000449e-04 1.187460783888856231e+00
3.125000000000000173e-03 1.266049999999999988e-02 3.731780824264924856e+00
0.000000000000000000e+00 1.075199999999999897e-03 4.775655292388902851e+00
2.500000000000000139e-02 1.741060000000000003e-03 1.789163671083265239e+00
0.000000000000000000e+00 4.273859999999999985e-03 1.953096607732113243e-01
0.000000000000000000e+00 1.064959999999999995e-03 3.026031984078651593e+00
4.374999999999999722e-02 9.393709999999999560e-02 2.885736176460749203e+00
4.062500000000000139e-02 2.273460000000000064e-02 1.636548137436678596e+00
0.000000000000000000e+00 1.654459999999999958e-03 4.984272034715978350e+00
0.000000000000000000e+00 9.016319999999999760e-04 3.235840505252163268e-01
9.374999999999999653e-03 2.032509999999999872e-02 3.999801419752468945e-01
0.000000000000000000e+00 2.303570000000000037e-05 2.867204941482778935e+00
0.000000000000000000e+00 2.078140000000000022e-03 3.011202664605923562e+00
0.000000000000000000e+00 9.914179999999999868e-03 2.915200536570594636e+00
0.000000000000000000e+00 4.520640000000000248e-03 9.043645823440471521e-02
0.000000000000000000e+00 1.945370000000000085e-02 3.831755176304694643e+00
0.000000000000000000e+00 4.273410000000000056e-03 3.505474048620037308e+00
4.062500000000000139e-02 9.291299999999999559e-02 2.886488104429448143e+00
0.000000000000000000e+00 9.321849999999999581e-03 2.003804368636322941e+00
0.000000000000000000e+00 2.508830000000000088e-03 1.399336195995161125e+00
6.875000000000000555e-02 4.003629999999999689e-02 4.253557421750364220e+00
1.250000000000000069e-02 2.140669999999999899e-03 2.590832437156079138e+00
0.000000000000000000e+00 3.795560000000000231e-04 3.861541451752168008e+00
0.000000000000000000e+00 7.295500000000000335e-04 1.857591887431553346e+00
3.125000000000000173e-03 2.413020000000000095e-03 3.389299348960377767e+00
0.000000000000000000e+00 3.294080000000000012e-04 3.742314491770470930e-01
2.187499999999999861e-02 9.168529999999999736e-02 1.310126234972696091e+00
2.500000000000000139e-02 2.444990000000000184e-03 4.798140996841872230e+00
3.125000000000000173e-03 2.080770000000000015e-03 2.189620201186334825e+00
0.000000000000000000e+00 1.294569999999999922e-02 6.870500486494640624e-01
0.000000000000000000e+00 3.841280000000000193e-04 3.215850699069698226e+00
0.000000000000000000e+00 4.929320000000000229e-02 1.103119975957399523e+00
0.000000000000000000e+00 2.144379999999999984e-03 3.197507503906493742e+00
0.000000000000000000e+00 2.289449999999999908e-05 4.851553958404815958e+00
0.000000000000000000e+00 5.424969999999999662e-04 4.233994352036233089e+00
9.374999999999999653e-03 1.911490000000000064e-03 3.408028245826801861e+00
0.000000000000000000e+00 1.182529999999999996e-03 1.077790083351720662e+00
1.562500000000000000e-02 1.263550000000000003e-03 4.822890725357279251e+00
2.500000000000000139e-02 3.301629999999999843e-03 2.851905131117921766e+00
0.000000000000000000e+00 1.618620000000000085e-03 4.433900281516561570e+00
3.125000000000000173e-03 3.407939999999999928e-03 1.176314549140126120e+00
3.125000000000000173e-03 7.708590000000000407e-03 2.284235286883333327e+00
0.000000000000000000e+00 3.491619999999999750e-04 4.105437792266714681e+00
0.000000000000000000e+00 3.554690000000000107e-03 2.488159308309212836e+00
0.000000000000000000e+00 5.673600000000000431e-04 4.747220882899837235e+00
0.000000000000000000e+00 6.466049999999999576e-02 1.211343154504064268e+00
0.000000000000000000e+00 4.086690000000000136e-04 4.172752233954920342e+00
1.562500000000000000e-02 2.639220000000000108e-02 3.177651897809918413e+00
0.000000000000000000e+00 8.545169999999999502e-03 2.111700942860576191e+00
6.250000000000000347e-03 2.200000000000000133e-03 1.399487989521445153e+00
2.187499999999999861e-02 2.084219999999999910e-03 3.822210281709228497e+00
0.000000000000000000e+00 5.505279999999999983e-04 2.118313292832096906e-01
0.000000000000000000e+00 4.865159999999999884e-04 2.656184412458051369e-01
6.250000000000000347e-03 2.205139999999999878e-02 1.245634659820737955e-01
0.000000000000000000e+00 6.960179999999999622e-04 1.253699132291703489e+00
9.374999999999999653e-03 1.294980000000000046e-03 4.996495319569817184e+00
0.000000000000000000e+00 5.257730000000000389e-03 4.160666682442162312e+00
0.000000000000000000e+00 3.486489999999999750e-04 3.062113812523457490e+00
0.000000000000000000e+00 3.928960000000000004e-04 2.165508777955545305e+00
1.250000000000000069e-02 2.459520000000000196e-03 9.878672161683849096e-01
0.000000000000000000e+00 4.584509999999999974e-03 1.184231179192696715e+00
0.000000000000000000e+00 2.428609999999999883e-03 3.457853725004392142e+00
6.250000000000000347e-03 3.238780000000000131e-03 1.692451108837019769e+00
0.000000000000000000e+00 3.759360000000000002e-04 8.382728180509235738e-01
1.874999999999999931e-02 5.097789999999999613e-03 9.344325406395914690e-01
0.000000000000000000e+00 1.852609999999999977e-03 1.630233734165270620e+00
0.000000000000000000e+00 9.724160000000000355e-04 1.189001044189845313e+00
1.250000000000000069e-02 2.288319999999999937e-03 4.649020646572981086e+00
1.874999999999999931e-02 2.685569999999999971e-03 1.677975675001580624e-01
0.000000000000000000e+00 2.607889999999999861e-02 3.023421210605901077e+00
0.000000000000000000e+00 1.006399999999999960e-03 4.254403829970516249e+00
1.874999999999999931e-02 9.170530000000000348e-02 1.659225186226461091e+00
0.000000000000000000e+00 1.050490000000000035e-01 1.138137282502249104e+00
2.187499999999999861e-02 7.321979999999999635e-03 8.716227415457911132e-02
0.000000000000000000e+00 5.156930000000000108e-04 3.451316473779606486e+00
0.000000000000000000e+00 3.979519999999999737e-04 1.387244056122353131e+00
9.374999999999999653e-03 9.243890000000000440e-02 1.171096514679443867e+00
0.000000000000000000e+00 2.709639999999999965e-02 1.911428652235076076e+00
2.187499999999999861e-02 8.103739999999999902e-03 3.467954743810930385e+00
0.000000000000000000e+00 2.354300000000000143e-03 4.607108382990085182e+00
1.250000000000000069e-02 2.159490000000000021e-03 1.452374983095161554e-01
0.000000000000000000e+00 8.889600000000000540e-04 3.086351597772018618e+00
0.000000000000000000e+00 9.963750000000000818e-04 4.087895807923316305e+00
0.000000000000000000e+00 1.211260000000000028e-03 4.213387220344680273e+00
3.125000000000000173e-03 2.905090000000000103e-02 2.016006296549355259e-01
3.125000000000000173e-03 9.503540000000000598e-02 2.629248265527159401e+00
0.000000000000000000e+00 3.974399999999999895e-04 1.501471973602474641e+00
1.874999999999999931e-02 2.127099999999999824e-03 3.476243498580301683e+00
3.125000000000000173e-03 4.535299999999999748e-02 2.981745108184707949e+00
0.000000000000000000e+00 6.583070000000000111e-04 2.414940853304015089e+00
5.625000000000000139e-02 4.105500000000000121e-02 4.261998519851523115e-01
1.250000000000000069e-02 3.046849999999999819e-03 4.309856358768556106e+00
3.125000000000000173e-03 1.888940000000000063e-02 4.478113361300353645e+00
1.250000000000000069e-02 1.326459999999999965e-02 2.248460561421705695e-01
0.000000000000000000e+00 5.029439999999999605e-03 2.614149009610708507e+00
0.000000000000000000e+00 1.080060000000000091e-03 8.245246804211858738e-01
0.000000000000000000e+00 1.837700000000000054e-03 3.891485006233707189e+00
2.812500000000000069e-02 2.544450000000000184e-03 6.914935793442511525e-01
0.000000000000000000e+00 1.008559999999999925e-03 5.134918639009200536e-01
2.500000000000000139e-02 9.710330000000000350e-02 4.107503347983424646e+00
0.000000000000000000e+00 3.062340000000000201e-03 2.028054839627384975e+00
2.187499999999999861e-02 3.263230000000000210e-03 4.646474802474427790e+00
0.000000000000000000e+00 3.960319999999999921e-04 2.164594122538468390e+00
3.125000000000000173e-03 3.947260000000000178e-03 2.098283083135175087e+00
0.000000000000000000e+00 1.126140000000000084e-03 1.833699353374959706e+00
2.812500000000000069e-02 1.891780000000000024e-03 1.920743843795334360e+00
0.000000000000000000e+00 2.294209999999999842e-05 3.636886357084728072e+00
3.125000000000000173e-03 9.988260000000000194e-02 3.138786485735061138e+00
0.000000000000000000e+00 9.891839999999999401e-04 2.317269422868056816e-01
0.000000000000000000e+00 9.170559999999999693e-04 3.053984732648413303e+00
0.000000000000000000e+00 3.428120000000000104e-04 9.229283727620962718e-01
0.000000000000000000e+00 1.046660000000000038e-03 3.123484180582072778e+00
1.250000000000000069e-02 9.813159999999999938e-02 4.634409872415869103e+00
0.000000000000000000e+00 5.142179999999999885e-04 3.943824650217897521e-01
3.125000000000000173e-03 1.935450000000000018e-02 4.784745597949576990e+00
0.000000000000000000e+00 1.085629999999999972e-03 8.910219217324510943e-01
1.250000000000000069e-02 2.045439999999999932e-03 3.484225693061936191e+00
0.000000000000000000e+00 4.374480000000000035e-03 4.445720918962703827e+00
6.250000000000000347e-03 4.779779999999999966e-03 2.605991825472619539e+00
1.874999999999999931e-02 2.247620000000000087e-03 3.919721790074943257e+00
0.000000000000000000e+00 2.912640000000000086e-04 3.966335858497059164e+00
2.500000000000000139e-02 1.056740000000000040e-01 3.879434770858521286e+00
0.000000000000000000e+00 1.052610000000000047e-03 2.376626378225260794e+00
0.000000000000000000e+00 6.631360000000000206e-03 1.881040082286514759e+00
2.187499999999999861e-02 1.056980000000000003e-01 4.946321684051558698e+00
6.250000000000000347e-03 1.521540000000000045e-03 8.179313331648407903e-01
0.000000000000000000e+00 2.795900000000000035e-03 3.783499264771570836e+00
0.000000000000000000e+00 3.534209999999999869e-03 3.082600733905898949e+00
2.500000000000000139e-02 3.187140000000000199e-03 3.066937097639649279e-01
1.562500000000000000e-02 1.978689999999999963e-03 4.139422448711415292e+00
0.000000000000000000e+00 1.850239999999999958e-04 1.195323674190934549e+00
0.000000000000000000e+00 1.296000000000000060e-03 4.383591991744596683e+00
0.000000000000000000e+00 1.316490000000000130e-04 3.034878047614503194e-01
0.000000000000000000e+00 4.027460000000000068e-03 1.860605243858858948e+00
0.000000000000000000e+00 1.794880000000000000e-03 2.027842171011335459e+00
0.000000000000000000e+00 5.002239999999999595e-04 4.098289478451005330e+00
3.125000000000000173e-03 1.020159999999999990e-03 1.464486873566822611e+00
0.000000000000000000e+00 3.003360000000000057e-02 1.913120031516661435e+00
3.125000000000000000e-02 2.155779999999999936e-03 2.785312045642532652e+00
4.374999999999999722e-02 3.896059999999999801e-02 4.697903481799562186e+00
0.000000000000000000e+00 1.489279999999999944e-04 3.048596883822915604e+00
0.000000000000000000e+00 4.423340000000000106e-04 3.017328164865090034e+00
0.000000000000000000e+00 4.479300000000000295e-03 2.364689268486719786e+00
0.000000000000000000e+00 9.030400000000000276e-04 3.134967926509164116e+00
0.000000000000000000e+00 5.915519999999999633e-04 1.765081467689996852e+00
0.000000000000000000e+00 4.213649999999999883e-04 4.039343590163335662e+00
0.000000000000000000e+00 3.312770000000000038e-03 2.322157998538076917e-02
0.000000000000000000e+00 3.542919999999999750e-04 4.569867903624057703e+00
0.000000000000000000e+00 2.186940000000000064e-03 4.758983156618878496e+00
0.000000000000000000e+00 3.229779999999999804e-03 5.846458460049747119e-01
0.000000000000000000e+00 1.069630000000000017e-03 4.311829881953941346e+00
0.000000000000000000e+00 3.505840000000000085e-03 1.702139411734354679e-01
1.874999999999999931e-02 2.714180000000000065e-03 1.657930277795869323e+00
2.812500000000000069e-02 8.110849999999999310e-03 3.730535405826395312e+00
0.000000000000000000e+00 2.213120000000000115e-04 4.686844140215450594e+00
3.125000000000000173e-03 4.576639999999999875e-03 3.970249217326077051e+00
0.000000000000000000e+00 4.206719999999999730e-04 2.041907959620689716e+00
0.000000000000000000e+00 5.434240000000000338e-04 2.694167995533258697e+00
0.000000000000000000e+00 8.004070000000000629e-02 2.361400932868238822e+00
3.749999999999999861e-02 3.862480000000000080e-02 2.647310653288015292e+00
0.000000000000000000e+00 2.511489999999999903e-03 2.721502093480015816e+00
2.500000000000000139e-02 3.150459999999999892e-03 2.410228747271701444e+00
9.374999999999999653e-03 1.798139999999999938e-03 2.769664755349793950e+00
0.000000000000000000e+00 1.851950000000000116e-05 3.831173721925515530e+00
1.562500000000000000e-02 2.346500000000000061e-03 1.234476821767252375e+00
0.000000000000000000e+00 1.794580000000000133e-02 3.430558163762601254e+00
3.125000000000000173e-03 9.722329999999999861e-02 4.329470336432484245e+00
6.250000000000000347e-03 9.335530000000000217e-02 2.647627612561165300e-01
0.000000000000000000e+00 7.291650000000000431e-04 1.655280992093277614e+00
0.000000000000000000e+00 5.515260000000000128e-03 4.467164833268639335e+00
3.125000000000000173e-03 1.310719999999999941e-02 3.255523697974713748e+00
0.000000000000000000e+00 3.534209999999999869e-03 3.856886144732583066e+00
0.000000000000000000e+00 4.054630000000000040e-02 4.289573932902797537e+00
3.125000000000000173e-03 1.243730000000000009e-02 1.893416322125142770e+00
0.000000000000000000e+00 1.094530000000000025e-03 4.853971432489043281e+00
0.000000000000000000e+00 7.745730000000000150e-03 1.981379266384808879e+00
6.250000000000000347e-03 9.648619999999999419e-02 1.463218184655116882e+00
0.000000000000000000e+00 2.951870000000000101e-03 4.713725874495097834e+00
4.374999999999999722e-02 9.308239999999999570e-02 2.631080046738121681e+00
3.125000000000000173e-03 7.726460000000000099e-03 1.557796207369999131e-01
2.187499999999999861e-02 2.228420000000000054e-03 1.130191737924395756e+00
3.125000000000000000e-02 4.129959999999999881e-02 7.025591619514043318e-01
0.000000000000000000e+00 4.273410000000000056e-03 3.320771783026164492e+00
3.125000000000000173e-03 1.474980000000000041e-02 1.252261999281448768e+00
0.000000000000000000e+00 3.546749999999999881e-04 2.417582309719309208e+00
0.000000000000000000e+00 2.507609999999999961e-03 4.904959960715559397e+00
0.000000000000000000e+00 2.279200000000000133e-05 1.959694101675908406e+00
0.000000000000000000e+00 1.051389999999999920e-03 1.269581061836281943e+00
0.000000000000000000e+00 4.446720000000000360e-03 2.648033603851497553e+00
2.187499999999999861e-02 4.212859999999999695e-03 2.971291624127474496e+00
1.562500000000000000e-02 3.980159999999999948e-03 4.206745242811637198e+00
0.000000000000000000e+00 2.256290000000000043e-05 4.962978865341198365e+00
0.000000000000000000e+00 1.019839999999999939e-03 4.729167442313658931e+00
3.125000000000000173e-03 4.828289999999999839e-03 3.153049058822642081e+00
0.000000000000000000e+00 2.553599999999999945e-04 1.717319045969777358e+00
0.000000000000000000e+00 2.736850000000000198e-04 1.173076441456459840e+00
0.000000000000000000e+00 2.324290000000000123e-03 6.147440938013393197e-01
0.000000000000000000e+00 4.360759999999999983e-03 3.015177914836618456e+00
0.000000000000000000e+00 1.764539999999999989e-03 2.796354554121418978e+00
1.250000000000000069e-02 2.008580000000000088e-02 6.325066934248996242e-01
0.000000000000000000e+00 3.758370000000000135e-04 2.750136055875084473e+00
0.000000000000000000e+00 3.739130000000000231e-04 4.249701807696704137e-01
0.000000000000000000e+00 1.730559999999999911e-04 2.186634131793323554e+00
3.125000000000000173e-03 1.705600000000000041e-03 2.986661719460721454e+00
0.000000000000000000e+00 1.572609999999999893e-03 3.848564921569264108e+00
0.000000000000000000e+00 9.711999999999999713e-04 2.167288104479925259e-01
2.187499999999999861e-02 1.984899999999999946e-03 6.772415768426570670e-01
0.000000000000000000e+00 9.841279999999999126e-04 2.130323635383732928e+00
0.000000000000000000e+00 2.731330000000000129e-03 4.079022612563926842e+00
0.000000000000000000e+00 1.929180000000000131e-02 3.598409690625565815e+00
0.000000000000000000e+00 1.080830000000000072e-03 3.106748825906166189e+00
0.000000000000000000e+00 3.755520000000000256e-04 2.926102065510496342e+00
7.499999999999999722e-02 2.273829999999999948e-02 4.554694481979312037e+00
3.125000000000000173e-03 2.080770000000000015e-03 3.741911739264920378e+00
0.000000000000000000e+00 1.955329999999999915e-03 3.016990397416102532e+00
0.000000000000000000e+00 3.098239999999999935e-04 1.616121055625736602e+00
2.500000000000000139e-02 8.210939999999999905e-03 4.317043321793248012e+00
1.874999999999999931e-02 2.710460000000000039e-03 1.818973240261848590e+00
2.500000000000000139e-02 7.011459999999999741e-03 2.988995269788588871e+00
1.562500000000000000e-02 1.731389999999999969e-03 2.074090953988081409e+00
9.374999999999999653e-03 9.606000000000000649e-02 3.814130986151802905e+00
0.000000000000000000e+00 1.172029999999999903e-03 4.070351010635813616e+00
0.000000000000000000e+00 1.537280000000000027e-04 8.034939208295649449e-01
1.250000000000000069e-02 1.326459999999999965e-02 3.215271090651398822e+00
0.000000000000000000e+00 2.587330000000000099e-03 4.135932391577387790e+00
0.000000000000000000e+00 3.300479999999999950e-04 8.695199010162751874e-01
0.000000000000000000e+00 2.627840000000000102e-04 4.053312620207457861e+00
0.000000000000000000e+00 5.585289999999999916e-04 1.283084476252336348e+00
0.000000000000000000e+00 6.043140000000000013e-04 1.359370709054941173e-01
3.749999999999999861e-02 9.309630000000000682e-02 1.923767416586710244e+00
0.000000000000000000e+00 9.241600000000000422e-04 6.899715985290100217e-02
4.374999999999999722e-02 3.800900000000000112e-02 4.882320835994056196e+00
0.000000000000000000e+00 8.161829999999999476e-04 2.440927657523517702e+00
0.000000000000000000e+00 4.382340000000000194e-03 4.045737618468441710e+00
1.874999999999999931e-02 2.886779999999999815e-03 8.373945748361927288e-01
0.000000000000000000e+00 4.969689999999999915e-04 1.977343020602442270e+00
0.000000000000000000e+00 4.088610000000000009e-04 3.887213124867516800e-01
1.250000000000000069e-02 2.203899999999999956e-03 1.290289259050361625e+00
0.000000000000000000e+00 1.637119999999999938e-03 2.395383288505849695e+00
0.000000000000000000e+00 1.151689999999999919e-03 2.569001791571665194e+00
0.000000000000000000e+00 1.472640000000000049e-04 5.944773811014697484e-01
0.000000000000000000e+00 2.761089999999999899e-03 2.485602307243897524e+00
2.500000000000000139e-02 9.573500000000000412e-03 2.099409282563197809e+00
0.000000000000000000e+00 1.790229999999999946e-02 3.724782934087300657e-01
2.500000000000000139e-02 2.158909999999999996e-03 1.813025632451281233e+00
0.000000000000000000e+00 4.444479999999999785e-03 3.916357438819517700e-01
0.000000000000000000e+00 2.677500000000000192e-03 2.748205293556616358e+00
0.000000000000000000e+00 1.871169999999999908e-03 1.640620472484226156e+00
0.000000000000000000e+00 4.030849999999999884e-03 2.450294654566658625e+00
0.000000000000000000e+00 7.667429999999999602e-04 4.731804173028764104e-01
2.500000000000000139e-02 2.759419999999999842e-03 1.762168136915217564e+00
2.500000000000000139e-02 2.542780000000000127e-03 1.320051514146949767e+00
0.000000000000000000e+00 3.972480000000000021e-04 2.572166653570990391e+00
5.625000000000000139e-02 4.267800000000000066e-02 9.831112321409546384e-01
0.000000000000000000e+00 2.000639999999999873e-04 4.525146744724237280e+00
0.000000000000000000e+00 9.238399999999999911e-04 2.068563695018581061e+00
1.874999999999999931e-02 2.665279999999999906e-03 3.706709276963310096e+00
3.125000000000000173e-03 1.026029999999999998e-01 3.469088159062430954e+00
0.000000000000000000e+00 2.574589999999999865e-03 3.486246383408119875e+00
0.000000000000000000e+00 1.554749999999999925e-03 2.758805287586274524e-01
0.000000000000000000e+00 3.923840000000000162e-04 4.370379872541914068e+00
0.000000000000000000e+00 1.093180000000000020e-03 3.505045049678499502e+00
3.125000000000000173e-03 1.836029999999999997e-03 4.277887639483179072e+00
6.250000000000000347e-03 1.993659999999999963e-03 1.029410337209079040e+00
1.250000000000000069e-02 1.923970000000000107e-03 2.891699145986293296e+00
0.000000000000000000e+00 9.991679999999999312e-04 2.982002127145564341e+00
2.187499999999999861e-02 3.224900000000000162e-03 1.743089358401220812e+00
0.000000000000000000e+00 4.428859999999999741e-03 3.162362964189613823e+00
0.000000000000000000e+00 9.745920000000000364e-04 1.342205602265713171e+00
2.812500000000000069e-02 2.617539999999999797e-03 7.891911859204320256e-01
1.562500000000000000e-02 4.085700000000000269e-03 3.904841231178896033e-01
0.000000000000000000e+00 7.323720000000000143e-04 2.226584252704683076e-01
1.874999999999999931e-02 2.339899999999999793e-03 4.764971535995503160e+00
1.250000000000000069e-02 1.011340000000000017e-01 1.423496393468393073e+00
9.374999999999999653e-03 1.670140000000000079e-03 4.205838341698148186e-01
1.250000000000000069e-02 2.152700000000000013e-03 2.922559795811077166e+00
0.000000000000000000e+00 4.667140000000000177e-03 3.846899277911690174e+00
6.250000000000000347e-03 4.588540000000000327e-03 5.119494812467179079e-01
0.000000000000000000e+00 8.570309999999999604e-04 1.980886661729602816e+00
3.125000000000000173e-03 1.638399999999999926e-03 3.436962921055120024e-01
0.000000000000000000e+00 4.019200000000000008e-04 2.231973905339254216e+00
0.000000000000000000e+00 4.218779999999999883e-04 3.080796706120805251e+00
6.250000000000000347e-03 1.753219999999999995e-03 3.667763793183016485e+00
0.000000000000000000e+00 1.323219999999999952e-03 1.184864261913846084e+00
3.125000000000000173e-03 3.807809999999999667e-02 4.439412299502954795e+00
0.000000000000000000e+00 0.000000000000000000e+00 4.477509154797764346e+00
3.125000000000000173e-03 9.261570000000000219e-03 1.872916708397367014e+00
0.000000000000000000e+00 5.000000000000000104e-03 4.461314417246027730e+00
0.000000000000000000e+00 4.221990000000000009e-04 9.195926785159680428e-02
0.000000000000000000e+00 6.313749999999999918e-04 2.788278958259092111e+00
0.000000000000000000e+00 8.791549999999999539e-04 3.555154972375551115e+00
3.125000000000000173e-03 2.905999999999999903e-02 1.497644611705797768e+00
0.000000000000000000e+00 4.751660000000000107e-04 6.426636048387546207e-01
3.125000000000000173e-03 1.011330000000000041e-02 3.470928829698362250e+00
0.000000000000000000e+00 8.272779999999999761e-04 4.828210995509502723e+00
0.000000000000000000e+00 4.884740000000000262e-03 4.328843140562056213e+00
1.562500000000000000e-02 1.064979999999999954e-01 4.915283722582762138e+00
2.500000000000000139e-02 2.932989999999999903e-03 1.745956156335406462e+00
0.000000000000000000e+00 4.954369999999999608e-03 4.354708109765851098e+00
0.000000000000000000e+00 1.327939999999999893e-03 4.872981335198373065e-01
1.562500000000000000e-02 9.156519999999999937e-02 1.301417189199857161e+00
0.000000000000000000e+00 1.151810000000000073e-03 1.607708626158932397e+00
9.374999999999999653e-03 2.364740000000000158e-03 3.672977522107575332e+00
2.187499999999999861e-02 1.076349999999999946e-01 1.410394824199554087e+00
0.000000000000000000e+00 1.084930000000000009e-03 2.426500597689310368e+00
1.250000000000000069e-02 1.320130000000000088e-03 1.185088349935232266e+00
0.000000000000000000e+00 5.223939999999999834e-03 3.559999689789318467e+00
0.000000000000000000e+00 1.250239999999999902e-03 2.084561636760601910e+00
1.874999999999999931e-02 1.766530000000000097e-03 1.803011443997444729e+00
0.000000000000000000e+00 3.729919999999999959e-04 4.876966460004706683e+00
3.125000000000000173e-03 6.475799999999999612e-02 4.510646079632482319e+00
2.500000000000000139e-02 1.856580000000000036e-03 3.420176643199739797e+00
3.125000000000000173e-03 1.760059999999999923e-03 2.651383599978609951e+00
0.000000000000000000e+00 4.302789999999999913e-04 9.540671566473057919e-01
0.000000000000000000e+00 4.141829999999999882e-04 4.582144874736346019e+00
1.250000000000000069e-02 2.173060000000000096e-03 2.959812045938117642e+00
0.000000000000000000e+00 1.187419999999999969e-02 2.223951796986752605e+00
0.000000000000000000e+00 2.193660000000000054e-03 2.711711022303857632e+00
0.000000000000000000e+00 6.795520000000000423e-04 4.465426824996859168e+00
0.000000000000000000e+00 1.977599999999999931e-03 1.200517795734100002e+00
0.000000000000000000e+00 3.886720000000000084e-04 1.093546443070926966e+00
7.812500000000000000e-02 9.500350000000000461e-02 3.738278859332995196e+00
0.000000000000000000e+00 4.270079999999999883e-04 1.958085180542000092e+00
0.000000000000000000e+00 2.330179999999999838e-03 2.749347924728180903e+00
0.000000000000000000e+00 3.967360000000000179e-04 4.887289141528277980e+00
0.000000000000000000e+00 2.278080000000000035e-03 4.374425091179587000e+00
2.187499999999999861e-02 2.136509999999999885e-03 3.939740130372559435e+00
0.000000000000000000e+00 4.213649999999999883e-04 9.377183115939902169e-01
0.000000000000000000e+00 3.864319999999999756e-04 2.527085334978658171e+00
1.562500000000000000e-02 2.303100000000000199e-03 3.660807475184862936e-01
0.000000000000000000e+00 3.089300000000000032e-02 2.561469928753318248e-01
1.874999999999999931e-02 2.853699999999999813e-03 3.979364628817559257e+00
0.000000000000000000e+00 1.584510000000000085e-02 7.681775131061863160e-01
0.000000000000000000e+00 9.404160000000000167e-04 2.441654876051035927e+00
2.500000000000000139e-02 4.380610000000000059e-03 1.435789943565920490e+00
3.125000000000000173e-03 9.963420000000000609e-02 1.247984003587339519e+00
0.000000000000000000e+00 5.180800000000000162e-03 2.603664116640271420e+00
1.874999999999999931e-02 2.861499999999999894e-03 4.207319483851566844e+00
1.562500000000000000e-02 2.010940000000000123e-03 4.945636803738469034e+00
0.000000000000000000e+00 1.079160000000000015e-03 3.724283645894096217e+00
0.000000000000000000e+00 1.446779999999999941e-03 3.238483675099429249e+00
0.000000000000000000e+00 6.212419999999999748e-03 3.868831120281142066e+00
0.000000000000000000e+00 1.671040000000000047e-04 2.801512975596970101e+00
3.125000000000000173e-03 2.130910000000000096e-02 4.182213664499030870e+00
2.187499999999999861e-02 2.791360000000000108e-03 5.110227312859833004e-01
1.250000000000000069e-02 9.812210000000000376e-02 4.018087284931465275e-01
2.812500000000000069e-02 2.199870000000000037e-03 8.925218548561897336e-01
0.000000000000000000e+00 6.306929999999999481e-02 3.312509601398309300e+00
0.000000000000000000e+00 3.966719999999999860e-04 9.154125652844397054e-01
6.250000000000000347e-03 1.479999999999999979e-03 1.750611218615587550e+00
0.000000000000000000e+00 1.934910000000000102e-02 4.717026667426702069e+00
0.000000000000000000e+00 3.779390000000000093e-03 2.408713767662575389e+00
9.374999999999999653e-03 2.117180000000000190e-03 2.762069770389137258e+00
0.000000000000000000e+00 1.038700000000000040e-03 4.656230260255795450e+00
1.562500000000000000e-02 1.559870000000000093e-03 4.626070554180163441e+00
0.000000000000000000e+00 9.368959999999999962e-04 4.033312011997606916e+00
0.000000000000000000e+00 1.146300000000000053e-03 1.337094644147012179e+00
1.874999999999999931e-02 1.681219999999999980e-03 1.734432774947501255e+00
0.000000000000000000e+00 4.301250000000000386e-03 2.833643179798740697e+00
0.000000000000000000e+00 3.787859999999999882e-04 4.678227405459431054e+00
0.000000000000000000e+00 1.530880000000000088e-04 2.623293021280274750e+00
6.250000000000000347e-03 1.060549999999999965e-01 4.595143766646191175e+00
5.000000000000000278e-02 4.052990000000000065e-02 4.545891900704945865e-01
6.250000000000000347e-03 9.963320000000000509e-02 7.870377868300826307e-01
0.000000000000000000e+00 9.981440000000000711e-04 2.686848038830087049e+00
0.000000000000000000e+00 2.309760000000000057e-04 1.507005999763597615e+00
0.000000000000000000e+00 1.017019999999999990e-03 1.705459372219317871e+00
2.187499999999999861e-02 3.079619999999999927e-03 2.271878773418758879e+00
0.000000000000000000e+00 7.185209999999999601e-04 8.054900092637545805e-01
0.000000000000000000e+00 1.214660000000000002e-03 3.981706758765779064e+00
1.250000000000000069e-02 2.851649999999999845e-03 3.667084471958419911e+00
0.000000000000000000e+00 8.804369999999999731e-04 2.601467393403944950e+00
0.000000000000000000e+00 3.810560000000000054e-04 1.843086659156278451e+00
0.000000000000000000e+00 1.709119999999999953e-03 3.165258117781534875e+00
0.000000000000000000e+00 1.428540000000000062e-03 1.231199665641647956e+00
0.000000000000000000e+00 3.784959999999999757e-04 3.842631321373268793e+00
0.000000000000000000e+00 1.985470000000000030e-03 4.256568563860855470e+00
6.250000000000000347e-03 4.809090000000000240e-03 3.019620004844326466e+00
5.625000000000000139e-02 4.120290000000000064e-02 2.011968669194139192e+00
0.000000000000000000e+00 7.179429999999999666e-04 2.041792894844398631e+00
0.000000000000000000e+00 1.511680000000000055e-03 8.025378416114059554e-02
6.250000000000000000e-02 9.161909999999999499e-02 2.518811769597763650e+00
0.000000000000000000e+00 1.443750000000000068e-02 3.688590213686657293e+00
1.874999999999999931e-02 2.571139999999999971e-03 1.283192616731103630e+00
2.187499999999999861e-02 7.242789999999999818e-03 1.550049088485354165e+00
1.250000000000000069e-02 1.944189999999999937e-03 5.720294982716617183e-01
2.500000000000000139e-02 2.328900000000000067e-03 4.521535173344148006e+00
0.000000000000000000e+00 9.135359999999999488e-04 1.270309208536080092e+00
1.874999999999999931e-02 2.274940000000000035e-03 4.931100098149165056e+00
0.000000000000000000e+00 9.690880000000000024e-04 3.324434918562313435e-01
0.000000000000000000e+00 5.131199999999999824e-03 1.961459155671588128e+00
1.250000000000000069e-02 1.735360000000000028e-03 3.724826603008327908e+00
0.000000000000000000e+00 1.624189999999999965e-03 1.709651143243939408e+00
0.000000000000000000e+00 5.847040000000000180e-04 6.450212789960824145e-01
0.000000000000000000e+00 4.693059999999999767e-03 4.976449957856972084e+00
6.250000000000000347e-03 1.823039999999999947e-03 1.577765148226449865e+00
1.562500000000000000e-02 5.363650000000000188e-03 3.655087897246557027e+00
0.000000000000000000e+00 3.409349999999999881e-02 2.062653426153447711e+00
0.000000000000000000e+00 1.308609999999999982e-03 1.910868493157599879e+00
0.000000000000000000e+00 3.046400000000000106e-04 4.243864649746734052e+00
0.000000000000000000e+00 1.641150000000000074e-03 3.198663205510439589e+00
0.000000000000000000e+00 1.945019999999999995e-03 3.453893661643187007e-01
0.000000000000000000e+00 3.068799999999999892e-04 3.429062087833926853e+00
1.562500000000000000e-02 7.364110000000000100e-03 1.543781536167194712e+00
2.500000000000000139e-02 2.931580000000000037e-03 4.696641865567848129e+00
0.000000000000000000e+00 1.947070000000000051e-02 3.400920004152216958e+00
0.000000000000000000e+00 5.811009999999999917e-04 2.512824142029969288e+00
3.125000000000000173e-03 1.343999999999999926e-03 1.606399207072835011e+00
0.000000000000000000e+00 4.146320000000000105e-04 4.661085425840142626e+00
0.000000000000000000e+00 4.185219999999999912e-03 1.919578920718719051e+00
3.437500000000000278e-02 9.267469999999999875e-02 4.799999634503548940e+00
0.000000000000000000e+00 7.360910000000000239e-04 3.683934150868299895e+00
0.000000000000000000e+00 1.800960000000000050e-04 2.139801653662795733e+00
1.562500000000000000e-02 3.902590000000000052e-03 4.110839651535136419e-01
9.374999999999999653e-03 2.710909999999999969e-03 3.756970824846048274e+00
0.000000000000000000e+00 2.565109999999999960e-02 3.401718042632793981e+00
3.125000000000000173e-03 9.784940000000000304e-02 7.420208265413485993e-01
0.000000000000000000e+00 8.733439999999999650e-04 2.890567236270035423e+00
0.000000000000000000e+00 2.334720000000000035e-04 2.989557223653957596e+00
0.000000000000000000e+00 1.037500000000000011e-03 1.495548896849024922e-01
2.812500000000000069e-02 3.862850000000000138e-03 2.718319972520841787e+00
0.000000000000000000e+00 2.405759999999999951e-04 4.625909940292022071e+00
0.000000000000000000e+00 8.438399999999999981e-04 5.639881679410002624e-01
0.000000000000000000e+00 3.079919999999999880e-04 4.539920232939429923e+00
0.000000000000000000e+00 2.474689999999999876e-03 2.502748685430675302e+00
1.250000000000000069e-02 1.833919999999999951e-03 3.791168462268937667e+00
0.000000000000000000e+00 6.252160000000000530e-04 2.772514892664866615e+00
6.250000000000000347e-03 2.208900000000000186e-03 3.801667522745272310e-01
0.000000000000000000e+00 1.112700000000000104e-03 1.959251209418461093e+00
2.500000000000000139e-02 1.908289999999999986e-03 3.696387181233032226e+00
0.000000000000000000e+00 8.727039999999999711e-04 3.621539469895703967e+00
2.187499999999999861e-02 3.238399999999999786e-03 3.560843867613384006e+00
1.874999999999999931e-02 2.293819999999999800e-03 1.219898210682575090e+00
2.812500000000000069e-02 1.917499999999999934e-03 2.379064988451227158e+00
0.000000000000000000e+00 7.313460000000000143e-04 4.646066391921664263e+00
9.374999999999999653e-03 9.594919999999999838e-02 4.338037366924355709e+00
0.000000000000000000e+00 2.172540000000000148e-03 2.319307497834920184e+00
1.250000000000000069e-02 9.331459999999999755e-02 3.602120997861711249e+00
0.000000000000000000e+00 3.789789999999999912e-04 3.684760256720408300e+00
0.000000000000000000e+00 3.918719999999999777e-04 1.885243122267683091e+00
0.000000000000000000e+00 4.393919999999999944e-03 3.407528579401119639e+00
1.000000000000000056e-01 9.360839999999999439e-02 1.540596967576517873e+00
2.187499999999999861e-02 1.057420000000000027e-01 3.470334009522058061e+00
0.000000000000000000e+00 3.241899999999999817e-03 2.772879333794657786e+00
3.125000000000000173e-03 1.288100000000000009e-02 2.140136864686716489e+00
1.874999999999999931e-02 2.170179999999999852e-03 1.191928348053959308e+00
3.125000000000000173e-03 1.012300000000000005e-02 1.233992993767638602e+00
0.000000000000000000e+00 2.263369999999999982e-05 3.901998217875341624e+00
2.187499999999999861e-02 3.294909999999999853e-03 3.926842908492292228e+00
6.250000000000000347e-03 5.651390000000000059e-03 1.638037436725292562e-01
6.250000000000000347e-03 9.161489999999999911e-02 1.163080735273613442e+00
2.500000000000000139e-02 1.933889999999999958e-03 2.848460554718790227e-01
1.562500000000000000e-02 1.721660000000000074e-03 3.433474260687084723e+00
0.000000000000000000e+00 6.576639999999999700e-04 4.575875165089382079e+00
0.000000000000000000e+00 1.150269999999999895e-03 4.035693673723184105e-01
1.874999999999999931e-02 5.517499999999999835e-03 2.278934269352922426e-01
9.374999999999999653e-03 3.556240000000000009e-03 4.640127817162764678e-01
0.000000000000000000e+00 1.427459999999999970e-03 3.946238907754497927e+00
0.000000000000000000e+00 4.786689999999999695e-03 5.462451946665669578e-02
0.000000000000000000e+00 2.260559999999999919e-05 5.331602191438855609e-02
0.000000000000000000e+00 3.909379999999999626e-03 4.736911762573757123e+00
2.812500000000000069e-02 1.064329999999999998e-01 4.759517673035830398e+00
2.187499999999999861e-02 2.413699999999999960e-03 2.080622315188207061e+00
0.000000000000000000e+00 7.903280000000000374e-03 6.092326212785903472e-01
0.000000000000000000e+00 3.942850000000000348e-03 3.620906492052326620e+00
2.812500000000000069e-02 1.760899999999999922e-03 1.957709226492632126e-02
0.000000000000000000e+00 3.563199999999999874e-03 3.329764443253175443e+00
0.000000000000000000e+00 1.137540000000000035e-03 3.935385865465161004e+00
9.374999999999999653e-03 7.996670000000000861e-03 3.777867199741804072e+00
0.000000000000000000e+00 4.335359999999999908e-04 3.743178653412382317e-01
0.000000000000000000e+00 8.780640000000000146e-04 3.659837792941165180e+00
2.187499999999999861e-02 2.192320000000000206e-03 2.873885391125618582e+00
2.500000000000000139e-02 1.518140000000000071e-03 1.708166366799062530e+00
6.875000000000000555e-02 4.229499999999999926e-02 1.012553709659343326e+00
0.000000000000000000e+00 1.497019999999999948e-03 4.479311705147056344e+00
0.000000000000000000e+00 9.947520000000000060e-04 4.553710479954910184e+00
0.000000000000000000e+00 5.547450000000000428e-04 2.580490031276512219e+00
0.000000000000000000e+00 1.119680000000000068e-03 3.296751186199046835e+00
0.000000000000000000e+00 1.242749999999999931e-03 1.867426215457163030e+00
5.312499999999999861e-02 2.612989999999999931e-03 6.662106094432829195e-01
0.000000000000000000e+00 1.762089999999999929e-05 4.396320444386005555e+00
0.000000000000000000e+00 1.350289999999999997e-02 3.939372811157859200e+00
0.000000000000000000e+00 6.412030000000000507e-02 8.558595942111640875e-01
3.125000000000000173e-03 1.837380000000000003e-03 9.267732919520571544e-01
0.000000000000000000e+00 3.552539999999999973e-04 4.093674352219781376e+00
1.250000000000000069e-02 1.644740000000000004e-03 1.535745844759732304e+00
0.000000000000000000e+00 2.154370000000000070e-03 5.075764764124152117e-01
0.000000000000000000e+00 1.093500000000000071e-03 1.735473149062409348e+00
0.000000000000000000e+00 1.856449999999999941e-03 2.179578302296133252e+00
0.000000000000000000e+00 3.241899999999999817e-03 9.208339326092235266e-01
0.000000000000000000e+00 1.226689999999999899e-03 2.351907494161893819e+00
0.000000000000000000e+00 1.111229999999999943e-03 3.255707214742318723e+00
5.000000000000000278e-02 9.319650000000000156e-02 4.828855194426207476e+00
1.187499999999999944e-01 9.379120000000000512e-02 1.814814290357619875e+00
3.125000000000000173e-03 1.267940000000000039e-02 1.985222830746661282e+00
0.000000000000000000e+00 9.680000000000000019e-04 3.606376150729356800e-01
0.000000000000000000e+00 1.941220000000000098e-02 9.498921097424667392e-01
0.000000000000000000e+00 2.448640000000000191e-04 2.731564721240692384e-01
0.000000000000000000e+00 3.760290000000000008e-04 7.177459491735543873e-01
0.000000000000000000e+00 2.278949999999999924e-05 4.139564345881499463e+00
0.000000000000000000e+00 3.292989999999999980e-03 3.004176191797495399e+00
9.374999999999999653e-03 4.320830000000000330e-03 2.738474908509305195e+00
6.250000000000000347e-03 1.007590000000000048e-02 3.859828004552682934e+00
0.000000000000000000e+00 3.736259999999999928e-03 3.849551034927573001e-01
0.000000000000000000e+00 1.174400000000000004e-04 3.915580345880906865e+00
2.812500000000000069e-02 1.754050000000000054e-03 3.013740590244343043e+00
0.000000000000000000e+00 3.573119999999999834e-04 2.332522934654788216e+00
0.000000000000000000e+00 1.911809999999999898e-03 2.555337975609373480e+00
3.125000000000000173e-03 4.854980000000000059e-03 6.314955716087683468e-01
3.437500000000000278e-02 9.268740000000000312e-02 2.999163820882450704e+00
1.874999999999999931e-02 2.589499999999999788e-03 1.591413448946210618e+00
0.000000000000000000e+00 7.360269999999999920e-04 2.691516930793369955e+00
1.562500000000000000e-02 8.772109999999999630e-03 2.908439644187408302e+00
6.250000000000000347e-03 2.582529999999999982e-03 2.413655869075190363e+00
0.000000000000000000e+00 1.118209999999999907e-03 2.910287094106248418e+00
0.000000000000000000e+00 1.838980000000000042e-03 3.045888564675518495e+00
2.812500000000000069e-02 9.477879999999999638e-02 3.640797278931957148e+00
1.562500000000000000e-02 2.585409999999999792e-03 2.961010962177272443e+00
1.250000000000000069e-02 2.219969999999999929e-03 2.374479452403849500e+00
0.000000000000000000e+00 3.586300000000000165e-03 1.679629016920611839e+00
0.000000000000000000e+00 1.180480000000000028e-03 4.111669889129282218e+00
1.250000000000000069e-02 4.147259999999999835e-03 2.286083722201919688e+00
5.937499999999999722e-02 3.864340000000000136e-02 2.290255121405473382e+00
0.000000000000000000e+00 3.491619999999999750e-04 3.368952340334851137e+00
0.000000000000000000e+00 3.832320000000000062e-04 3.900680068038901993e+00
6.250000000000000347e-03 1.573949999999999958e-03 4.638856089502186641e+00
0.000000000000000000e+00 2.279510000000000135e-05 4.572966795933240292e+00
0.000000000000000000e+00 3.003140000000000063e-03 4.387370928197187325e+00
9.374999999999999653e-03 1.624769999999999990e-03 7.032548994338860826e-01
6.250000000000000347e-03 9.568169999999999453e-02 4.294816991253958882e+00
0.000000000000000000e+00 1.883200000000000022e-03 3.865334084766330225e+00
0.000000000000000000e+00 9.700480000000000474e-04 3.205827007958692576e+00
0.000000000000000000e+00 9.843199999999998999e-04 1.625756830048362023e+00
1.874999999999999931e-02 1.925819999999999962e-03 2.738344750043546494e+00
0.000000000000000000e+00 2.378819999999999806e-03 1.868553267396971140e+00
4.687500000000000000e-02 9.316420000000000257e-02 4.219999487394446192e+00
0.000000000000000000e+00 3.986559999999999995e-04 1.176556984923223803e+00
0.000000000000000000e+00 2.134739999999999902e-02 4.668099660402577733e+00
3.125000000000000173e-03 2.027650000000000199e-03 1.819835073246229840e+00
2.187499999999999861e-02 2.748290000000000021e-03 2.485603257377952069e+00
0.000000000000000000e+00 2.299189999999999920e-05 7.003677458472967743e-02
1.562500000000000000e-02 3.386179999999999919e-03 2.508114150437887879e+00
2.500000000000000139e-02 6.833089999999999997e-03 3.393860447578911810e+00
5.312499999999999861e-02 9.300809999999999633e-02 5.635216365598849642e-01
1.874999999999999931e-02 3.105089999999999933e-02 4.367600583864746255e+00
0.000000000000000000e+00 1.734340000000000014e-03 4.073993114458341225e+00
0.000000000000000000e+00 2.462530000000000101e-03 2.281510792388504960e+00
2.812500000000000069e-02 9.675579999999999598e-03 2.153703520267218785e+00
1.874999999999999931e-02 2.521959999999999827e-02 2.197197624007827699e+00
2.187499999999999861e-02 6.829309999999999894e-03 3.814973164911966697e-01
1.250000000000000069e-02 9.902020000000000266e-02 8.330175382319865429e-01
0.000000000000000000e+00 1.323329999999999992e-02 1.563637719668888870e+00
3.125000000000000173e-03 9.422800000000000620e-02 4.599700196272974217e+00
0.000000000000000000e+00 2.730110000000000002e-03 1.358700194594149480e+00
0.000000000000000000e+00 2.286039999999999885e-05 6.547965050290432965e-01
3.125000000000000173e-03 2.650109999999999792e-03 3.360617922459607776e+00
0.000000000000000000e+00 4.186080000000000009e-04 3.896866767154344657e+00
0.000000000000000000e+00 3.546120000000000261e-04 4.029107884051785327e+00
0.000000000000000000e+00 6.236800000000000460e-04 3.033391874828349266e+00
0.000000000000000000e+00 4.738370000000000429e-03 3.326029950142478375e-01
0.000000000000000000e+00 1.050500000000000001e-03 4.285445565593924755e+00
6.250000000000000347e-03 1.502910000000000097e-03 4.844321335253185978e+00
3.125000000000000000e-02 4.100209999999999966e-02 7.436896021958028236e-01
0.000000000000000000e+00 1.750400000000000046e-05 2.173419411017243785e+00
0.000000000000000000e+00 9.759359999999999476e-04 4.998691390107328658e+00
0.000000000000000000e+00 1.287420000000000057e-03 3.462100850381144124e+00
0.000000000000000000e+00 3.976319999999999768e-04 4.632707499744074475e+00
2.500000000000000139e-02 3.369340000000000182e-03 3.564070492380129185e+00
2.500000000000000139e-02 5.208700000000000135e-03 2.972024366886895752e+00
0.000000000000000000e+00 3.999359999999999873e-04 3.101806582175750115e+00
0.000000000000000000e+00 4.317920000000000265e-03 3.888692396828230979e+00
1.562500000000000000e-02 9.539670000000000094e-02 8.035536668554504880e-01
3.749999999999999861e-02 2.907950000000000118e-02 1.874340641276226460e+00
3.437500000000000278e-02 9.248580000000000689e-02 4.548895234040498892e+00
1.874999999999999931e-02 2.978939999999999800e-03 3.780283172960503535e+00
6.250000000000000347e-03 2.425150000000000049e-03 3.483938117062002515e+00
0.000000000000000000e+00 5.213439999999999741e-04 3.367482105955108995e+00
2.500000000000000139e-02 3.269760000000000028e-03 4.344689639435746820e+00
0.000000000000000000e+00 1.675520000000000113e-04 1.764987477984036879e+00
0.000000000000000000e+00 1.270829999999999920e-03 4.642893428748476659e+00
0.000000000000000000e+00 2.097109999999999984e-05 1.671557918271655563e+00
3.125000000000000173e-03 1.933409999999999990e-02 4.317722519723431240e+00
2.500000000000000139e-02 1.910720000000000083e-03 9.293471819968374126e-01
2.812500000000000069e-02 2.933499999999999910e-03 1.172655577316159103e+00
0.000000000000000000e+00 2.072959999999999885e-04 4.418618713083138916e-01
0.000000000000000000e+00 9.813759999999999498e-04 1.260702325020670145e+00
0.000000000000000000e+00 8.951859999999999635e-04 4.109937215423600243e+00
1.874999999999999931e-02 1.960899999999999796e-03 3.113153512128748357e+00
0.000000000000000000e+00 9.608320000000000055e-04 1.542071609404793264e+00
0.000000000000000000e+00 6.696570000000000430e-04 3.084658375476187597e+00
0.000000000000000000e+00 5.299200000000000221e-04 4.244350861659983210e+00
2.187499999999999861e-02 2.534849999999999950e-03 3.982177434387840442e+00
0.000000000000000000e+00 4.164279999999999913e-04 4.529988120635008997e-01
7.187499999999999445e-02 3.936699999999999922e-02 5.470862292792377790e-01
3.125000000000000173e-03 2.633980000000000175e-03 3.088460478473670001e+00
0.000000000000000000e+00 9.934080000000000948e-04 4.053706417133986051e+00
0.000000000000000000e+00 1.956100000000000113e-03 4.353675620685438119e+00
0.000000000000000000e+00 9.123840000000000248e-04 4.674537988811882983e+00
0.000000000000000000e+00 2.623999999999999813e-04 4.581054897394100323e+00
3.125000000000000173e-03 1.483010000000000101e-03 5.341741973387986731e-01
0.000000000000000000e+00 4.847869999999999784e-03 1.432488896720836014e+00
1.562500000000000000e-02 1.480699999999999942e-03 1.363613832261498793e+00
0.000000000000000000e+00 4.251709999999999691e-03 4.201013320684742425e+00
0.000000000000000000e+00 1.140989999999999930e-03 4.666629884265743655e+00
0.000000000000000000e+00 3.514429999999999811e-03 6.407502613778615075e-01
1.250000000000000069e-02 1.796609999999999917e-03 1.953957124700924641e+00
6.250000000000000347e-03 2.857150000000000141e-03 2.030726774128993384e+00
0.000000000000000000e+00 2.417099999999999948e-05 3.065408147699697938e+00
3.125000000000000173e-03 4.473490000000000105e-03 3.974361523294427379e+00
0.000000000000000000e+00 1.047680000000000052e-03 2.430833782498049267e+00
3.125000000000000173e-03 2.080770000000000015e-03 4.934424020911237108e+00
3.125000000000000173e-03 3.600170000000000193e-03 1.355739491909213168e+00
0.000000000000000000e+00 2.207359999999999791e-03 4.350666735225141579e+00
2.812500000000000069e-02 1.822779999999999973e-03 2.261113986398038733e+00
0.000000000000000000e+00 2.928060000000000124e-03 3.677519418570262655e+00
0.000000000000000000e+00 1.842880000000000082e-03 1.266827389605781340e+00
0.000000000000000000e+00 7.372449999999999793e-04 2.305611355270413831e+00
6.250000000000000347e-03 9.280220000000000136e-02 3.911024720034649960e+00
0.000000000000000000e+00 4.029630000000000191e-03 4.173950165146070646e+00
1.562500000000000000e-02 2.585409999999999792e-03 4.577859752728450360e+00
0.000000000000000000e+00 2.733059999999999830e-03 7.589202345816964401e-01
6.250000000000000347e-03 1.070649999999999935e-01 5.283885557698930757e-01
2.500000000000000139e-02 2.409280000000000189e-03 3.154269062362460296e+00
0.000000000000000000e+00 2.115199999999999806e-03 3.594022097081356337e-01
