0.000000000000000000e+00 4.828799999999999846e-04 3.907404180058558829e+00
2.187499999999999861e-02 2.010689999999999873e-03 3.198418394248761398e+00
0.000000000000000000e+00 5.149879999999999692e-04 3.508159313931499934e+00
9.374999999999999653e-03 2.358659999999999837e-03 4.249656654832895342e+00
3.125000000000000173e-03 2.080770000000000015e-03 1.156819127469802533e+00
1.874999999999999931e-02 2.518589999999999805e-03 1.573388424972209654e+00
3.125000000000000173e-03 1.939400000000000152e-02 3.737176043863208452e+00
0.000000000000000000e+00 4.206719999999999730e-04 3.296703286697004742e+00
2.187499999999999861e-02 1.957429999999999934e-02 3.109929472243545767e+00
3.125000000000000173e-03 1.647040000000000006e-03 4.043322862491749881e+00
0.000000000000000000e+00 2.160040000000000075e-05 4.156693724146537150e+00
0.000000000000000000e+00 1.517370000000000003e-02 9.663531866586899666e-01
0.000000000000000000e+00 2.685440000000000093e-04 2.818725919263087576e+00
0.000000000000000000e+00 5.224259999999999668e-03 8.102348020507998960e-01
0.000000000000000000e+00 9.279229999999999423e-03 1.395057467187608591e+00
0.000000000000000000e+00 0.000000000000000000e+00 1.737619941137023449e+00
0.000000000000000000e+00 6.604230000000000430e-04 3.745756658170900533e+00
6.250000000000000347e-03 1.023319999999999959e-02 4.739469204527035906e+00
1.874999999999999931e-02 2.350590000000000058e-03 4.966148740648134385e+00
0.000000000000000000e+00 5.009440000000000203e-04 4.177024442741044119e+00
0.000000000000000000e+00 9.884159999999999908e-04 3.661007965006884746e+00
2.500000000000000139e-02 2.273470000000000091e-03 4.097764526874851931e+00
2.500000000000000139e-02 3.751169999999999852e-03 1.755012407050474676e+00
0.000000000000000000e+00 3.187319999999999737e-02 4.008036367882292339e+00
0.000000000000000000e+00 9.734400000000000041e-04 8.529809933101040187e-02
3.125000000000000000e-02 1.953729999999999876e-03 3.729597185059024156e+00
3.125000000000000173e-03 4.513729999999999652e-03 3.156551865214181074e+00
0.000000000000000000e+00 8.273420000000000080e-04 4.522402917031003611e+00
6.250000000000000347e-03 1.051030000000000020e-01 7.336957647712227804e-01
3.125000000000000173e-03 4.929979999999999606e-03 4.365257928866551396e+00
0.000000000000000000e+00 2.105599999999999898e-04 4.088550250586496126e+00
2.500000000000000139e-02 1.192380000000000002e-02 4.927999584521510990e+00
3.125000000000000173e-03 4.086339999999999938e-03 1.873247040224607085e-01
6.250000000000000347e-03 9.664970000000000505e-02 2.516026809247533969e+00
2.187499999999999861e-02 2.693819999999999982e-03 1.484253455471473693e-01
1.562500000000000000e-02 1.990429999999999977e-02 5.009245384437949200e-01
0.000000000000000000e+00 3.838530000000000154e-03 4.493232845989890478e+00
2.187499999999999861e-02 3.298619999999999938e-03 4.704445840737572659e+00
0.000000000000000000e+00 2.627540000000000084e-02 4.108743947934804908e+00
1.874999999999999931e-02 8.279490000000000460e-03 5.508073821541736859e-01
1.562500000000000000e-02 2.459579999999999839e-03 2.031386054938692176e+00
0.000000000000000000e+00 3.616959999999999793e-03 3.288979506104937833e+00
2.187499999999999861e-02 5.595460000000000017e-03 1.330883348666552113e+00
2.812500000000000069e-02 7.390459999999999738e-03 2.180688229011908064e+00
1.562500000000000000e-02 1.421520000000000075e-02 1.580837930689208415e+00
1.874999999999999931e-02 2.509570000000000030e-03 4.876462372688977531e+00
0.000000000000000000e+00 1.384830000000000089e-03 2.807743145333729817e-01
4.062500000000000139e-02 9.228609999999999591e-02 2.521106844607272635e+00
3.125000000000000173e-03 4.137339999999999768e-03 3.906413968861024433e+00
0.000000000000000000e+00 3.259709999999999865e-03 2.853484780955650280e+00
1.250000000000000069e-02 1.484099999999999916e-03 2.519030230502417922e+00
0.000000000000000000e+00 2.097089999999999940e-05 4.569049895042681442e+00
0.000000000000000000e+00 0.000000000000000000e+00 1.643442578272557020e+00
0.000000000000000000e+00 2.301649999999999893e-05 3.028375065534322896e+00
0.000000000000000000e+00 3.929599999999999782e-04 1.721351170405635012e+00
9.374999999999999653e-03 9.254510000000000514e-02 6.386976522563764247e-01
0.000000000000000000e+00 3.112960000000000033e-02 7.120130951669501052e-01
0.000000000000000000e+00 1.380860000000000030e-03 4.187703681608877737e+00
0.000000000000000000e+00 7.301910000000000431e-04 4.562995969395569062e+00
0.000000000000000000e+00 1.030399999999999892e-03 1.712847199854101277e+00
0.000000000000000000e+00 3.414400000000000161e-03 1.531981561506995382e-01
0.000000000000000000e+00 0.000000000000000000e+00 1.507997172580379797e+00
5.937499999999999722e-02 2.600250000000000131e-02 3.688530457694168874e+00
3.125000000000000173e-03 7.427600000000000348e-03 1.446588802865846901e+00
1.250000000000000069e-02 1.726270000000000018e-03 1.125128518178993176e+00
1.250000000000000069e-02 1.695420000000000000e-03 3.192325431609018160e+00
2.500000000000000139e-02 2.759419999999999842e-03 3.751371944063463637e+00
0.000000000000000000e+00 3.153659999999999970e-03 5.477702489435043454e-01
2.812500000000000069e-02 4.235140000000000085e-03 3.779206976916220651e+00
0.000000000000000000e+00 1.098910000000000034e-03 4.183261976265663762e+00
0.000000000000000000e+00 9.685759999999999639e-04 4.453967902342271579e+00
0.000000000000000000e+00 1.031229999999999951e-03 5.427265952108278890e-01
0.000000000000000000e+00 4.427829999999999787e-03 3.325205380821102175e+00
0.000000000000000000e+00 0.000000000000000000e+00 4.366221164010255507e+00
2.187499999999999861e-02 3.086719999999999828e-03 4.961279083866820372e+00
0.000000000000000000e+00 1.213840000000000058e-02 4.473875487067202172e+00
0.000000000000000000e+00 4.488319999999999745e-04 4.196846096104906110e+00
0.000000000000000000e+00 5.044480000000000058e-04 2.848354417234593594e+00
0.000000000000000000e+00 4.207239999999999786e-04 3.233141698220078908e+00
1.250000000000000069e-02 3.024579999999999803e-03 4.136057682852840145e+00
0.000000000000000000e+00 2.286989999999999935e-05 2.485108183728180542e+00
6.250000000000000347e-03 2.599170000000000039e-03 6.514039201938826018e-02
0.000000000000000000e+00 7.685380000000000336e-04 3.946066460649154450e+00
3.125000000000000173e-03 1.610170000000000004e-02 4.120013972710684591e+00
0.000000000000000000e+00 7.915079999999999685e-03 2.559037469181395075e+00
0.000000000000000000e+00 4.234810000000000202e-04 2.236161927706072916e+00
0.000000000000000000e+00 0.000000000000000000e+00 6.909527628718337144e-01
2.812500000000000069e-02 1.514369999999999909e-03 2.428903303158229665e+00
6.250000000000000347e-03 9.524820000000000508e-02 8.570387258740130854e-01
0.000000000000000000e+00 1.418879999999999968e-03 4.065470780304884180e+00
0.000000000000000000e+00 3.539780000000000183e-03 2.038865121095283950e+00
5.625000000000000139e-02 9.372400000000000175e-02 4.429512648409228426e+00
2.187499999999999861e-02 2.675579999999999885e-03 2.760301643585783005e-01
3.125000000000000173e-03 1.332990000000000043e-03 4.313951737956799093e+00
2.812500000000000069e-02 2.807569999999999857e-02 3.090792196426636718e+00
0.000000000000000000e+00 1.952000000000000013e-04 7.994494921491174244e-01
0.000000000000000000e+00 3.307520000000000208e-04 7.086012131757102317e-01
0.000000000000000000e+00 2.807679999999999790e-04 4.188679984411919355e-01
0.000000000000000000e+00 2.236220000000000135e-03 1.475755125847333371e+00
1.874999999999999931e-02 2.912940000000000147e-03 1.209337925613640952e+00
0.000000000000000000e+00 3.331839999999999975e-03 4.289873190716132711e+00
0.000000000000000000e+00 1.738879999999999994e-04 1.305002510612233158e+00
0.000000000000000000e+00 4.359860000000000124e-03 2.002299074477858376e+00
1.874999999999999931e-02 3.656770000000000159e-03 3.880750141345731929e+00
0.000000000000000000e+00 6.028389999999999790e-04 2.561982680449830241e+00
2.500000000000000139e-02 2.916290000000000202e-03 1.671780373284317278e+00
4.687500000000000000e-02 9.208470000000000544e-02 3.747868592415487754e+00
9.374999999999999653e-03 1.924350000000000019e-03 2.298655310692070408e+00
1.562500000000000000e-02 2.156990000000000123e-03 1.936527100695789594e-01
1.874999999999999931e-02 1.502719999999999924e-03 3.009462826811931668e-01
0.000000000000000000e+00 3.941440000000000048e-03 1.811231838348081435e+00
0.000000000000000000e+00 1.514820000000000055e-03 3.000238405118516472e+00
1.562500000000000000e-02 2.603009999999999786e-03 2.960113615803848575e+00
0.000000000000000000e+00 3.413629999999999963e-03 1.464474615959854287e-01
2.500000000000000139e-02 2.735679999999999883e-03 3.994745055347927565e+00
0.000000000000000000e+00 7.265999999999999889e-04 3.220021872817032893e+00
6.250000000000000347e-03 1.932539999999999952e-03 4.910967558186106530e+00
2.500000000000000139e-02 2.720380000000000107e-03 1.470698898098328211e+00
0.000000000000000000e+00 9.706880000000000413e-04 4.565714064797525396e+00
2.500000000000000139e-02 1.125480000000000057e-02 4.198136623777975807e+00
2.500000000000000139e-02 4.314239999999999568e-03 2.490177113881779647e+00
0.000000000000000000e+00 3.491010000000000120e-03 1.068157785006126348e+00
0.000000000000000000e+00 8.935679999999999665e-04 4.686599260561312263e+00
0.000000000000000000e+00 2.326980000000000194e-03 2.097045454508128959e+00
3.125000000000000173e-03 1.000780000000000003e-01 4.357761030082374365e-01
6.250000000000000347e-03 9.584670000000000689e-02 1.606419690470024975e+00
0.000000000000000000e+00 2.428539999999999865e-03 1.788811791380755967e+00
4.374999999999999722e-02 1.058100000000000013e-01 2.583418748851612490e-01
3.125000000000000173e-03 9.668140000000000067e-02 2.178952699306135887e-01
3.125000000000000173e-03 9.545199999999999518e-02 2.235881304212148368e+00
0.000000000000000000e+00 6.483429999999999749e-02 2.724333890145508086e+00
6.250000000000000347e-03 1.986939999999999974e-03 3.029655587241917747e+00
0.000000000000000000e+00 4.960709999999999469e-04 1.413037539691810895e+00
0.000000000000000000e+00 5.089919999999999948e-04 4.568218438411963511e+00
0.000000000000000000e+00 2.853689999999999873e-03 7.353656283760212631e-01
3.125000000000000173e-03 1.798080000000000078e-03 1.435540875645587855e+00
2.812500000000000069e-02 1.053929999999999971e-02 3.191268654490178047e+00
0.000000000000000000e+00 2.128640000000000003e-04 2.478963963304981810e+00
2.500000000000000139e-02 2.045570000000000027e-03 1.905606470666956653e+00
0.000000000000000000e+00 1.787900000000000036e-03 4.830032258679604951e+00
0.000000000000000000e+00 4.005449999999999983e-02 4.612118553915185437e+00
0.000000000000000000e+00 3.112960000000000033e-02 4.818510407950634900e+00
0.000000000000000000e+00 7.575740000000000078e-04 2.061915005923832922e+00
3.125000000000000000e-02 8.347580000000000278e-03 4.702198024498718709e+00
0.000000000000000000e+00 6.077440000000000142e-04 1.690037143303750877e+00
2.500000000000000139e-02 2.094079999999999900e-03 7.334598309918693992e-01
1.874999999999999931e-02 1.987519999999999998e-03 2.363786313593676969e+00
0.000000000000000000e+00 1.041070000000000060e-03 2.737320108156355847e+00
0.000000000000000000e+00 1.037479999999999913e-03 2.963775659983288069e+00
0.000000000000000000e+00 7.342950000000000432e-04 3.142772617976230976e+00
0.000000000000000000e+00 4.699080000000000010e-04 2.334852311012461268e+00
0.000000000000000000e+00 6.073279999999999694e-04 1.126199322828052463e+00
3.125000000000000173e-03 4.612289999999999793e-03 6.591735748290555863e-01
2.187499999999999861e-02 1.829820000000000014e-03 2.778601110990145173e+00
2.187499999999999861e-02 2.794749999999999925e-03 3.412171841754427781e+00
0.000000000000000000e+00 0.000000000000000000e+00 2.713670061304749748e+00
6.250000000000000347e-03 2.126899999999999902e-01 1.319286548267480930e+00
0.000000000000000000e+00 9.048959999999999773e-04 1.629188833946179749e+00
0.000000000000000000e+00 9.156480000000000261e-04 9.026531987118463496e-01
1.562500000000000000e-02 2.348799999999999846e-03 3.650276865837917661e+00
2.187499999999999861e-02 2.158460000000000066e-03 3.967015615371360049e+00
3.125000000000000173e-03 1.724039999999999948e-02 3.850793742343072701e+00
0.000000000000000000e+00 1.372860000000000053e-03 3.180610577765574654e+00
0.000000000000000000e+00 4.079420000000000268e-03 1.567625132895045237e-02
0.000000000000000000e+00 1.217919999999999940e-03 1.919115202864016823e+00
0.000000000000000000e+00 4.457909999999999824e-03 3.945627874812025482e+00
1.250000000000000069e-02 2.641730000000000120e-03 1.299886322044673248e+00
0.000000000000000000e+00 2.244349999999999991e-03 1.382774486106116418e+00
0.000000000000000000e+00 1.352569999999999988e-02 4.156148178005574678e+00
0.000000000000000000e+00 2.305910000000000086e-05 1.154812598371925514e+00
0.000000000000000000e+00 1.543679999999999965e-04 1.124187612723148710e-01
0.000000000000000000e+00 3.754240000000000159e-04 1.689570483359245756e+00
6.250000000000000347e-03 2.553020000000000029e-03 2.262032217056206829e+00
0.000000000000000000e+00 1.110209999999999930e-03 5.055129892756549115e-01
1.562500000000000000e-02 2.535229999999999862e-03 3.620406512944789768e+00
3.125000000000000173e-03 3.701630000000000024e-03 3.943682422746003891e+00
2.187499999999999861e-02 2.510140000000000114e-03 4.195783274496257320e+00
0.000000000000000000e+00 9.914240000000000812e-04 6.817565060138291999e-01
6.250000000000000347e-03 3.658559999999999937e-03 4.004525789157826310e+00
0.000000000000000000e+00 3.879040000000000049e-04 1.656445197901277311e+00
0.000000000000000000e+00 4.388710000000000202e-04 2.306328822935697076e+00
1.250000000000000069e-02 1.840059999999999916e-03 4.993493466145842996e-01
0.000000000000000000e+00 5.619839999999999645e-04 2.986267913245338690e+00
0.000000000000000000e+00 1.508600000000000045e-02 3.724262498717570313e+00
0.000000000000000000e+00 6.787429999999999852e-02 2.385830606282344668e+00
0.000000000000000000e+00 1.126339999999999980e-03 2.829455150205696157e+00
0.000000000000000000e+00 3.107200000000000066e-04 1.956399985058353552e+00
6.250000000000000347e-03 9.166879999999999473e-02 3.926401474659977797e+00
6.250000000000000347e-03 1.453499999999999931e-03 3.985692741374822212e+00
0.000000000000000000e+00 1.772539999999999966e-03 4.159599568308969264e-02
1.562500000000000000e-02 2.109820000000000098e-03 2.194577226452743002e+00
0.000000000000000000e+00 1.384830000000000089e-03 3.346922210880026727e-01
2.187499999999999861e-02 7.082540000000000016e-03 8.365853326293098968e-01
0.000000000000000000e+00 3.875199999999999760e-04 3.991745143835602860e+00
0.000000000000000000e+00 3.442690000000000333e-02 6.883523684527659281e-02
0.000000000000000000e+00 6.588029999999999928e-03 1.543846311731141174e+00
3.125000000000000173e-03 1.103360000000000061e-03 3.399639724211580560e+00
0.000000000000000000e+00 3.020419999999999789e-03 4.282674689798064094e+00
0.000000000000000000e+00 4.115540000000000105e-04 2.046686112153354387e+00
0.000000000000000000e+00 1.438080000000000001e-03 2.097944425036613492e+00
0.000000000000000000e+00 1.225299999999999914e-03 1.448870297655955763e+00
1.562500000000000000e-02 2.949820000000000133e-03 3.579848424003413854e+00
0.000000000000000000e+00 9.576440000000000083e-04 1.667656015349247012e+00
6.250000000000000347e-03 9.853199999999999459e-02 1.095667776243695712e+00
2.187499999999999861e-02 2.566530000000000027e-03 2.103395037472725715e+00
1.874999999999999931e-02 3.357249999999999991e-03 4.257493324407662705e+00
0.000000000000000000e+00 0.000000000000000000e+00 1.387151905923354356e+00
6.250000000000000347e-03 1.473219999999999912e-03 3.394616950930276378e+00
1.874999999999999931e-02 2.605890000000000029e-03 3.347421066292089797e+00
0.000000000000000000e+00 1.853439999999999927e-04 4.693734733635790413e+00
0.000000000000000000e+00 2.831999999999999990e-04 4.592914550423875752e+00
0.000000000000000000e+00 4.111049999999999882e-04 2.009119470976820754e+00
3.125000000000000173e-03 1.502410000000000030e-02 3.288196390411706194e+00
0.000000000000000000e+00 3.334400000000000059e-04 1.558098062986993382e+00
3.125000000000000173e-03 2.517120000000000121e-02 2.017501791314630477e+00
0.000000000000000000e+00 3.292799999999999807e-03 1.994590895971787292e-01
0.000000000000000000e+00 7.434009999999999794e-04 2.128648578258486967e+00
1.562500000000000000e-02 7.812480000000000119e-03 3.069919835698600608e+00
9.374999999999999653e-03 3.427330000000000133e-03 1.583332331820404448e+00
5.625000000000000139e-02 9.213159999999999406e-02 2.473509890787769727e+00
0.000000000000000000e+00 2.612329999999999861e-02 1.591921482923867703e+00
2.812500000000000069e-02 1.613630000000000012e-03 3.836591564919086927e+00
0.000000000000000000e+00 1.023870000000000075e-03 1.056075858456658079e+00
3.125000000000000173e-03 3.446339999999999994e-03 1.832302836784058808e+00
9.374999999999999653e-03 5.809090000000000260e-03 2.100372921202964260e-02
0.000000000000000000e+00 4.549029999999999914e-04 1.182163846570337018e+00
2.500000000000000139e-02 1.701119999999999976e-03 2.407211298965195478e+00
0.000000000000000000e+00 2.782080000000000035e-04 2.685204782413936453e+00
0.000000000000000000e+00 4.113279999999999758e-04 4.227863430546431545e+00
3.125000000000000173e-03 4.234429999999999965e-03 7.299892126264068137e-01
2.500000000000000139e-02 3.187390000000000015e-03 2.321856075063677416e+00
3.125000000000000173e-03 1.683459999999999904e-03 9.161920286825209203e-01
0.000000000000000000e+00 9.149440000000000003e-04 9.874819046830468627e-01
0.000000000000000000e+00 0.000000000000000000e+00 8.717704887848981565e-01
0.000000000000000000e+00 7.820040000000000324e-03 2.121523861151263901e+00
0.000000000000000000e+00 1.018180000000000040e-03 4.327465041294702885e+00
1.874999999999999931e-02 1.785150000000000105e-03 8.089767786732166011e-01
1.250000000000000069e-02 1.288040000000000018e-02 1.837863991218389614e+00
1.874999999999999931e-02 1.814400000000000084e-03 6.886300461726324595e-01
6.250000000000000347e-03 1.856489999999999876e-02 4.531602223895658810e+00
1.250000000000000069e-02 9.263970000000000538e-02 4.723903300222516144e+00
3.125000000000000000e-02 9.224720000000000142e-02 1.991125394144421801e+00
0.000000000000000000e+00 8.647900000000000465e-04 8.083116527177214294e-01
1.250000000000000069e-02 1.724220000000000049e-03 3.182446329910280980e+00
0.000000000000000000e+00 2.186239999999999885e-03 4.032584844476927444e+00
0.000000000000000000e+00 1.656319999999999971e-03 9.290465759182331418e-01
1.562500000000000000e-02 3.742979999999999918e-03 2.864776068402818954e+00
1.250000000000000069e-02 4.449980000000000081e-03 1.890858670626532900e-01
3.125000000000000173e-03 1.926589999999999943e-03 8.092120714100164980e-01
0.000000000000000000e+00 1.201510000000000035e-03 5.291445028580532561e-01
1.874999999999999931e-02 2.032060000000000029e-03 9.831830458295132136e-01
0.000000000000000000e+00 1.764219999999999938e-03 2.762352422851889866e+00
0.000000000000000000e+00 5.394189999999999662e-04 9.034390240179485110e-01
0.000000000000000000e+00 0.000000000000000000e+00 4.585553152020650280e+00
3.125000000000000173e-03 2.537919999999999933e-03 5.727411152500355707e-01
1.250000000000000069e-02 2.319970000000000088e-01 4.722163581878631611e+00
0.000000000000000000e+00 1.270829999999999920e-03 2.573546836248064906e+00
1.874999999999999931e-02 2.190589999999999898e-02 2.857058662898004364e+00
0.000000000000000000e+00 4.258539999999999786e-04 2.503596898996835129e+00
1.250000000000000069e-02 1.060510000000000064e-01 1.517990668816812105e+00
3.125000000000000000e-02 9.385430000000000161e-02 1.846487205083048311e+00
0.000000000000000000e+00 1.070760000000000028e-03 1.835144938873274345e+00
3.437500000000000278e-02 9.307709999999999595e-02 1.215072222265050517e+00
3.125000000000000173e-03 9.515260000000000384e-02 2.330576669866185391e+00
0.000000000000000000e+00 1.107069999999999929e-03 4.557089730004387995e+00
2.187499999999999861e-02 1.599359999999999974e-03 1.392456042620820345e+00
0.000000000000000000e+00 3.499579999999999965e-03 1.033295553726483185e+00
3.125000000000000173e-03 4.915250000000000348e-03 1.194567705589273832e+00
9.374999999999999653e-03 2.110850000000000053e-03 7.627149185489012773e-03
0.000000000000000000e+00 1.111489999999999917e-03 3.993920296802204284e+00
0.000000000000000000e+00 3.514060000000000165e-04 1.851083060583471607e+00
0.000000000000000000e+00 9.082240000000000105e-04 1.930832199436283148e+00
6.250000000000000347e-03 5.744189999999999713e-03 1.800057807710239155e+00
0.000000000000000000e+00 2.339260000000000124e-03 2.160485733184142720e+00
0.000000000000000000e+00 2.369250000000000059e-05 1.607394108722798309e-01
1.562500000000000000e-02 1.727620000000000024e-03 3.680215329879667152e+00
3.125000000000000173e-03 4.054590000000000277e-03 2.973379675137505895e+00
4.374999999999999722e-02 9.229660000000000641e-02 9.067078430416092294e-01
3.125000000000000000e-02 9.210870000000000168e-02 5.407481651549284063e-01
1.562500000000000000e-02 2.397380000000000171e-03 2.850078390810770301e+00
9.375000000000000000e-02 8.572280000000000177e-02 9.507146438129615573e-01
3.125000000000000173e-03 1.308219999999999912e-03 5.967696541863526383e-01
0.000000000000000000e+00 3.971199999999999925e-04 5.014629421111865826e-01
3.125000000000000173e-03 2.582399999999999887e-03 7.120372240725270085e-01
6.250000000000000347e-03 9.484080000000000288e-02 2.290539842464126785e+00
3.125000000000000173e-03 3.509819999999999867e-03 2.693064140894607661e-01
0.000000000000000000e+00 4.337410000000000202e-04 2.533121795601130266e+00
0.000000000000000000e+00 1.541059999999999913e-03 1.544964372812860809e+00
0.000000000000000000e+00 2.301590000000000100e-05 2.997690460307596005e+00
0.000000000000000000e+00 9.852179999999999445e-04 5.306206145409214647e-01
3.125000000000000173e-03 9.628989999999999772e-02 2.777872413039276900e+00
0.000000000000000000e+00 5.573760000000000520e-04 2.484339720737753776e+00
3.125000000000000173e-03 2.829289999999999930e-02 2.155182145001843796e-01
1.874999999999999931e-02 2.166459999999999827e-03 4.703548102988082569e+00
0.000000000000000000e+00 1.855419999999999986e-03 4.893984062778756972e+00
0.000000000000000000e+00 1.106180000000000010e-03 3.511740734457183155e+00
6.250000000000000347e-03 5.808449999999999724e-03 2.198357291424608562e+00
3.125000000000000173e-03 1.638399999999999926e-03 1.999648161572904037e+00
1.562500000000000000e-02 2.651460000000000015e-03 1.991403376188300545e+00
3.125000000000000173e-03 1.289280000000000070e-03 1.953658475792505289e+00
0.000000000000000000e+00 1.002239999999999945e-03 3.478302673075731377e+00
3.125000000000000173e-03 1.638399999999999926e-03 2.308995751674104646e+00
3.125000000000000173e-03 4.023419999999999774e-03 4.125822411720164951e+00
0.000000000000000000e+00 0.000000000000000000e+00 4.400635728992408069e-02
3.125000000000000173e-03 3.728379999999999889e-03 6.271154834355452401e-01
3.125000000000000173e-03 1.013400000000000065e-02 3.195971106081711532e+00
1.562500000000000000e-02 2.738239999999999858e-03 1.178972249281364792e+00
0.000000000000000000e+00 2.334720000000000198e-03 4.803617172861168960e+00
9.374999999999999653e-03 1.451459999999999903e-03 2.848809757941502596e+00
1.250000000000000069e-02 9.263970000000000538e-02 4.972010425946110423e+00
0.000000000000000000e+00 1.493620000000000017e-02 2.515257878888313314e+00
1.874999999999999931e-02 2.169019999999999802e-03 2.252217561493748299e+00
3.125000000000000000e-02 4.393539999999999598e-03 4.989113742691694497e+00
0.000000000000000000e+00 1.696770000000000006e-03 1.894839795682567996e-01
0.000000000000000000e+00 2.363400000000000106e-05 9.616092997703007406e-01
1.562500000000000000e-02 1.058830000000000049e-01 1.259951935149353774e+00
0.000000000000000000e+00 6.011719999999999694e-04 4.679540304524026695e+00
3.125000000000000173e-03 1.638399999999999926e-03 5.650434620829769550e-01
0.000000000000000000e+00 2.263369999999999982e-05 4.877554625424845192e+00
0.000000000000000000e+00 1.291650000000000090e-03 2.203253249943231573e+00
3.125000000000000173e-03 2.557569999999999896e-03 2.974215151120993550e+00
1.562500000000000000e-02 2.516579999999999859e-02 3.915242998523300155e+00
3.125000000000000173e-03 2.722560000000000171e-03 1.356147308281898667e+00
6.250000000000000347e-03 1.058240000000000014e-01 3.502560996824441553e+00
0.000000000000000000e+00 6.447390000000000065e-02 2.203837909572272213e+00
1.562500000000000000e-02 1.840510000000000063e-03 8.263319429322668608e-01
0.000000000000000000e+00 6.321859999999999979e-02 9.936050558309761360e-02
0.000000000000000000e+00 9.271420000000000702e-03 5.387618286413303759e-01
0.000000000000000000e+00 5.012220000000000390e-03 1.970497456558465421e+00
3.125000000000000173e-03 1.018039999999999917e-02 2.118614589445108720e+00
0.000000000000000000e+00 2.085309999999999941e-03 2.323633188100364677e+00
0.000000000000000000e+00 2.516930000000000122e-03 4.295483176198844788e+00
3.125000000000000173e-03 1.307779999999999923e-03 1.414354795169359580e+00
2.500000000000000139e-02 8.336899999999999519e-03 4.370114273397615712e+00
0.000000000000000000e+00 3.203839999999999900e-03 3.424444226071909902e+00
0.000000000000000000e+00 1.199229999999999914e-03 3.222475345538971414e+00
0.000000000000000000e+00 3.545479999999999942e-04 3.414579084026207578e+00
0.000000000000000000e+00 9.374080000000000346e-04 3.899191715933774560e+00
3.125000000000000173e-03 1.065799999999999942e-01 4.172549080341395822e+00
2.500000000000000139e-02 1.926399999999999987e-03 6.020950239366518186e-01
1.250000000000000069e-02 2.702529999999999863e-03 7.812193556843277653e-01
0.000000000000000000e+00 2.198269999999999998e-03 2.211882154782500720e+00
2.812500000000000069e-02 2.847109999999999919e-02 3.624372142584983525e+00
9.374999999999999653e-03 2.235009999999999948e-03 5.764028522265651766e-01
6.562500000000000278e-02 4.602219999999999922e-02 4.014930532479175973e+00
3.125000000000000173e-03 3.701680000000000161e-03 4.793920509889525228e+00
0.000000000000000000e+00 9.680640000000000338e-04 4.625399593309786006e+00
0.000000000000000000e+00 3.998189999999999882e-04 7.987987201977053697e-01
0.000000000000000000e+00 2.332810000000000116e-05 7.091994448653377026e-01
4.687500000000000000e-02 2.038070000000000159e-02 3.125422816719152230e+00
0.000000000000000000e+00 1.149059999999999925e-03 1.815711266073982699e-01
1.874999999999999931e-02 1.814400000000000084e-03 2.883157382286988257e-01
0.000000000000000000e+00 4.031999999999999885e-04 2.532492965283583697e-01
6.250000000000000347e-03 9.567040000000000266e-02 4.024454325252913023e-01
0.000000000000000000e+00 4.144980000000000366e-03 4.690759888317497239e-01
1.874999999999999931e-02 2.926779999999999920e-03 2.760453968244825251e+00
9.374999999999999653e-03 1.033109999999999931e-02 2.960523306265680610e+00
0.000000000000000000e+00 2.078270000000000117e-02 2.875903683330272465e+00
2.500000000000000139e-02 2.627260000000000185e-03 3.777871374996757847e+00
2.500000000000000139e-02 2.137280000000000083e-03 3.787378089205649445e+00
0.000000000000000000e+00 9.727359999999999783e-04 2.005041723169331380e+00
0.000000000000000000e+00 3.900800000000000057e-04 6.408872753189404081e-01
0.000000000000000000e+00 0.000000000000000000e+00 1.115121123000694103e+00
2.500000000000000139e-02 1.359039999999999944e-03 1.618874905532393660e+00
6.250000000000000347e-03 4.314750000000000009e-03 2.302239816093982316e+00
0.000000000000000000e+00 1.754499999999999983e-03 3.774675446404468504e-01
2.187499999999999861e-02 2.723640000000000089e-02 2.774152086509785065e+00
1.874999999999999931e-02 2.812859999999999926e-03 3.075921626431690648e+00
0.000000000000000000e+00 9.665280000000000269e-04 2.954691790056914513e+00
2.500000000000000139e-02 3.277500000000000031e-03 2.940510457440064229e+00
0.000000000000000000e+00 1.430339999999999997e-03 6.915287344051707086e-01
9.374999999999999653e-03 2.124719999999999942e-01 4.236886072899327615e+00
2.500000000000000139e-02 2.361149999999999794e-03 3.021011757918406815e+00
2.500000000000000139e-02 2.476480000000000087e-03 2.929968632910106230e+00
3.125000000000000173e-03 8.172799999999999813e-04 4.899367263174758236e+00
0.000000000000000000e+00 3.602559999999999877e-04 4.433921025346210243e-01
0.000000000000000000e+00 3.959039999999999825e-04 1.122286456155348056e+00
2.500000000000000139e-02 2.167810000000000049e-03 1.287242762190774492e+00
2.812500000000000069e-02 1.738369999999999933e-03 2.023963514124631491e+00
2.812500000000000069e-02 5.184700000000000419e-03 2.064805351795306887e+00
1.000000000000000056e-01 9.298760000000000359e-02 1.752274035733874413e+00
1.250000000000000069e-02 2.205379999999999840e-03 1.625351022077614616e-03
0.000000000000000000e+00 1.510979999999999962e-02 3.989597808837878290e+00
0.000000000000000000e+00 1.183550000000000010e-03 4.378933777833299956e+00
3.125000000000000173e-03 2.713129999999999795e-03 5.416616051828143652e-01
0.000000000000000000e+00 1.957700000000000065e-02 4.726496254706990641e+00
0.000000000000000000e+00 5.598110000000000109e-04 2.771718046559615178e+00
6.250000000000000347e-03 6.815739999999999819e-03 4.378166813573322713e+00
0.000000000000000000e+00 9.210880000000000283e-04 4.146942368425726722e-01
0.000000000000000000e+00 1.356479999999999969e-03 8.758757595796484718e-01
3.437500000000000278e-02 9.149630000000000263e-02 2.217762686431934416e-01
4.062500000000000139e-02 9.251829999999999776e-02 2.585627850334146771e+00
0.000000000000000000e+00 8.989440000000000451e-04 1.943307810359131249e+00
6.250000000000000347e-03 9.990620000000000056e-02 4.629164387203213771e+00
7.499999999999999722e-02 9.044040000000000412e-02 3.398935989209294739e+00
0.000000000000000000e+00 1.216319999999999901e-03 3.517568734906084682e+00
5.625000000000000139e-02 1.034709999999999935e-01 2.130211694648735055e+00
1.874999999999999931e-02 2.764669999999999888e-03 4.304685244515853881e+00
0.000000000000000000e+00 5.509620000000000012e-04 1.744778375023219308e+00
1.250000000000000069e-02 9.767149999999999443e-02 2.594442112582712845e+00
0.000000000000000000e+00 0.000000000000000000e+00 2.553481850444155654e+00
1.562500000000000000e-02 2.314049999999999788e-03 1.828925714834972460e+00
0.000000000000000000e+00 4.175180000000000232e-04 8.062726019507288067e-01
0.000000000000000000e+00 0.000000000000000000e+00 4.661475191108732652e-01
9.374999999999999653e-03 2.482300000000000131e-02 2.448094058772838366e+00
0.000000000000000000e+00 3.406020000000000054e-03 1.795225198507614639e+00
0.000000000000000000e+00 2.034710000000000040e-05 1.906287703399459632e+00
6.250000000000000347e-03 1.172290000000000094e-03 4.541569569813337814e+00
0.000000000000000000e+00 3.508610000000000114e-03 9.614379347572410417e-01
1.562500000000000000e-02 2.204289999999999809e-03 4.968385821861281970e-01
6.250000000000000347e-03 2.110130000000000061e-01 4.037498335129269256e-01
0.000000000000000000e+00 4.125800000000000105e-04 4.206977586034609473e+00
0.000000000000000000e+00 2.696000000000000046e-03 2.094194075230460417e+00
1.562500000000000000e-02 3.362299999999999924e-03 3.818908215573171727e+00
0.000000000000000000e+00 3.823359999999999931e-04 2.085086290950298960e+00
1.250000000000000069e-02 3.212539999999999840e-03 3.867735363470992116e-01
0.000000000000000000e+00 6.365439999999999553e-04 3.467058867904397435e+00
1.874999999999999931e-02 2.311300000000000073e-03 3.729620613444140087e-01
3.125000000000000173e-03 4.120379999999999876e-03 3.239272582290744662e+00
2.187499999999999861e-02 2.832770000000000080e-03 3.390674237679048630e+00
3.125000000000000173e-03 4.231099999999999792e-03 4.634190494448819031e+00
0.000000000000000000e+00 7.046700000000000142e-04 1.464002752431852628e+00
0.000000000000000000e+00 3.043199999999999811e-03 5.316616296180548540e-01
0.000000000000000000e+00 9.898330000000000756e-04 3.709965154493292339e+00
4.062500000000000139e-02 2.112800000000000095e-02 1.099703773754778346e+00
1.250000000000000069e-02 9.956810000000000660e-02 4.398608530257671845e+00
5.312499999999999861e-02 9.410430000000000184e-02 2.984157560621595096e+00
3.125000000000000173e-03 4.417279999999999991e-03 3.630968233715485383e+00
0.000000000000000000e+00 4.299579999999999787e-04 3.136483177701268943e+00
0.000000000000000000e+00 1.110979999999999910e-03 7.281625743112607463e-01
0.000000000000000000e+00 1.579389999999999961e-03 3.701529142962669994e+00
0.000000000000000000e+00 4.310460000000000333e-03 1.119917477133569150e+00
0.000000000000000000e+00 1.496130000000000029e-03 3.895392036607910224e+00
0.000000000000000000e+00 6.068150000000000236e-04 9.142400488414748061e-01
0.000000000000000000e+00 3.993600000000000253e-04 2.584047859388100221e+00
2.812500000000000069e-02 1.815100000000000047e-03 2.555455286924091407e+00
0.000000000000000000e+00 2.187880000000000033e-02 2.323502376288425708e+00
1.250000000000000069e-02 1.269570000000000030e-03 2.726146350269758933e+00
1.000000000000000056e-01 8.119260000000000366e-02 4.388030654536129171e-01
0.000000000000000000e+00 7.860380000000000145e-03 3.545957751744601705e+00
3.125000000000000173e-03 1.563780000000000074e-03 1.188438804947710814e+00
1.874999999999999931e-02 9.264400000000000412e-02 4.667547864500662058e+00
3.125000000000000173e-03 1.858239999999999935e-03 4.788896860383554888e+00
0.000000000000000000e+00 2.410750000000000132e-03 1.184546229297038344e+00
0.000000000000000000e+00 1.039170000000000068e-03 4.404696545558934417e+00
3.125000000000000173e-03 1.707579999999999992e-03 1.601945319838274928e+00
0.000000000000000000e+00 3.580540000000000112e-03 2.375007988203214904e+00
3.125000000000000173e-03 3.362430000000000020e-03 8.961794864237504488e-01
2.500000000000000139e-02 2.497019999999999969e-03 3.814419846953009952e-01
0.000000000000000000e+00 8.625279999999999926e-04 1.527128514225012390e+00
0.000000000000000000e+00 5.547450000000000428e-04 1.226171327840455572e+00
0.000000000000000000e+00 7.331409999999999793e-04 2.472298850512808066e+00
1.874999999999999931e-02 3.818010000000000154e-02 2.066487468402757433e+00
0.000000000000000000e+00 2.298750000000000012e-03 9.600709031192866671e-01
0.000000000000000000e+00 9.895380000000000495e-03 7.474994630263825934e-01
0.000000000000000000e+00 8.571600000000000399e-04 2.723487648757097368e+00
0.000000000000000000e+00 1.186500000000000055e-03 1.738439871699451356e+00
0.000000000000000000e+00 7.180129999999999846e-04 2.518097491425131729e+00
0.000000000000000000e+00 0.000000000000000000e+00 1.175006510724696529e+00
1.874999999999999931e-02 2.791169999999999936e-03 2.552156173571246356e+00
6.250000000000000347e-03 1.625790000000000004e-03 4.631797042475324311e+00
3.125000000000000173e-03 4.090049999999999589e-03 4.407789350633267711e-01
6.250000000000000347e-03 2.419070000000000161e-03 2.839935053047726754e+00
2.500000000000000139e-02 3.547649999999999849e-03 4.510278063816366867e+00
6.250000000000000347e-03 9.527620000000000533e-02 3.326665445148564437e+00
0.000000000000000000e+00 1.023819999999999938e-03 2.589875961854819941e+00
0.000000000000000000e+00 6.294399999999999908e-04 4.701609076404199783e+00
0.000000000000000000e+00 4.914560000000000326e-04 3.741707486717096742e+00
6.250000000000000347e-03 1.738170000000000036e-03 1.172657617595920687e+00
1.250000000000000069e-02 1.636480000000000053e-03 1.906376813098663581e+00
0.000000000000000000e+00 7.373730000000000432e-04 2.120359970852220277e-01
1.874999999999999931e-02 2.268609999999999897e-03 2.077707933093399628e+00
0.000000000000000000e+00 1.438080000000000001e-03 1.065606147351148447e+00
0.000000000000000000e+00 3.306620000000000132e-03 4.571633474783526552e+00
0.000000000000000000e+00 1.179479999999999938e-02 3.036194687594659491e+00
0.000000000000000000e+00 2.272909999999999894e-05 9.015569468858480873e-01
2.500000000000000139e-02 1.485699999999999955e-03 3.118248063992185237e+00
0.000000000000000000e+00 1.130820000000000046e-03 2.602089308893033692e+00
0.000000000000000000e+00 1.371709999999999943e-03 4.845263469361846376e+00
0.000000000000000000e+00 9.144319999999999619e-04 4.215044746874369253e+00
2.187499999999999861e-02 1.591050000000000103e-02 2.975719144863840704e+00
1.562500000000000000e-02 2.696219999999999867e-02 1.751501718751546921e-02
0.000000000000000000e+00 7.211500000000000462e-04 2.036773896889576552e-01
3.125000000000000173e-03 3.785220000000000164e-03 4.399181878966579973e+00
6.250000000000000347e-03 1.828100000000000037e-03 3.571122013440413134e+00
0.000000000000000000e+00 1.115330000000000097e-03 2.671234794261490464e+00
1.562500000000000000e-02 2.025859999999999987e-03 4.020867203516266031e+00
3.125000000000000000e-02 2.731839999999999963e-02 1.593607927778190714e+00
1.874999999999999931e-02 2.117819999999999859e-03 8.442313971765735836e-01
9.374999999999999653e-03 2.584130000000000021e-03 2.112551940524320937e+00
0.000000000000000000e+00 1.548800000000000079e-04 3.187649512685475361e+00
2.187499999999999861e-02 3.019459999999999852e-03 9.091490220785097831e-01
0.000000000000000000e+00 0.000000000000000000e+00 1.145498468390923730e+00
0.000000000000000000e+00 8.946720000000000020e-04 4.799334524310366890e-01
2.500000000000000139e-02 9.325509999999999355e-02 3.883344353720754150e+00
0.000000000000000000e+00 0.000000000000000000e+00 1.099728531460758552e+00
6.250000000000000347e-03 1.842370000000000075e-03 2.342926188223106720e+00
0.000000000000000000e+00 1.179190000000000099e-03 2.983134251201253750e+00
0.000000000000000000e+00 1.029179999999999982e-03 2.923418581913632242e+00
0.000000000000000000e+00 2.678399999999999835e-04 1.072372724682897349e+00
1.874999999999999931e-02 2.867709999999999877e-03 1.803423925574947795e+00
1.250000000000000069e-02 2.247620000000000087e-03 1.910165102948642613e+00
0.000000000000000000e+00 4.311760000000000202e-04 4.696167310955702057e+00
0.000000000000000000e+00 9.700480000000000474e-04 1.751104012030138435e+00
0.000000000000000000e+00 2.676479999999999962e-04 4.386004074106858219e+00
1.874999999999999931e-02 4.284030000000000303e-03 4.542750692185977712e+00
2.500000000000000139e-02 2.740540000000000077e-03 3.941429523608688257e+00
2.187499999999999861e-02 9.227779999999999316e-02 1.096359717217072927e+00
0.000000000000000000e+00 1.576400000000000023e-02 8.216916870237128689e-01
0.000000000000000000e+00 4.883760000000000011e-04 2.798667233295113910e+00
0.000000000000000000e+00 3.537789999999999750e-04 2.422769489662088827e+00
0.000000000000000000e+00 2.077489999999999993e-05 4.723016363589501942e+00
1.250000000000000069e-02 3.436990000000000010e-03 3.954769156332786917e+00
1.250000000000000069e-02 2.048379999999999819e-03 3.748395243393822351e+00
2.500000000000000139e-02 2.916290000000000202e-03 4.510234078780599454e+00
3.125000000000000173e-03 3.619139999999999857e-03 4.666156201306920215e-01
2.187499999999999861e-02 2.640770000000000183e-03 4.617391642794036244e+00
0.000000000000000000e+00 3.517499999999999793e-03 1.594244817971268713e+00
0.000000000000000000e+00 1.818969999999999967e-05 3.173149566120541110e+00
3.125000000000000000e-02 2.750000000000000014e-02 1.579518166322529948e-01
0.000000000000000000e+00 1.220670000000000088e-03 4.463985394378705562e-01
0.000000000000000000e+00 0.000000000000000000e+00 4.480870826430078502e+00
3.125000000000000173e-03 9.505379999999999385e-02 4.608280569713963715e+00
6.250000000000000347e-03 1.025900000000000076e-02 1.433054920392881737e+00
3.125000000000000173e-03 1.836860000000000055e-03 8.805121485160416483e-01
0.000000000000000000e+00 1.782589999999999912e-03 6.389305289089253215e-01
0.000000000000000000e+00 5.827840000000000364e-04 2.938743347748251189e+00
2.812500000000000069e-02 1.788099999999999933e-03 2.851677034418528933e+00
0.000000000000000000e+00 3.813760000000000023e-04 4.475019153379911074e+00
0.000000000000000000e+00 1.014010000000000085e-03 3.468224467099847441e+00
0.000000000000000000e+00 4.155939999999999786e-04 3.635592173664505822e+00
3.437500000000000278e-02 9.792599999999999916e-02 3.517346197362005267e+00
0.000000000000000000e+00 1.912320000000000014e-04 3.904339104973509222e+00
0.000000000000000000e+00 2.096450000000000136e-03 3.535618441073434148e+00
3.125000000000000173e-03 9.771649999999999781e-03 3.038629919615036368e+00
0.000000000000000000e+00 6.220800000000000071e-04 1.823472283373313019e+00
0.000000000000000000e+00 6.321799999999999642e-02 3.470673295361601074e+00
6.250000000000000347e-03 1.432129999999999992e-03 2.216007395928039525e+00
0.000000000000000000e+00 4.349600000000000233e-04 2.211191339007678280e+00
0.000000000000000000e+00 7.307039999999999889e-04 1.550294793940373950e+00
1.562500000000000000e-02 2.124099999999999860e-03 1.068109692578130154e+00
0.000000000000000000e+00 1.168320000000000036e-03 3.793340632634735421e+00
6.250000000000000347e-03 9.762940000000000507e-02 4.575701538955120107e+00
3.125000000000000173e-03 3.562370000000000033e-03 4.679949968542990391e+00
9.374999999999999653e-03 1.373470000000000073e-02 2.585507747254829347e+00
6.250000000000000347e-03 1.029249999999999957e-02 1.659778850714278553e+00
0.000000000000000000e+00 2.267969999999999904e-05 3.635303400437521315e+00
1.562500000000000000e-02 1.562819999999999921e-03 1.110011715292525958e+00
1.250000000000000069e-02 3.743550000000000003e-03 2.050844506981726045e+00
0.000000000000000000e+00 2.598359999999999906e-02 3.819620151222152593e+00
2.187499999999999861e-02 3.030779999999999846e-03 2.888696260722097175e+00
1.250000000000000069e-02 1.969279999999999902e-03 4.316242157088566067e+00
1.562500000000000000e-02 2.591420000000000095e-03 1.795880217314467675e+00
0.000000000000000000e+00 8.642139999999999761e-04 3.935091569206167872e+00
6.250000000000000347e-03 3.633109999999999812e-02 2.683652679369001870e+00
0.000000000000000000e+00 6.086099999999999887e-04 1.941163211747645168e+00
0.000000000000000000e+00 3.785940000000000008e-04 3.316811901292124443e+00
0.000000000000000000e+00 2.280270000000000108e-05 3.544142109307589106e+00
0.000000000000000000e+00 2.830909999999999850e-03 4.606056618239378508e+00
9.374999999999999653e-03 2.269760000000000007e-03 1.503525975534614645e+00
3.125000000000000173e-03 7.876789999999999833e-03 3.629954655111974127e+00
2.187499999999999861e-02 2.070980000000000043e-03 2.110169930544941064e+00
1.562500000000000000e-02 2.817979999999999877e-03 2.887668112136010823e+00
0.000000000000000000e+00 2.045819999999999843e-03 3.750086064355287796e+00
0.000000000000000000e+00 2.417669999999999889e-02 4.844760567376199312e+00
2.500000000000000139e-02 3.154179999999999918e-03 3.386679192143493111e+00
0.000000000000000000e+00 7.062089999999999600e-04 8.833132039202196140e-01
6.250000000000000347e-03 9.961949999999999972e-02 1.084387740955126134e+00
0.000000000000000000e+00 9.946440000000000402e-04 4.864065732143908249e+00
0.000000000000000000e+00 1.155460000000000081e-03 2.396889523605395311e+00
3.125000000000000173e-03 4.518209999999999935e-03 4.509514713290757593e-01
2.500000000000000139e-02 1.861500000000000090e-03 3.327875325950656382e+00
0.000000000000000000e+00 7.132619999999999889e-04 2.067488104929025017e+00
0.000000000000000000e+00 2.293909999999999862e-05 3.528576699959072194e+00
9.374999999999999653e-03 3.089930000000000107e-02 2.108511157224919774e+00
0.000000000000000000e+00 3.554560000000000011e-03 2.428587450208555154e+00
0.000000000000000000e+00 8.795520000000000248e-04 4.154260539725933121e+00
2.812500000000000069e-02 2.317630000000000211e-03 4.748899626021673370e+00
0.000000000000000000e+00 3.236709999999999848e-03 6.332698402929792802e-01
0.000000000000000000e+00 1.211389999999999906e-03 3.773921926038961594e+00
0.000000000000000000e+00 1.423489999999999912e-03 6.572895662700567465e-01
0.000000000000000000e+00 4.726399999999999742e-04 4.366457752545718662e+00
1.874999999999999931e-02 2.121539999999999884e-03 2.342703351979010140e+00
2.187499999999999861e-02 2.155259999999999988e-03 1.505751685181799804e+00
3.125000000000000173e-03 4.021120000000000423e-03 3.467201308338814680e+00
6.250000000000000347e-03 6.815739999999999819e-03 1.647412493296549041e+00
0.000000000000000000e+00 7.153780000000000208e-04 2.711186723077953609e+00
6.250000000000000347e-03 1.058199999999999974e-01 1.173141431127291856e+00
3.125000000000000173e-03 9.122750000000000650e-03 2.940499835794123218e+00
0.000000000000000000e+00 1.152650000000000072e-03 8.844672521915819541e-01
3.125000000000000173e-03 9.518799999999999484e-02 6.941201204150904136e-01
0.000000000000000000e+00 2.283749999999999946e-05 3.854539038797124562e+00
3.125000000000000000e-02 3.007230000000000059e-03 3.094584964006270589e+00
3.125000000000000173e-03 8.019409999999999386e-03 1.813995010145308395e-01
2.187499999999999861e-02 2.034180000000000016e-03 3.459019380774019936e+00
0.000000000000000000e+00 1.093629999999999949e-03 1.286283265163946643e+00
0.000000000000000000e+00 0.000000000000000000e+00 1.140807336761506363e+00
3.125000000000000173e-03 1.616729999999999903e-02 2.718926042367837859e+00
3.125000000000000173e-03 1.849979999999999984e-03 3.951379623607734537e+00
1.874999999999999931e-02 2.587139999999999926e-03 1.240807929191907188e+00
0.000000000000000000e+00 1.028800000000000070e-03 3.729917926918167037e+00
0.000000000000000000e+00 0.000000000000000000e+00 3.739105993124967497e+00
0.000000000000000000e+00 1.074839999999999997e-02 4.229108580128898787e+00
0.000000000000000000e+00 4.190570000000000232e-04 2.751558058136427398e+00
0.000000000000000000e+00 7.753600000000000032e-04 2.354996757083167580e+00
0.000000000000000000e+00 1.099200000000000047e-03 5.768267551285416461e-01
1.874999999999999931e-02 9.286519999999999497e-02 2.192587287314697431e+00
9.374999999999999653e-03 9.421749999999999570e-02 2.019304737376419023e+00
0.000000000000000000e+00 1.240000000000000000e-03 4.793306655096064794e+00
3.125000000000000173e-03 9.575559999999999627e-02 1.069266491188248791e+00
0.000000000000000000e+00 3.483070000000000003e-03 9.730111869864699337e-01
6.250000000000000347e-03 2.401470000000000167e-03 7.742865494430595241e-02
0.000000000000000000e+00 0.000000000000000000e+00 1.486869124748711357e+00
6.562500000000000278e-02 9.216399999999999593e-02 2.341115013461383842e+00
0.000000000000000000e+00 0.000000000000000000e+00 4.279858578897655974e+00
0.000000000000000000e+00 2.029759999999999811e-03 2.120983391733077816e+00
3.125000000000000173e-03 2.130180000000000181e-03 2.800059164796147027e+00
1.562500000000000000e-02 2.731069999999999939e-03 4.106103825609926261e+00
0.000000000000000000e+00 8.620960000000000211e-04 4.783120577326934963e+00
0.000000000000000000e+00 4.057830000000000009e-04 1.336434237145796011e+00
0.000000000000000000e+00 9.770880000000000884e-04 8.307639371912173276e-01
5.312499999999999861e-02 9.297729999999999884e-02 2.013003082884710526e+00
8.749999999999999445e-02 4.526940000000000131e-02 2.359638151550773610e+00
3.125000000000000173e-03 3.074939999999999965e-03 1.639220238319453848e+00
2.812500000000000069e-02 2.298430000000000178e-03 2.893778157096843273e+00
3.125000000000000173e-03 1.381889999999999985e-03 3.734232626222966367e-03
0.000000000000000000e+00 5.068539999999999851e-03 1.387389507302089209e-01
0.000000000000000000e+00 2.110460000000000200e-03 1.158495977692441503e+00
0.000000000000000000e+00 2.254980000000000179e-03 4.849282261462841248e+00
0.000000000000000000e+00 0.000000000000000000e+00 3.200739821411468622e+00
3.125000000000000000e-02 3.443330000000000089e-03 4.654649550536738012e-02
6.250000000000000347e-03 1.034389999999999962e-02 2.027124287616974385e+00
0.000000000000000000e+00 6.478180000000000049e-02 4.998350886862777287e+00
0.000000000000000000e+00 4.798840000000000050e-02 2.550434028283105059e-01
0.000000000000000000e+00 1.062339999999999942e-03 2.776733179559176534e-03
9.374999999999999653e-03 9.898240000000000424e-04 7.509195735392742987e-01
0.000000000000000000e+00 3.843839999999999844e-04 3.711447297576273563e+00
0.000000000000000000e+00 9.294719999999999805e-04 4.778417329639856881e+00
0.000000000000000000e+00 4.462080000000000213e-04 3.521589093440069984e+00
0.000000000000000000e+00 7.446840000000000143e-04 4.219339800713472144e+00
