0.000000000000000000e+00 4.190570000000000232e-04 1.046353550383846143e+00
0.000000000000000000e+00 5.097600000000000525e-04 1.222158760662201971e+00
3.125000000000000173e-03 4.113020000000000218e-03 2.547111516695758304e+00
1.562500000000000000e-02 1.986359999999999862e-02 4.291815680735026284e+00
2.500000000000000139e-02 9.395879999999999510e-02 2.027937764695879608e+00
0.000000000000000000e+00 8.319360000000000253e-04 2.471941204426373329e+00
0.000000000000000000e+00 4.391040000000000026e-04 3.856543030298025254e+00
1.562500000000000000e-02 2.802880000000000215e-03 1.990426456985670445e+00
1.250000000000000069e-02 1.764029999999999982e-03 4.740989368301216089e+00
0.000000000000000000e+00 2.266750000000000102e-03 1.824141895237877398e+00
0.000000000000000000e+00 4.105280000000000105e-04 4.921150627551217127e+00
0.000000000000000000e+00 3.086209999999999821e-03 3.345026614792899977e+00
2.812500000000000069e-02 2.523259999999999826e-03 4.157170106538298882e+00
2.500000000000000139e-02 9.425340000000000107e-02 2.304702890052950925e-01
0.000000000000000000e+00 9.418239999999999598e-04 3.917499980533599047e+00
0.000000000000000000e+00 3.021499999999999880e-03 4.323120877452461208e+00
0.000000000000000000e+00 6.844159999999999740e-04 2.139058981421217975e+00
9.374999999999999653e-03 3.724480000000000065e-03 5.349778032074709033e-01
2.187499999999999861e-02 2.034559999999999928e-03 2.497109135615742215e+00
0.000000000000000000e+00 1.178240000000000103e-03 5.724657381992998006e-01
0.000000000000000000e+00 7.627029999999999921e-04 3.853647272787069644e-01
2.187499999999999861e-02 1.073619999999999991e-01 2.128129591452924796e+00
0.000000000000000000e+00 1.335419999999999923e-03 2.578076224354932222e+00
0.000000000000000000e+00 6.845440000000000379e-04 3.907008073538520421e+00
0.000000000000000000e+00 9.485439999999999497e-04 3.680598442455075947e+00
2.187499999999999861e-02 3.373759999999999953e-03 8.665555714533818010e-01
1.250000000000000069e-02 6.892470000000000367e-03 3.174229894363613358e+00
0.000000000000000000e+00 2.675649999999999903e-03 2.492332121090221619e+00
6.250000000000000347e-03 2.544450000000000184e-03 7.489128359658120404e-01
9.374999999999999653e-03 3.457450000000000107e-02 4.510794199677703453e-02
3.749999999999999861e-02 9.384420000000000261e-02 4.292150587642936443e+00
0.000000000000000000e+00 9.506560000000000270e-04 3.045527197282374310e+00
3.125000000000000000e-02 2.132870000000000044e-01 4.194693913018251230e+00
4.374999999999999722e-02 9.162820000000000686e-02 4.995867191163833043e-01
3.125000000000000000e-02 4.693350000000000299e-02 2.414069374426114356e-01
3.125000000000000173e-03 1.638399999999999926e-03 1.748735540562170732e+00
0.000000000000000000e+00 2.257339999999999973e-05 3.669226841644221970e+00
0.000000000000000000e+00 6.819839999999999540e-04 3.384229111558497927e+00
0.000000000000000000e+00 2.471390000000000067e-04 1.450284558390223522e+00
0.000000000000000000e+00 5.850879999999999926e-04 2.340660734678283728e+00
6.250000000000000347e-03 5.737790000000000425e-03 3.398282635866523016e-01
0.000000000000000000e+00 3.678339999999999995e-03 2.916970503875127463e+00
0.000000000000000000e+00 1.355789999999999947e-02 3.057386713074056184e-01
0.000000000000000000e+00 5.619200000000000410e-04 4.063509596781465838e+00
0.000000000000000000e+00 6.663729999999999654e-02 2.757171614464426046e+00
0.000000000000000000e+00 0.000000000000000000e+00 1.394772656365182328e+00
0.000000000000000000e+00 5.984060000000000247e-03 2.425460397979268379e+00
6.250000000000000347e-03 1.050790000000000057e-01 2.393311684670557771e+00
0.000000000000000000e+00 1.064260000000000032e-03 5.498083885346133348e-01
0.000000000000000000e+00 9.691520000000000343e-04 3.551678553281209183e+00
0.000000000000000000e+00 1.943200000000000136e-02 4.563618811565103961e+00
0.000000000000000000e+00 1.116419999999999912e-03 2.047444404127887640e+00
0.000000000000000000e+00 1.998530000000000098e-03 1.445852055480413956e+00
0.000000000000000000e+00 9.415040000000000171e-04 4.282594096853074461e+00
3.125000000000000173e-03 4.150400000000000270e-03 1.358946158045937214e-02
0.000000000000000000e+00 0.000000000000000000e+00 3.534769113638611238e+00
1.031249999999999944e-01 8.136240000000000139e-02 3.436047407598494807e+00
0.000000000000000000e+00 2.226560000000000041e-04 1.683250992621067699e+00
0.000000000000000000e+00 1.293890000000000014e-03 4.164431352261798835e+00
0.000000000000000000e+00 2.823040000000000185e-03 2.800957027136243394e+00
6.250000000000000347e-03 5.229700000000000321e-03 4.241970452648574641e-01
2.812500000000000069e-02 2.059010000000000007e-03 4.739505183330620319e+00
3.125000000000000173e-03 4.721790000000000015e-03 2.389097565423575986e+00
0.000000000000000000e+00 2.301890000000000013e-03 5.946864372088456197e-01
5.625000000000000139e-02 9.183339999999999559e-02 4.642980840041845525e+00
3.125000000000000000e-02 9.178989999999999372e-02 1.362756120419248873e+00
4.374999999999999722e-02 9.197310000000000207e-02 3.399351976598450786e+00
3.125000000000000173e-03 2.004809999999999925e-02 4.092011253799462622e+00
0.000000000000000000e+00 7.148649999999999666e-04 2.115576953030466889e+00
1.562500000000000000e-02 2.382210000000000057e-03 7.870772326341224367e-01
6.250000000000000347e-03 2.115839999999999908e-03 3.763707186887196965e+00
0.000000000000000000e+00 4.288680000000000010e-04 3.453692048013148330e+00
2.500000000000000139e-02 2.055739999999999911e-03 1.149415409653661957e+00
0.000000000000000000e+00 1.088320000000000043e-03 3.931484137069122919e+00
5.312499999999999861e-02 2.573069999999999871e-02 3.839160971629929087e+00
1.562500000000000000e-02 1.473219999999999912e-03 4.114111594950047746e+00
0.000000000000000000e+00 9.861760000000000664e-04 2.467835691082319372e+00
3.125000000000000173e-03 5.016259999999999816e-03 2.223265129906921711e+00
0.000000000000000000e+00 1.115010000000000046e-03 3.948470682117235508e+00
2.812500000000000069e-02 7.403070000000000310e-03 3.440543200427306658e+00
0.000000000000000000e+00 1.030080000000000058e-03 1.782872320387308029e+00
0.000000000000000000e+00 1.508969999999999929e-02 1.742108619922430046e+00
0.000000000000000000e+00 2.262020000000000003e-03 7.299527612877482197e-01
0.000000000000000000e+00 1.443649999999999968e-02 1.890117833388031521e+00
0.000000000000000000e+00 1.187389999999999973e-03 1.713836391939127957e+00
2.500000000000000139e-02 9.278129999999999711e-02 3.639378597340372945e+00
9.374999999999999653e-03 9.962239999999999811e-04 1.542255396808536627e+00
3.125000000000000173e-03 6.225470000000000309e-03 9.807944925812167591e-01
0.000000000000000000e+00 6.692480000000000000e-04 3.337339256494486150e+00
0.000000000000000000e+00 1.527680000000000119e-04 3.744154749186090037e+00
0.000000000000000000e+00 1.597470000000000140e-02 4.248054516481963860e-01
3.125000000000000173e-03 2.232130000000000138e-03 3.260507676209271732e+00
0.000000000000000000e+00 2.241339999999999999e-02 5.373819429765114286e-01
0.000000000000000000e+00 1.174569999999999954e-02 1.003983456485092463e+00
2.500000000000000139e-02 2.783550000000000087e-03 4.268945264441375009e+00
0.000000000000000000e+00 3.984640000000000122e-04 2.158465970520471178e+00
0.000000000000000000e+00 6.675840000000000376e-04 4.065762486914509033e+00
0.000000000000000000e+00 2.181599999999999916e-05 2.783917643933683017e+00
0.000000000000000000e+00 6.691839999999999681e-04 4.050311419741831287e+00
0.000000000000000000e+00 2.682879999999999900e-04 3.316478042132908755e+00
0.000000000000000000e+00 4.127730000000000136e-04 2.989850305782894679e+00
1.874999999999999931e-02 1.798209999999999956e-03 3.552168110775012266e+00
3.125000000000000173e-03 1.009810000000000048e-02 4.359652545180550121e+00
2.187499999999999861e-02 9.187149999999999483e-02 4.429787581393479279e+00
2.187499999999999861e-02 2.337660000000000085e-03 7.701628140303362624e-01
1.250000000000000069e-02 1.929729999999999944e-03 3.213307093637957079e-01
0.000000000000000000e+00 5.912960000000000525e-04 2.122288543899314428e-01
1.874999999999999931e-02 2.088060000000000090e-03 1.079055711966497855e-01
1.874999999999999931e-02 2.273149999999999823e-03 1.683016323630180278e+00
1.562500000000000000e-02 2.157309999999999957e-03 3.039970113232579152e+00
2.187499999999999861e-02 6.950849999999999737e-03 2.911120132109389580e+00
2.812500000000000069e-02 1.772670000000000062e-03 2.669371652792206007e+00
1.874999999999999931e-02 2.168769999999999986e-03 3.539812605922756372e+00
2.187499999999999861e-02 1.080600000000000033e-01 3.153207228463143608e+00
6.250000000000000347e-03 9.730229999999999435e-02 3.446905190502659977e+00
1.874999999999999931e-02 1.060630000000000045e-01 3.614876798024442284e+00
0.000000000000000000e+00 1.467390000000000057e-03 2.890984861399586325e+00
0.000000000000000000e+00 3.039360000000000065e-03 1.231791412995002943e+00
9.374999999999999653e-03 1.988420000000000118e-02 2.685841950652046783e+00
9.374999999999999653e-03 1.702210000000000008e-03 3.476019219390865445e+00
0.000000000000000000e+00 2.168059999999999866e-03 9.098082529771672755e-01
0.000000000000000000e+00 4.007039999999999907e-04 4.975322811826774938e+00
0.000000000000000000e+00 9.964159999999999684e-04 2.252065561236500812e+00
2.187499999999999861e-02 2.838530000000000133e-03 4.083575505764452274e+00
3.125000000000000173e-03 3.997630000000000280e-03 4.104986787845613883e+00
0.000000000000000000e+00 2.280369999999999988e-05 1.098676488799364304e+00
1.562500000000000000e-02 1.123459999999999953e-03 7.518589855142471245e-01
2.812500000000000069e-02 9.199309999999999432e-02 1.359483434307495742e-01
2.500000000000000139e-02 7.585090000000000061e-03 2.675008686649933409e+00
2.187499999999999861e-02 9.233909999999999341e-02 1.756195091630049498e+00
0.000000000000000000e+00 2.241409999999999941e-05 4.605143724046027565e+00
1.562500000000000000e-02 2.011069999999999785e-03 3.055887486881281756e+00
0.000000000000000000e+00 7.244839999999999570e-04 1.191938991469372766e+00
0.000000000000000000e+00 1.818369999999999926e-03 1.249111554078391473e-01
4.687500000000000000e-02 9.136400000000000077e-02 1.497382825277066010e+00
0.000000000000000000e+00 5.310210000000000104e-03 3.424029860691492289e+00
0.000000000000000000e+00 2.554820000000000181e-03 4.405823315059167022e+00
3.125000000000000000e-02 6.220250000000000085e-02 3.194299081660496142e+00
2.812500000000000069e-02 2.007420000000000211e-03 3.192131782012071817e+00
0.000000000000000000e+00 5.024639999999999922e-04 1.695469832988181658e+00
0.000000000000000000e+00 6.480470000000000111e-04 1.857238222764377999e+00
0.000000000000000000e+00 9.674240000000000400e-04 3.513488383220073175e+00
0.000000000000000000e+00 4.158510000000000136e-04 1.437386865766035360e+00
1.874999999999999931e-02 2.532219999999999957e-03 4.695098094257775578e+00
0.000000000000000000e+00 8.784490000000000050e-04 1.253380062337135392e+00
0.000000000000000000e+00 8.171460000000000182e-03 7.527277217040645452e-01
0.000000000000000000e+00 4.184960000000000264e-04 3.464618602085351995e+00
4.062500000000000139e-02 9.351990000000000303e-02 5.137046532003736177e-01
3.125000000000000173e-03 3.960190000000000238e-02 2.092272188233019303e+00
9.374999999999999653e-03 9.546880000000000643e-03 3.794767410685222941e+00
0.000000000000000000e+00 1.094460000000000008e-03 2.821238702543398258e+00
6.875000000000000555e-02 9.288430000000000297e-02 8.458949123854520025e-01
0.000000000000000000e+00 1.131070000000000079e-03 2.205860122244884813e-02
1.562500000000000000e-02 1.913980000000000022e-03 4.824463135582571560e+00
1.250000000000000069e-02 9.964290000000000647e-02 2.725833273909645804e+00
1.874999999999999931e-02 3.771839999999999828e-03 1.673221720815474267e+00
2.500000000000000139e-02 2.447739999999999898e-03 3.103663230530011141e+00
1.031249999999999944e-01 9.132859999999999590e-02 9.179087813111608263e-02
0.000000000000000000e+00 5.405629999999999810e-03 8.926325264237255919e-02
6.250000000000000347e-03 2.318139999999999784e-03 4.120257772902295557e+00
6.250000000000000347e-03 2.252800000000000115e-03 2.858006871270989180e+00
0.000000000000000000e+00 2.064700000000000042e-03 8.863547861779991210e-01
0.000000000000000000e+00 9.747840000000000237e-04 1.093294587070910984e+00
0.000000000000000000e+00 3.900800000000000057e-04 1.010750486981192298e+00
0.000000000000000000e+00 0.000000000000000000e+00 4.221938271126081332e+00
0.000000000000000000e+00 1.117699999999999900e-03 1.486310862242459674e+00
3.125000000000000173e-03 2.227390000000000099e-03 3.239342714907124776e+00
0.000000000000000000e+00 5.911040000000000218e-03 3.958997484543763434e+00
9.374999999999999653e-03 9.968019999999999659e-02 1.559075640476059288e+00
3.125000000000000173e-03 9.822889999999999400e-02 1.138490175536564397e+00
0.000000000000000000e+00 4.340619999999999787e-04 1.229157624498476986e+00
0.000000000000000000e+00 1.669949999999999907e-03 1.364624038970099207e+00
0.000000000000000000e+00 2.285390000000000154e-05 2.636277598620639928e+00
0.000000000000000000e+00 6.067069999999999928e-03 4.861781830950396177e+00
2.500000000000000139e-02 7.240700000000000087e-03 3.720346730982164285e+00
0.000000000000000000e+00 1.165819999999999921e-03 1.790435713820457853e+00
0.000000000000000000e+00 9.893120000000000039e-04 1.809742887231291508e-01
0.000000000000000000e+00 1.043010000000000031e-03 4.110437033764815951e+00
6.250000000000000347e-03 9.792199999999999516e-02 3.187491304730245556e+00
1.562500000000000000e-02 3.765440000000000106e-03 4.576990964597223766e+00
0.000000000000000000e+00 1.979900000000000149e-03 9.978869598981887634e-01
0.000000000000000000e+00 6.589439999999999577e-04 1.043940143515120322e+00
0.000000000000000000e+00 9.855359999999999641e-04 2.626596575474251516e+00
0.000000000000000000e+00 3.077120000000000246e-04 2.666937915303258855e+00
3.125000000000000173e-03 4.113020000000000218e-03 4.128055102895398676e+00
0.000000000000000000e+00 3.901439999999999834e-04 1.079633797220274527e+00
0.000000000000000000e+00 8.801800000000000465e-04 3.267603846836911075e+00
0.000000000000000000e+00 1.154429999999999909e-03 7.867168925446416106e-01
6.250000000000000347e-03 1.696680000000000063e-02 3.414446356411677375e+00
3.125000000000000173e-03 1.502850000000000019e-03 1.049034030400001205e+00
3.125000000000000000e-02 7.459140000000000388e-03 2.597138251673625220e-02
2.187499999999999861e-02 7.132989999999999643e-03 3.087025798061761250e+00
0.000000000000000000e+00 3.948830000000000070e-04 4.466165481938244142e+00
0.000000000000000000e+00 2.284620000000000159e-05 4.701859718877027916e+00
0.000000000000000000e+00 5.839219999999999567e-04 2.526069631590901921e+00
0.000000000000000000e+00 2.583100000000000066e-03 3.716105835489567077e+00
0.000000000000000000e+00 7.662040000000000517e-02 4.509942327955984709e-03
6.250000000000000347e-03 1.041130000000000007e-02 2.685933820972874919e+00
0.000000000000000000e+00 2.949119999999999845e-04 4.585355897710496897e-01
0.000000000000000000e+00 3.965439999999999764e-04 1.427929249507013942e+00
0.000000000000000000e+00 1.168169999999999972e-02 3.552747521743011117e+00
1.562500000000000000e-02 2.230910000000000011e-03 1.410176966754443928e+00
1.562500000000000000e-02 9.597940000000000638e-02 5.264542708510661084e-01
2.500000000000000139e-02 5.550079999999999771e-03 2.170911612257541812e+00
0.000000000000000000e+00 1.594560000000000075e-03 6.745710674432414677e-02
1.562500000000000000e-02 9.314359999999999307e-02 1.105196592158317781e+00
0.000000000000000000e+00 1.156300000000000079e-03 2.752770845994682247e+00
0.000000000000000000e+00 1.086659999999999926e-03 8.440777819020250927e-01
2.812500000000000069e-02 3.149499999999999956e-03 1.112147710527569000e+00
0.000000000000000000e+00 5.747200000000000268e-04 1.017980994468314471e+00
0.000000000000000000e+00 7.391690000000000239e-04 2.486301360905482927e+00
0.000000000000000000e+00 2.270659999999999866e-03 8.186280499187603699e-01
3.125000000000000173e-03 2.470459999999999844e-03 6.827020750899809309e-01
1.874999999999999931e-02 2.044160000000000161e-03 1.203595385194732970e+00
0.000000000000000000e+00 0.000000000000000000e+00 1.534644060414071642e+00
3.125000000000000173e-03 1.311709999999999959e-02 3.707281217286348518e+00
3.125000000000000173e-03 9.711400000000000587e-02 4.311778963480471738e+00
9.374999999999999653e-03 3.790270000000000097e-03 2.075242038195929117e-01
0.000000000000000000e+00 3.974339999999999817e-03 1.195648692180538708e+00
0.000000000000000000e+00 4.084480000000000033e-04 1.951922923003483579e+00
0.000000000000000000e+00 6.196479999999999870e-04 3.364890934338273354e+00
0.000000000000000000e+00 1.469940000000000092e-03 4.009598467626037888e+00
3.125000000000000173e-03 1.855359999999999909e-03 1.760590989954985419e-01
0.000000000000000000e+00 5.217849999999999789e-04 2.152920393255537856e+00
0.000000000000000000e+00 1.095870000000000091e-03 3.195325414720502355e+00
0.000000000000000000e+00 4.051200000000000244e-04 2.423886804302361142e+00
9.374999999999999653e-03 2.462339999999999928e-03 4.655833555289200731e+00
2.187499999999999861e-02 1.972989999999999987e-03 1.381441047384418530e+00
2.187499999999999861e-02 1.968699999999999877e-03 1.174807408208611736e+00
0.000000000000000000e+00 4.495419999999999972e-03 4.603433288464116480e+00
0.000000000000000000e+00 1.020859999999999953e-03 4.574289243099548763e+00
0.000000000000000000e+00 2.285500000000000056e-05 8.660887848475973261e-01
2.500000000000000139e-02 3.594839999999999841e-02 8.894277021888630230e-01
0.000000000000000000e+00 9.740799999999999979e-04 3.864945920595318718e+00
0.000000000000000000e+00 4.273929999999999787e-04 4.370043837227735040e+00
0.000000000000000000e+00 3.998079999999999776e-04 2.334187765689653915e+00
1.874999999999999931e-02 1.534339999999999923e-03 1.646479414268552377e+00
6.250000000000000347e-03 9.401460000000000372e-02 2.969597487257991109e-01
2.812500000000000069e-02 2.815300000000000181e-03 2.768089270093913701e+00
3.125000000000000000e-02 2.466110000000000090e-03 4.413883166156057136e+00
0.000000000000000000e+00 1.327810000000000015e-03 3.057928628335421450e+00
0.000000000000000000e+00 4.667019999999999914e-04 1.893544059881178132e+00
2.187499999999999861e-02 1.728579999999999960e-03 1.373745983933496451e+00
6.250000000000000000e-02 4.508639999999999870e-02 8.066236861835940353e-02
3.125000000000000173e-03 4.653179999999999816e-03 2.943832099239174216e+00
1.562500000000000000e-02 2.368830000000000154e-03 3.848640423892046858e-01
0.000000000000000000e+00 7.617410000000000240e-04 1.113514649706653259e+00
0.000000000000000000e+00 6.314240000000000044e-04 1.577820270504755484e+00
0.000000000000000000e+00 4.408589999999999883e-04 5.815216710451920346e-01
0.000000000000000000e+00 5.554559999999999619e-04 4.822638089107274872e+00
0.000000000000000000e+00 7.366680000000000016e-04 2.120950292839690832e+00
9.374999999999999653e-03 9.513130000000000197e-02 3.561632257674876456e+00
1.562500000000000000e-02 2.514880000000000154e-03 3.451267302342806431e+00
0.000000000000000000e+00 1.446720000000000081e-03 2.052311132114270631e+00
9.374999999999999653e-03 5.372479999999999790e-03 1.584922243778831952e+00
0.000000000000000000e+00 3.380680000000000165e-04 9.886669338970099918e-01
6.250000000000000347e-03 3.878529999999999825e-03 4.496138170055775873e+00
0.000000000000000000e+00 1.545600000000000110e-04 4.324799885182523340e+00
1.562500000000000000e-02 1.056319999999999915e-03 4.325834326785923167e+00
0.000000000000000000e+00 1.835650000000000085e-03 1.992544005176313693e+00
0.000000000000000000e+00 1.478870000000000011e-02 2.306906275679648122e+00
0.000000000000000000e+00 3.940740000000000215e-02 3.641731783172859949e+00
3.125000000000000173e-03 3.763390000000000138e-03 3.222797852900664672e+00
0.000000000000000000e+00 8.876160000000000343e-04 1.779054223042769722e+00
2.187499999999999861e-02 1.062609999999999943e-01 1.834778073011133603e+00
0.000000000000000000e+00 1.152779999999999951e-03 4.676463440836871932e+00
1.562500000000000000e-02 1.084770000000000040e-01 4.404670482492916150e+00
0.000000000000000000e+00 1.752639999999999970e-03 2.862243278323756135e-01
0.000000000000000000e+00 3.750030000000000008e-04 1.343556756437751520e+00
3.125000000000000173e-03 2.247900000000000158e-03 3.052427336235941979e+00
0.000000000000000000e+00 7.092869999999999600e-04 3.933866695417194137e+00
0.000000000000000000e+00 2.277510000000000154e-05 4.649464280904281210e+00
0.000000000000000000e+00 1.051069999999999956e-02 1.802578145878178661e+00
1.250000000000000069e-02 7.396220000000000225e-03 1.919653580492974854e+00
0.000000000000000000e+00 1.841339999999999904e-03 3.579069245616589789e+00
0.000000000000000000e+00 9.272959999999999797e-04 4.192001061460960187e+00
4.374999999999999722e-02 9.250010000000000177e-02 3.968443955460665418e-01
0.000000000000000000e+00 2.801730000000000106e-03 1.283935310968017385e+00
0.000000000000000000e+00 1.785539999999999957e-03 3.194866588169982258e+00
0.000000000000000000e+00 7.274980000000000335e-04 7.374741650309241114e-01
0.000000000000000000e+00 8.396799999999999837e-04 1.800787359425343848e+00
1.250000000000000069e-02 2.188030000000000096e-03 1.098337800320095425e+00
1.250000000000000069e-02 3.275520000000000081e-03 3.370429536960761752e+00
1.250000000000000069e-02 1.801340000000000016e-03 2.872995640939361550e+00
3.125000000000000173e-03 1.910339999999999955e-03 3.102512273250935149e+00
1.874999999999999931e-02 9.912419999999999565e-02 9.128238398201177217e-01
6.250000000000000347e-03 9.714620000000000200e-02 2.315751205035741389e+00
2.500000000000000139e-02 1.208290000000000058e-02 3.535679617521696905e+00
2.187499999999999861e-02 3.421500000000000062e-03 3.799021730620450121e+00
0.000000000000000000e+00 5.385599999999999936e-04 1.137271041351760603e+00
0.000000000000000000e+00 1.188400000000000047e-02 2.925952064820684928e+00
0.000000000000000000e+00 1.650560000000000135e-04 2.900720975716656991e+00
1.562500000000000000e-02 2.504769999999999913e-03 4.786391079905961909e+00
0.000000000000000000e+00 9.854019999999999446e-02 3.292376670095625180e+00
0.000000000000000000e+00 7.093509999999999920e-04 4.735003727171128496e+00
0.000000000000000000e+00 3.805440000000000211e-04 3.636267011973679963e+00
2.187499999999999861e-02 1.529020000000000075e-03 4.948973346746592838e+00
9.374999999999999653e-03 3.440900000000000208e-03 1.562485207828400835e+00
0.000000000000000000e+00 7.503489999999999813e-03 4.476189940832965064e+00
0.000000000000000000e+00 4.105280000000000105e-04 2.825977672455227019e+00
2.500000000000000139e-02 1.287869999999999987e-03 3.270446693327741627e+00
3.125000000000000173e-03 1.509330000000000047e-02 3.975108862840789570e+00
0.000000000000000000e+00 1.912130000000000080e-02 9.758302060375362297e-01
0.000000000000000000e+00 5.966270000000000080e-03 4.167858809119758590e+00
0.000000000000000000e+00 1.367809999999999903e-03 6.813134384563668267e-01
6.250000000000000347e-03 6.766590000000000278e-03 3.483278006162103146e+00
2.187499999999999861e-02 1.916029999999999990e-03 9.485046508112482400e-01
9.374999999999999653e-03 9.857810000000000183e-02 4.129152331071188620e+00
2.500000000000000139e-02 2.379969999999999915e-03 3.256544478106141227e+00
9.374999999999999653e-03 9.868530000000000357e-02 2.782040508924582545e-01
0.000000000000000000e+00 7.292940000000000143e-04 3.739723262886895494e+00
0.000000000000000000e+00 0.000000000000000000e+00 1.344509908702407497e+00
0.000000000000000000e+00 2.181820000000000113e-03 2.459395021526158853e+00
3.125000000000000173e-03 2.768510000000000068e-03 1.054037353791014819e+00
3.437500000000000278e-02 2.466389999999999902e-02 4.875539443446286203e-01
0.000000000000000000e+00 6.461439999999999718e-04 1.482259853498679725e-01
3.125000000000000173e-03 4.118980000000000384e-03 4.350666649480140258e+00
5.625000000000000139e-02 2.651500000000000037e-02 3.804926065365050292e+00
2.500000000000000139e-02 9.152789999999999537e-02 4.876114932361464760e+00
0.000000000000000000e+00 5.509119999999999729e-04 3.691103951117986171e+00
1.250000000000000069e-02 2.477950000000000031e-03 8.942050471753854035e-01
1.874999999999999931e-02 2.180930000000000195e-03 7.585310594093763736e-01
0.000000000000000000e+00 4.375549999999999752e-03 4.513340736392541963e+00
1.562500000000000000e-02 4.834689999999999994e-03 4.611032307054418133e+00
0.000000000000000000e+00 4.470400000000000025e-04 2.213856467482696821e+00
0.000000000000000000e+00 8.794879999999999929e-04 5.231998389070574573e-01
9.375000000000000000e-02 3.111739999999999992e-02 7.855717545332174812e-01
2.812500000000000069e-02 2.080900000000000111e-03 1.491534978652523380e+00
3.125000000000000173e-03 1.057899999999999986e-02 1.571414096931489368e+00
0.000000000000000000e+00 2.287650000000000027e-05 2.120126124134826817e+00
0.000000000000000000e+00 6.288829999999999594e-03 4.152374001074821130e-02
1.874999999999999931e-02 1.594369999999999902e-03 3.992984137165232372e+00
0.000000000000000000e+00 3.039619999999999822e-03 2.334819344517856443e+00
0.000000000000000000e+00 6.897280000000000208e-04 1.345821080036052608e-01
0.000000000000000000e+00 5.498719999999999693e-04 1.481763926897800676e+00
3.125000000000000173e-03 3.851999999999999869e-02 1.436520818777807795e+00
1.874999999999999931e-02 2.854660000000000183e-03 2.160060387796192138e-01
2.187499999999999861e-02 1.616449999999999962e-03 2.690527290427853657e+00
0.000000000000000000e+00 4.222629999999999786e-04 1.837940718842020482e+00
0.000000000000000000e+00 4.995979999999999692e-04 1.412483736661805933e+00
3.125000000000000173e-03 2.895940000000000059e-03 4.200893181179726987e+00
0.000000000000000000e+00 1.051199999999999964e-03 1.968089216399648400e+00
0.000000000000000000e+00 5.467009999999999578e-03 4.040076723438991380e+00
0.000000000000000000e+00 2.299159999999999854e-05 4.104500841787277921e+00
6.250000000000000347e-03 1.989689999999999862e-02 2.611211295681998390e+00
0.000000000000000000e+00 1.788349999999999966e-03 1.272871167553790261e+00
0.000000000000000000e+00 2.893699999999999918e-03 1.160438506818810556e+00
0.000000000000000000e+00 1.006979999999999984e-03 2.015610007071226395e+00
0.000000000000000000e+00 1.116739999999999964e-03 4.884189178076707272e+00
0.000000000000000000e+00 8.707199999999999575e-04 1.988688738387251576e+00
0.000000000000000000e+00 3.547409999999999973e-04 5.549423246804630061e-01
0.000000000000000000e+00 2.456320000000000226e-04 3.110645482203581835e+00
6.250000000000000347e-03 2.365059999999999992e-03 2.015395521043718663e+00
0.000000000000000000e+00 1.367740000000000102e-03 2.930840769455405947e+00
2.812500000000000069e-02 9.467520000000000319e-04 2.024100199307533821e+00
0.000000000000000000e+00 1.659840000000000100e-03 2.646449874487093901e+00
1.874999999999999931e-02 1.726139999999999923e-03 3.480965735832847185e-01
0.000000000000000000e+00 1.954299999999999961e-03 7.509193186670776177e-01
0.000000000000000000e+00 3.532019999999999973e-04 4.662525722335912448e+00
0.000000000000000000e+00 2.296610000000000022e-05 2.783838460954771499e+00
0.000000000000000000e+00 1.899630000000000069e-02 1.977525118702136986e+00
1.250000000000000069e-02 2.233409999999999909e-03 3.315852468878877080e-01
0.000000000000000000e+00 1.514339999999999972e-05 2.108373794044944738e+00
6.250000000000000347e-03 9.260770000000000113e-02 1.431664718649454660e+00
2.500000000000000139e-02 1.767939999999999963e-03 3.110898236150796858e+00
3.125000000000000173e-03 4.150400000000000270e-03 1.076659081346909463e+00
2.500000000000000139e-02 3.082479999999999942e-02 2.925301341517633880e+00
0.000000000000000000e+00 7.353210000000000432e-04 4.789555297412345425e+00
1.874999999999999931e-02 1.716989999999999836e-02 1.499941432236380656e+00
0.000000000000000000e+00 1.046660000000000038e-03 2.330994213237757684e+00
0.000000000000000000e+00 9.751039999999999664e-04 2.794949131318340108e+00
0.000000000000000000e+00 7.146729999999999793e-04 4.132599452523583849e+00
0.000000000000000000e+00 6.246399999999999826e-04 2.167834351714276853e+00
0.000000000000000000e+00 3.992320000000000157e-04 3.561166694565074842e+00
9.374999999999999653e-03 2.713539999999999962e-03 3.422218159453320308e+00
0.000000000000000000e+00 6.452479999999999587e-04 3.393689062399060319e+00
0.000000000000000000e+00 4.368640000000000240e-04 1.979562332185808682e+00
1.250000000000000069e-02 1.058109999999999910e-03 4.383638803364319436e+00
2.187499999999999861e-02 9.305889999999999995e-02 1.784895919342120330e+00
0.000000000000000000e+00 1.082180000000000078e-03 3.571379910372979083e+00
3.125000000000000173e-03 4.061379999999999851e-03 4.871225321542004494e+00
3.125000000000000173e-03 1.019899999999999973e-02 5.788605020244586008e-02
0.000000000000000000e+00 6.437119999999999518e-04 4.765613087978730178e+00
0.000000000000000000e+00 7.328200000000000209e-04 1.450436155478862066e+00
0.000000000000000000e+00 1.153979999999999980e-03 2.072332888519268668e+00
0.000000000000000000e+00 3.978240000000000183e-04 1.471497377717761346e+00
1.562500000000000000e-02 2.576580000000000190e-03 3.417437133845658614e+00
0.000000000000000000e+00 1.033889999999999983e-03 2.101370635900198458e+00
2.500000000000000139e-02 4.997119999999999861e-03 8.251119633617565174e-01
3.125000000000000173e-03 6.295570000000000332e-02 2.451290612260379032e+00
1.250000000000000069e-02 2.663809999999999963e-03 6.876891431662307541e-01
0.000000000000000000e+00 2.065410000000000162e-03 3.092836681131003740e+00
2.500000000000000139e-02 2.534719999999999855e-03 5.526697866890928346e-01
0.000000000000000000e+00 4.999100000000000245e-03 4.278564252628433984e+00
0.000000000000000000e+00 1.297790000000000055e-03 4.693138997625019293e+00
0.000000000000000000e+00 3.914190000000000009e-04 2.471271207061587205e+00
3.125000000000000000e-02 2.260219999999999851e-03 7.120692169855791231e-01
0.000000000000000000e+00 1.830650000000000167e-05 1.518656978764171939e+00
2.187499999999999861e-02 3.289600000000000163e-03 1.271554968058081769e+00
1.874999999999999931e-02 9.740419999999999634e-02 3.861887359280302245e+00
0.000000000000000000e+00 2.227260000000000004e-03 4.576999808389911273e+00
0.000000000000000000e+00 3.832320000000000062e-04 3.269514233008325998e+00
0.000000000000000000e+00 2.476800000000000139e-04 2.415835336888183527e+00
0.000000000000000000e+00 1.142779999999999924e-03 4.442238683753396700e+00
2.187499999999999861e-02 1.717949999999999989e-03 3.009732392323785533e+00
6.250000000000000347e-03 1.713609999999999960e-03 3.286160762741817010e+00
0.000000000000000000e+00 1.562880000000000053e-04 3.359720326456176576e+00
3.125000000000000173e-03 9.781720000000000692e-02 1.807199459333510561e+00
0.000000000000000000e+00 4.167679999999999779e-04 2.294700941513445613e+00
3.125000000000000000e-02 3.130560000000000113e-03 1.262355625493203792e+00
0.000000000000000000e+00 1.578179999999999991e-03 3.771016823909745241e-01
0.000000000000000000e+00 2.089789999999999790e-03 2.526464515924631726e+00
0.000000000000000000e+00 2.282049999999999877e-03 3.949926424022836446e+00
0.000000000000000000e+00 2.695989999999999845e-02 1.235578418706851922e+00
0.000000000000000000e+00 1.848320000000000084e-04 2.795823156990089764e+00
1.250000000000000069e-02 2.721729999999999896e-03 4.505004027518564769e+00
0.000000000000000000e+00 9.999360000000000973e-04 2.240054110016471700e+00
3.125000000000000173e-03 1.807419999999999903e-03 1.363044508060214932e+00
9.374999999999999653e-03 1.125929999999999986e-02 3.185883440456795057e+00
1.874999999999999931e-02 9.157369999999999399e-02 2.361423786122091251e+00
5.625000000000000139e-02 9.299029999999999796e-02 4.223129527103829162e+00
0.000000000000000000e+00 2.316159999999999996e-04 2.052821636582957243e+00
6.250000000000000347e-03 1.766140000000000028e-03 3.139488241561461557e+00
3.125000000000000173e-03 1.369980000000000026e-03 9.573439953127316215e-02
1.562500000000000000e-02 1.862720000000000001e-03 2.852842229065828850e+00
1.250000000000000069e-02 9.201719999999999344e-02 4.402243056157095324e+00
0.000000000000000000e+00 7.360000000000000006e-04 1.318609818577775705e+00
2.812500000000000069e-02 2.170819999999999955e-03 1.357519035057153101e+00
0.000000000000000000e+00 1.295360000000000012e-04 3.227833275334510699e+00
0.000000000000000000e+00 6.574719999999999826e-04 3.494176378899394919e+00
1.874999999999999931e-02 1.853950000000000042e-03 2.338065441221612861e+00
1.562500000000000000e-02 7.536319999999999998e-03 4.800347513287587020e+00
0.000000000000000000e+00 5.708160000000000317e-04 1.955003072058865143e+00
6.250000000000000347e-03 2.035260000000000107e-03 3.436083231818132244e-01
0.000000000000000000e+00 5.633279999999999841e-04 5.109306496423787758e-01
0.000000000000000000e+00 2.261769999999999861e-05 1.490049835646111820e+00
0.000000000000000000e+00 6.656000000000000241e-04 2.866795595865122337e+00
0.000000000000000000e+00 7.175680000000000253e-04 3.556901423974307086e+00
6.250000000000000347e-03 3.247119999999999868e-02 2.356788450792425937e+00
1.250000000000000069e-02 1.589249999999999951e-03 2.009044374562996005e-01
1.874999999999999931e-02 2.954560000000000172e-03 4.971470756601438445e+00
0.000000000000000000e+00 4.355370000000000010e-04 3.698746948613063523e+00
0.000000000000000000e+00 3.551890000000000039e-04 1.124687630879370737e+00
6.250000000000000347e-03 6.833739999999999606e-03 4.245020965680683211e+00
2.812500000000000069e-02 3.127360000000000036e-03 4.192072460039725224e-01
0.000000000000000000e+00 3.034390000000000199e-04 3.925586089257568467e+00
0.000000000000000000e+00 1.840640000000000050e-04 4.375103816082231978e-01
9.374999999999999653e-03 1.893630000000000096e-03 1.662130367022440769e-01
1.250000000000000069e-02 2.671139999999999973e-02 1.637761201988207738e+00
0.000000000000000000e+00 2.621880000000000044e-02 3.479005298703507609e+00
0.000000000000000000e+00 2.608699999999999821e-03 2.933187735306218791e+00
1.562500000000000000e-02 2.255810000000000020e-03 1.434651079397280427e+00
0.000000000000000000e+00 7.358980000000000209e-04 1.961437384059820932e+00
0.000000000000000000e+00 9.168600000000000274e-04 4.803336057692202843e+00
0.000000000000000000e+00 2.096500000000000100e-02 2.766940841500616699e+00
0.000000000000000000e+00 6.494720000000000050e-04 8.301336807099196635e-01
0.000000000000000000e+00 8.783359999999999605e-04 3.083184002733563300e+00
0.000000000000000000e+00 3.869440000000000141e-04 4.716996893183607931e+00
0.000000000000000000e+00 8.767999999999999535e-04 2.403887347827844856e+00
2.187499999999999861e-02 2.591490000000000113e-03 4.767495256007126869e+00
0.000000000000000000e+00 1.399360000000000014e-02 3.261744409495827668e+00
0.000000000000000000e+00 2.233920000000000119e-05 2.658513818247067562e+00
0.000000000000000000e+00 6.667470000000000341e-02 4.723360496938469488e+00
0.000000000000000000e+00 1.912320000000000014e-04 3.840540589219351375e+00
0.000000000000000000e+00 6.075520000000000269e-04 1.900229160812578755e+00
2.187499999999999861e-02 2.640899999999999845e-03 1.421551393276633934e+00
0.000000000000000000e+00 9.904759999999998999e-04 2.752187529629983143e+00
0.000000000000000000e+00 5.681920000000000243e-04 4.873294247239346788e+00
1.562500000000000000e-02 2.194760000000000114e-02 3.550677438972126509e+00
0.000000000000000000e+00 6.942170000000000112e-04 9.506571228259830253e-01
0.000000000000000000e+00 4.097920000000000230e-04 3.814032427988021112e+00
1.250000000000000069e-02 1.519490000000000077e-03 3.972698841144073345e+00
0.000000000000000000e+00 1.966780000000000004e-03 3.540777488210800517e+00
9.374999999999999653e-03 2.627140000000000031e-03 3.148316579507699053e+00
0.000000000000000000e+00 1.843390000000000089e-03 4.916990521381105594e+00
3.125000000000000173e-03 9.721839999999999649e-02 2.717700987568492543e+00
0.000000000000000000e+00 7.159679999999999864e-04 4.766630161157340950e+00
6.250000000000000347e-03 9.689190000000000302e-02 4.189877473656877349e+00
0.000000000000000000e+00 2.506879999999999959e-03 1.230166991542793742e+00
0.000000000000000000e+00 8.994559999999999752e-04 4.260971620072934174e-01
2.187499999999999861e-02 9.202599999999999669e-02 7.102466219986935947e-01
0.000000000000000000e+00 7.080320000000000407e-04 4.590247728233514124e+00
2.187499999999999861e-02 1.669820000000000028e-03 3.324572220986672821e+00
3.125000000000000173e-03 3.763429999999999900e-03 1.585445799711278081e+00
6.250000000000000347e-03 1.212160000000000104e-03 2.843831563007472418e+00
2.187499999999999861e-02 4.933179999999999683e-03 4.719588103138920410e+00
0.000000000000000000e+00 1.885759999999999997e-03 1.189575897129013349e+00
2.812500000000000069e-02 2.663679999999999867e-03 3.274879518270139567e+00
0.000000000000000000e+00 1.734910000000000098e-03 2.335100205994750766e+00
2.500000000000000139e-02 1.730299999999999937e-03 3.084802862515056976e-01
0.000000000000000000e+00 5.506300000000000430e-03 2.816453102171485590e+00
2.500000000000000139e-02 2.457600000000000062e-02 4.452530387274166834e+00
2.812500000000000069e-02 4.254589999999999761e-02 4.074879665753606162e+00
0.000000000000000000e+00 9.946440000000000402e-04 2.824488675596181775e+00
1.562500000000000000e-02 1.704060000000000080e-03 4.409632109427844782e+00
6.250000000000000347e-03 9.512039999999999385e-02 4.640213963242228346e+00
1.250000000000000069e-02 1.950659999999999894e-03 1.667819743925916809e+00
0.000000000000000000e+00 5.984150000000000363e-04 4.789429045026047049e+00
2.500000000000000139e-02 3.227900000000000127e-03 1.868841135398420228e+00
0.000000000000000000e+00 1.037479999999999913e-03 3.361882283520814418e+00
0.000000000000000000e+00 1.639040000000000082e-04 4.240015567762313253e+00
0.000000000000000000e+00 1.075070000000000019e-03 1.002595192187340611e+00
0.000000000000000000e+00 3.345189999999999969e-02 1.795804605879105065e+00
6.250000000000000347e-03 1.050559999999999966e-01 2.622531948867247387e+00
0.000000000000000000e+00 8.699260000000000326e-03 2.696350543134318212e+00
1.874999999999999931e-02 2.680699999999999836e-03 2.879158914742314224e+00
0.000000000000000000e+00 6.322679999999999967e-02 8.666527414922436945e-01
0.000000000000000000e+00 1.156539999999999999e-02 2.509254339961208835e-01
2.187499999999999861e-02 1.937600000000000043e-03 3.379448710119364208e+00
0.000000000000000000e+00 8.771840000000000366e-04 1.465770508607723954e+00
0.000000000000000000e+00 9.942399999999999675e-04 2.395120617879466618e+00
0.000000000000000000e+00 1.336960000000000101e-03 3.719872600436428201e+00
0.000000000000000000e+00 6.668159999999999799e-04 4.828080121662924107e+00
0.000000000000000000e+00 3.438720000000000036e-04 9.993882239074447504e-01
6.250000000000000347e-03 5.548289999999999993e-03 2.870355518431454200e+00
0.000000000000000000e+00 8.844799999999999884e-04 1.235799927152355648e+00
3.125000000000000173e-03 3.156739999999999893e-03 2.737223410617553476e+00
6.250000000000000347e-03 1.610239999999999979e-03 1.732438873024715775e+00
0.000000000000000000e+00 1.465020000000000037e-03 1.866292594120037673e+00
0.000000000000000000e+00 1.994879999999999982e-04 2.207694923380250085e+00
2.812500000000000069e-02 2.868289999999999902e-03 3.039235225706704568e-01
3.125000000000000000e-02 7.343940000000000190e-03 4.295141585681999663e-01
3.125000000000000173e-03 1.003089999999999954e-01 6.798289780780858438e-01
0.000000000000000000e+00 1.441860000000000103e-03 4.484974213709545410e+00
0.000000000000000000e+00 1.384389999999999926e-02 4.062878411040066418e+00
0.000000000000000000e+00 6.189570000000000141e-03 8.487724295413501263e-02
0.000000000000000000e+00 1.342209999999999931e-03 3.338849820250928246e+00
0.000000000000000000e+00 6.936320000000000159e-04 4.362770583777009215e-01
2.187499999999999861e-02 4.841599999999999723e-03 3.279523429546023383e+00
0.000000000000000000e+00 9.289600000000000505e-04 1.383568610655151465e+00
0.000000000000000000e+00 7.742720000000000028e-04 3.049665634142837423e+00
0.000000000000000000e+00 1.933529999999999971e-02 2.701851145209592797e+00
3.125000000000000173e-03 1.309680000000000046e-02 4.528029651273212330e+00
2.500000000000000139e-02 2.285179999999999937e-03 2.300325108025335741e+00
2.500000000000000139e-02 2.819710000000000012e-03 9.082918896856501112e-01
1.874999999999999931e-02 2.410429999999999864e-03 4.104372539346749171e+00
0.000000000000000000e+00 6.435250000000000692e-02 2.866543381820445546e+00
0.000000000000000000e+00 7.347439999999999570e-04 3.578343827138996680e+00
3.125000000000000173e-03 3.415619999999999854e-03 3.538980726154250966e+00
3.749999999999999861e-02 9.302570000000000283e-02 1.689185512428528213e+00
3.125000000000000173e-03 9.323080000000000256e-02 3.918722271899067522e+00
0.000000000000000000e+00 5.054080000000000508e-04 1.112426417766014808e+00
9.374999999999999653e-03 2.681540000000000052e-03 7.064453323665853546e-01
2.187499999999999861e-02 9.301270000000000371e-02 1.921526271220132642e+00
1.874999999999999931e-02 1.662590000000000031e-03 4.085885976887191795e+00
0.000000000000000000e+00 6.065919999999999819e-03 9.876613121848620835e-01
1.250000000000000069e-02 1.844289999999999949e-03 2.275790565417186162e+00
0.000000000000000000e+00 5.500799999999999917e-04 1.585871458774129605e-01
0.000000000000000000e+00 4.604170000000000203e-04 1.422709080335593956e+00
1.562500000000000000e-02 9.052949999999999886e-02 1.397702028543318375e+00
0.000000000000000000e+00 3.544320000000000109e-04 1.695449517175700471e+00
0.000000000000000000e+00 5.911040000000000218e-03 1.797448465315065746e-01
0.000000000000000000e+00 3.295360000000000108e-04 2.446567699160786535e+00
0.000000000000000000e+00 7.265999999999999889e-04 2.537166614609158266e+00
0.000000000000000000e+00 8.951039999999999735e-04 1.065994224012722480e+00
0.000000000000000000e+00 1.673860000000000105e-03 1.971561657330123118e+00
3.125000000000000173e-03 7.847230000000000177e-03 4.048675354552038641e+00
1.562500000000000000e-02 1.960260000000000127e-03 2.381435220248639961e-02
0.000000000000000000e+00 6.513560000000000183e-02 7.037225336370328543e-01
0.000000000000000000e+00 9.735620000000000385e-03 1.497573974320484114e+00
0.000000000000000000e+00 6.033920000000000125e-04 3.644492442157512446e+00
1.562500000000000000e-02 1.637760000000000040e-03 1.428056729743757414e+00
0.000000000000000000e+00 0.000000000000000000e+00 1.883922616842245157e+00
0.000000000000000000e+00 1.111170000000000083e-03 3.227092314116769778e+00
1.874999999999999931e-02 2.014909999999999965e-03 3.596270639459855811e+00
1.250000000000000069e-02 2.055809999999999929e-03 4.045252280321859573e+00
0.000000000000000000e+00 1.509060000000000002e-03 4.615565688162787339e+00
3.125000000000000173e-03 3.171510000000000301e-02 2.656713171439097465e+00
0.000000000000000000e+00 1.635970000000000046e-03 1.599810514116393190e+00
0.000000000000000000e+00 1.681020000000000084e-03 2.988921006811902092e+00
0.000000000000000000e+00 2.182229999999999934e-02 2.135138725207423871e+00
2.500000000000000139e-02 1.065979999999999983e-01 1.277023547271538995e+00
0.000000000000000000e+00 1.338819999999999897e-03 3.405885462731735203e+00
1.874999999999999931e-02 2.337469999999999912e-03 3.281887430053216370e+00
0.000000000000000000e+00 5.947009999999999970e-03 1.062432593934045766e+00
6.250000000000000347e-03 4.430719999999999754e-04 4.190889477407439001e-01
9.374999999999999653e-03 7.407549999999999725e-03 2.935241044349903738e+00
3.125000000000000173e-03 9.896059999999999926e-03 2.927026535329144696e+00
0.000000000000000000e+00 4.216860000000000009e-04 1.911178010051001186e+00
0.000000000000000000e+00 1.131140000000000097e-03 4.994892683319068993e+00
1.874999999999999931e-02 2.271549999999999785e-03 1.092854302504526309e+00
1.562500000000000000e-02 1.297429999999999937e-02 3.744979857188808658e+00
1.250000000000000069e-02 1.784769999999999976e-03 1.812029058453429320e-01
0.000000000000000000e+00 2.158020000000000077e-03 2.985120950167694520e+00
2.500000000000000139e-02 3.250690000000000090e-03 4.243813882534558601e+00
3.125000000000000173e-03 2.080770000000000015e-03 6.612759059028888720e-01
0.000000000000000000e+00 1.010940000000000102e-03 2.038749559592498262e+00
0.000000000000000000e+00 1.794120000000000027e-05 2.915131649578133199e+00
3.125000000000000173e-03 1.653570000000000040e-03 1.162676048858672928e+00
0.000000000000000000e+00 5.189119999999999540e-04 1.338516453914382787e+00
0.000000000000000000e+00 7.476330000000000432e-04 2.955783732302730282e+00
0.000000000000000000e+00 1.006979999999999984e-03 4.079828442491807650e+00
1.562500000000000000e-02 2.323969999999999855e-03 4.758583566887202743e+00
3.125000000000000173e-03 1.935620000000000092e-03 1.556537415653045819e+00
0.000000000000000000e+00 1.115649999999999932e-03 1.091696932042796053e+00
0.000000000000000000e+00 2.668160000000000150e-04 4.484289100266943606e+00
2.812500000000000069e-02 1.471339999999999974e-02 3.310521770553699561e+00
2.812500000000000069e-02 1.953729999999999876e-03 5.442091198436593835e-01
0.000000000000000000e+00 6.537599999999999748e-04 3.926273150220598307e+00
6.250000000000000347e-03 1.638399999999999926e-02 3.819569043635593797e+00
6.250000000000000347e-03 1.266619999999999985e-03 2.539306469678509259e+00
0.000000000000000000e+00 2.327490000000000201e-03 8.933612781078953402e-01
0.000000000000000000e+00 7.309610000000000239e-04 3.894060996951799858e+00
1.562500000000000000e-02 1.966910000000000099e-03 3.331379235163988817e+00
0.000000000000000000e+00 5.428180000000000331e-04 2.901047879308968902e+00
0.000000000000000000e+00 4.987519999999999844e-04 3.450567375163631656e+00
3.125000000000000173e-03 2.080770000000000015e-03 4.028629942932936636e+00
2.187499999999999861e-02 1.741820000000000044e-03 1.696363995296700899e+00
1.562500000000000000e-02 2.597760000000000173e-03 4.090162413521801987e+00
3.125000000000000173e-03 9.657519999999999993e-02 1.621459161718437514e+00
0.000000000000000000e+00 7.496319999999999676e-04 4.580665409032469881e+00
0.000000000000000000e+00 3.779529999999999912e-04 4.148619163847830471e+00
0.000000000000000000e+00 4.200830000000000232e-04 2.637931468047045147e+00
0.000000000000000000e+00 4.185440000000000232e-04 4.933735239438014730e+00
0.000000000000000000e+00 7.418620000000000336e-04 3.409871332668404253e+00
1.874999999999999931e-02 1.289560000000000012e-02 3.338447777441154507e+00
3.125000000000000173e-03 6.174909999999999601e-03 3.351067797819050398e+00
0.000000000000000000e+00 7.254460000000000335e-04 2.168214953109381948e-01
0.000000000000000000e+00 1.052669999999999908e-03 2.029136473254571360e+00
0.000000000000000000e+00 5.990620000000000320e-03 4.920683557127053298e+00
9.374999999999999653e-03 9.166349999999999498e-02 2.195245880108215975e+00
1.874999999999999931e-02 2.401279999999999994e-03 1.580555648718133366e+00
0.000000000000000000e+00 2.407680000000000096e-04 4.315913101327599755e+00
0.000000000000000000e+00 1.478870000000000011e-02 3.677995266149244991e+00
0.000000000000000000e+00 2.292790000000000117e-05 4.201975206092311232e+00
0.000000000000000000e+00 8.340479999999999942e-04 2.075627446887412297e+00
1.874999999999999931e-02 2.712700000000000181e-03 1.900847231819764449e+00
3.125000000000000173e-03 9.275139999999999427e-03 1.375940337324156992e+00
2.812500000000000069e-02 1.522429999999999964e-03 4.014621120186158798e+00
0.000000000000000000e+00 5.598110000000000109e-04 4.400632583095992700e+00
0.000000000000000000e+00 3.497379999999999912e-04 2.925138574428034488e+00
2.500000000000000139e-02 1.619650000000000039e-03 1.460743985736095985e+00
6.250000000000000347e-03 2.676739999999999935e-03 3.960922539435728140e+00
2.187499999999999861e-02 9.346759999999999791e-02 7.307296836230520176e-01
2.500000000000000139e-02 3.227900000000000127e-03 3.913300245740197747e-01
1.562500000000000000e-02 1.412760000000000057e-02 7.067969282227226646e-01
1.874999999999999931e-02 3.464899999999999924e-03 3.011813407728645586e+00
0.000000000000000000e+00 5.457980000000000297e-03 3.162026094241674024e+00
0.000000000000000000e+00 2.728319999999999790e-04 7.121288910822071161e-01
2.500000000000000139e-02 7.408960000000000025e-03 2.362007458147172390e+00
