2.187499999999999861e-02 2.606209999999999864e-03 3.540255449338536753e+00
0.000000000000000000e+00 5.068220000000000017e-03 3.008510681166538969e+00
0.000000000000000000e+00 4.035010000000000333e-03 1.242660058348861618e+00
1.874999999999999931e-02 9.392369999999999886e-02 2.374778422031067926e+00
3.125000000000000173e-03 1.752639999999999970e-03 1.198232452023706429e+00
0.000000000000000000e+00 1.139180000000000054e-03 1.378486173647246460e+00
0.000000000000000000e+00 8.907599999999999893e-04 2.637258144952385308e+00
0.000000000000000000e+00 1.851819999999999831e-05 3.803513953187628083e+00
0.000000000000000000e+00 1.757409999999999832e-05 8.346435563846604788e-01
0.000000000000000000e+00 5.898920000000000205e-03 2.551132186236865884e+00
0.000000000000000000e+00 1.452799999999999968e-03 2.958625530728224540e+00
2.500000000000000139e-02 2.584640000000000028e-03 2.384479770915746588e+00
9.374999999999999653e-03 1.868670000000000010e-03 2.826218406295828878e+00
0.000000000000000000e+00 3.907579999999999908e-03 4.433554399888411268e+00
1.874999999999999931e-02 1.597700000000000075e-03 1.886225855567602583e+00
3.125000000000000173e-03 1.732990000000000008e-03 4.868357160599373623e-01
6.250000000000000347e-03 1.982980000000000072e-03 1.198743242164648226e+00
0.000000000000000000e+00 8.490880000000000129e-04 1.241729466397030190e+00
2.812500000000000069e-02 5.029890000000000402e-03 3.572905573863743189e+00
0.000000000000000000e+00 2.578979999999999814e-03 3.925681000725369074e+00
1.562500000000000000e-02 9.279260000000000286e-02 5.339953701907845796e-01
0.000000000000000000e+00 5.813759999999999848e-04 4.416057019523752736e+00
0.000000000000000000e+00 4.029610000000000201e-04 2.832886752627508553e+00
0.000000000000000000e+00 1.062460000000000097e-03 2.399736800742158671e+00
0.000000000000000000e+00 4.427829999999999787e-04 3.222723124127269134e-01
2.500000000000000139e-02 1.325060000000000083e-03 2.573707070692505372e+00
3.125000000000000173e-03 1.608700000000000017e-03 4.433314787846814653e+00
1.562500000000000000e-02 1.654780000000000010e-03 3.286083951698974825e+00
3.437500000000000278e-02 9.202920000000000544e-02 4.764643194481043231e+00
1.562500000000000000e-02 1.635069999999999970e-03 2.500361284238832749e+00
6.250000000000000347e-03 1.815680000000000072e-03 2.914102602912516993e+00
0.000000000000000000e+00 2.114110000000000208e-03 1.385712944944933467e-01
2.500000000000000139e-02 1.458239999999999970e-03 2.171304585719032509e+00
0.000000000000000000e+00 4.309839999999999787e-04 1.974424193343882195e-01
0.000000000000000000e+00 2.527870000000000204e-03 2.857363049701274083e+00
3.125000000000000173e-03 3.166239999999999853e-03 4.737765388647986242e+00
0.000000000000000000e+00 4.478080000000000060e-04 3.655680702376006508e+00
0.000000000000000000e+00 1.895979999999999888e-02 1.067779708301819230e+00
0.000000000000000000e+00 9.891929999999999733e-04 9.729280464920719851e-01
6.250000000000000347e-03 1.713480000000000081e-03 4.444873029000969034e+00
0.000000000000000000e+00 1.688959999999999984e-03 1.114480664134965160e+00
0.000000000000000000e+00 4.590399999999999689e-03 2.619844037095281353e-01
9.374999999999999653e-03 1.776449999999999948e-03 4.505620864577269957e-01
0.000000000000000000e+00 3.155200000000000149e-04 4.521189777074657634e+00
0.000000000000000000e+00 1.810559999999999958e-04 4.113532724887125624e-02
6.250000000000000347e-03 1.639100000000000106e-03 3.868691938238100203e-01
0.000000000000000000e+00 9.818879999999999882e-04 3.215997427341593662e-01
0.000000000000000000e+00 3.562880000000000148e-04 2.869011230796589373e+00
0.000000000000000000e+00 4.086399999999999907e-04 4.986960299913337558e+00
0.000000000000000000e+00 9.432960000000000433e-04 9.556020016328609090e-01
0.000000000000000000e+00 1.634239999999999911e-03 4.056072837343183135e-01
3.125000000000000173e-03 8.388610000000000511e-02 1.833943774457541531e+00
0.000000000000000000e+00 6.833920000000000055e-04 3.712727692081676967e+00
2.187499999999999861e-02 1.683009999999999975e-03 3.496621123260002406e+00
0.000000000000000000e+00 1.472810000000000049e-05 3.258366455084716229e+00
0.000000000000000000e+00 2.938370000000000044e-03 2.951872768025936455e+00
0.000000000000000000e+00 1.771840000000000004e-03 4.112430989148029070e+00
2.812500000000000069e-02 2.719229999999999998e-03 2.263025750279255455e+00
2.500000000000000139e-02 2.454140000000000054e-03 2.912094872427992698e+00
1.562500000000000000e-02 3.092160000000000047e-03 3.153325481838245015e+00
2.812500000000000069e-02 2.216259999999999845e-03 4.498140407283768738e+00
6.250000000000000347e-03 1.008379999999999910e-03 2.454462882146736913e+00
1.874999999999999931e-02 4.292220000000000237e-03 2.045230388458588955e+00
2.500000000000000139e-02 1.854399999999999972e-03 5.424688348944400884e-01
0.000000000000000000e+00 4.231610000000000232e-04 3.848105592896493565e+00
0.000000000000000000e+00 2.171519999999999972e-04 2.226810064981199488e-01
3.125000000000000173e-03 4.581380000000000348e-03 3.953389219297207102e+00
9.374999999999999653e-03 2.107649999999999975e-03 4.307419982184226726e+00
0.000000000000000000e+00 2.524159999999999902e-04 3.226119649326257388e+00
0.000000000000000000e+00 9.918080000000000559e-04 3.937095502744480946e+00
0.000000000000000000e+00 2.115840000000000125e-04 3.539897481745776897e+00
1.250000000000000069e-02 2.127739999999999927e-03 9.425098812757132238e-01
2.187499999999999861e-02 9.196680000000000132e-02 9.889911063598105789e-01
0.000000000000000000e+00 3.429310000000000084e-03 7.786858979400185232e-01
1.874999999999999931e-02 9.189509999999999346e-02 3.031906000645452348e+00
0.000000000000000000e+00 1.047039999999999950e-03 2.994621819304686738e+00
0.000000000000000000e+00 9.276799999999999543e-04 3.045283320835359575e+00
3.125000000000000173e-03 1.557830000000000048e-01 2.689855923229415691e+00
0.000000000000000000e+00 1.702270000000000085e-03 4.732641924702765124e+00
0.000000000000000000e+00 1.002450000000000042e-02 1.504044673614248762e+00
0.000000000000000000e+00 9.986839999999998999e-04 1.061213019989117878e+00
0.000000000000000000e+00 1.514060000000000059e-02 4.495444256656871751e+00
0.000000000000000000e+00 1.011839999999999989e-04 3.552952261209962437e+00
3.125000000000000173e-03 5.313599999999999920e-03 5.152456468451027671e-01
6.250000000000000347e-03 4.196159999999999994e-03 3.574581775322079658e+00
1.562500000000000000e-02 1.611390000000000088e-03 1.878328499854262201e+00
0.000000000000000000e+00 5.055360000000000062e-04 1.665949499460219752e+00
0.000000000000000000e+00 5.832959999999999664e-04 1.303880805993676173e+00
0.000000000000000000e+00 1.547079999999999940e-03 2.843644054360381812e+00
1.250000000000000069e-02 6.877910000000000100e-03 2.193268972508039205e+00
1.250000000000000069e-02 1.795970000000000032e-03 1.348838241621140854e+00
0.000000000000000000e+00 1.442499999999999989e-03 2.560794416069970048e+00
6.250000000000000347e-03 1.563710000000000057e-03 1.009917969090606826e+00
3.125000000000000173e-03 1.808060000000000006e-03 1.012222909238990720e+00
1.250000000000000069e-02 1.824960000000000037e-03 8.043201173250086322e-01
0.000000000000000000e+00 1.015939999999999899e-03 1.664319791953150940e+00
6.250000000000000347e-03 1.372540000000000001e-03 2.883615481831995453e+00
2.500000000000000139e-02 3.094400000000000189e-03 4.905397457786028426e+00
0.000000000000000000e+00 6.272709999999999918e-04 8.850752448882015511e-01
9.374999999999999653e-03 2.687039999999999915e-03 1.305705962111263663e+00
6.250000000000000347e-03 3.692609999999999816e-03 2.609126567738655034e+00
3.125000000000000173e-03 3.363580000000000129e-03 2.326216669444973739e+00
0.000000000000000000e+00 3.745919999999999805e-04 2.787396105163661097e+00
0.000000000000000000e+00 1.081979999999999964e-03 1.221311022466164964e-01
0.000000000000000000e+00 1.170979999999999938e-02 8.692092253233973942e-01
3.125000000000000173e-03 4.436670000000000197e-03 1.663182381032244805e+00
0.000000000000000000e+00 4.307280000000000136e-04 3.391985589015562574e+00
9.375000000000000000e-02 1.782500000000000057e-02 3.844837378509027737e+00
0.000000000000000000e+00 1.038340000000000009e-03 3.967186242461831380e+00
2.500000000000000139e-02 1.724099999999999895e-03 1.692788676495576183e+00
0.000000000000000000e+00 7.273060000000000462e-04 2.626603662394940031e+00
0.000000000000000000e+00 9.733120000000000487e-04 4.975514241329477727e+00
3.125000000000000173e-03 1.804220000000000042e-03 8.128871476568688692e-01
0.000000000000000000e+00 4.017429999999999786e-04 7.162745038751999749e-01
9.374999999999999653e-03 1.017340000000000085e-02 6.992886219163957362e-01
3.125000000000000000e-02 2.224579999999999873e-03 2.894169645155053150e+00
0.000000000000000000e+00 2.265730000000000088e-03 4.695022107734923900e+00
0.000000000000000000e+00 1.184189999999999895e-03 3.032278482527094976e+00
0.000000000000000000e+00 9.828479999999999248e-04 2.283185314336454219e+00
0.000000000000000000e+00 2.298060000000000153e-05 3.257498495614741252e-02
0.000000000000000000e+00 1.509779999999999976e-02 4.426740479008374862e+00
0.000000000000000000e+00 1.032259999999999905e-03 3.941300684664672538e-01
6.250000000000000347e-03 1.880130000000000039e-03 3.846008740610206811e+00
0.000000000000000000e+00 2.322100000000000010e-05 8.071865917944626156e-01
0.000000000000000000e+00 9.820160000000000521e-04 6.387655914555484538e-01
3.125000000000000173e-03 9.842439999999999523e-02 4.794840364115865228e+00
0.000000000000000000e+00 1.030869999999999920e-03 4.915607935790589522e+00
0.000000000000000000e+00 4.828100000000000100e-03 1.485975132616068617e-01
2.500000000000000139e-02 7.727999999999999627e-03 8.812502705729496899e-01
1.250000000000000069e-02 1.905149999999999986e-03 3.684519938836819719e+00
0.000000000000000000e+00 1.791999999999999919e-04 7.978119665375749126e-01
0.000000000000000000e+00 1.987140000000000087e-03 8.082875083110396819e-02
0.000000000000000000e+00 1.186549999999999931e-02 2.332445147626693860e-01
0.000000000000000000e+00 6.819050000000000111e-04 3.602661177789315161e+00
6.250000000000000347e-03 1.707579999999999992e-03 2.614842225774640649e+00
0.000000000000000000e+00 9.154560000000000388e-04 1.627159199468168893e+00
1.874999999999999931e-02 1.060799999999999937e-01 4.553365951039950232e+00
0.000000000000000000e+00 6.732160000000000271e-04 1.036491640851163742e+00
1.874999999999999931e-02 2.519739999999999914e-03 2.507003973121708640e+00
3.125000000000000173e-03 4.689539999999999854e-03 4.492024580105951514e+00
9.374999999999999653e-03 3.136260000000000089e-03 4.427247006391819006e+00
9.374999999999999653e-03 7.853769999999999502e-03 2.267589483478076762e+00
0.000000000000000000e+00 8.404229999999999730e-04 2.719839219856358348e+00
2.500000000000000139e-02 4.610500000000000015e-02 9.321008859257479129e-01
3.749999999999999861e-02 2.855080000000000118e-02 3.966242631748031044e+00
5.000000000000000278e-02 9.269439999999999624e-02 1.463854224407813431e+00
2.500000000000000139e-02 2.647039999999999810e-03 8.196518730797686114e-02
6.250000000000000347e-03 4.551359999999999954e-03 1.716687937039246936e+00
0.000000000000000000e+00 1.208899999999999949e-03 1.095057811634852385e+00
6.250000000000000347e-03 1.901949999999999908e-03 7.616371965589702198e-01
0.000000000000000000e+00 3.777599999999999882e-04 4.039029153193136601e+00
0.000000000000000000e+00 1.723010000000000080e-03 4.211208742310390107e+00
6.250000000000000347e-03 1.390699999999999922e-02 1.928286641985424987e+00
0.000000000000000000e+00 1.510949999999999967e-02 4.776069326832106832e+00
1.874999999999999931e-02 2.169980000000000173e-03 2.047109778065933750e+00
0.000000000000000000e+00 1.328380000000000099e-03 1.382621393968374024e+00
0.000000000000000000e+00 1.023819999999999938e-03 2.333921077069311512e+00
0.000000000000000000e+00 9.809919999999999751e-04 1.019481342096900667e-01
1.874999999999999931e-02 2.526019999999999915e-03 9.999260619834893227e-01
0.000000000000000000e+00 2.124159999999999937e-04 1.880682835199065650e+00
3.125000000000000173e-03 9.843649999999999622e-02 1.735121841576266366e+00
1.874999999999999931e-02 2.482429999999999880e-03 1.083522900020952751e+00
0.000000000000000000e+00 1.929280000000000014e-03 3.476296455999632773e+00
9.374999999999999653e-03 8.410240000000000033e-04 5.078231441404418289e-01
3.125000000000000173e-03 9.663689999999999780e-02 5.985914406289988277e-01
3.125000000000000173e-03 8.388610000000000511e-02 2.766114220322685169e-01
9.374999999999999653e-03 1.725760000000000011e-03 1.484666411701757172e-01
0.000000000000000000e+00 3.874750000000000156e-03 6.923509304195801795e-01
9.374999999999999653e-03 2.512770000000000108e-03 3.746876646095685270e+00
3.125000000000000173e-03 1.101119999999999920e-03 3.556744488690188000e+00
3.125000000000000173e-03 9.680000000000000019e-04 1.311927779311731879e+00
9.374999999999999653e-03 2.572420000000000175e-03 3.990848087233671126e+00
2.500000000000000139e-02 3.249979999999999970e-03 4.478343381399603196e+00
6.250000000000000000e-02 1.058049999999999963e-01 4.402220665043351744e+00
0.000000000000000000e+00 8.878720000000000535e-04 1.454400875113996516e+00
0.000000000000000000e+00 9.492479999999999755e-04 1.530865425340349750e-01
3.125000000000000173e-03 2.753610000000000085e-02 2.022074332964814758e+00
3.125000000000000173e-03 4.970369999999999996e-03 6.560683734055378080e-01
0.000000000000000000e+00 6.348080000000000389e-02 1.276227687422198276e+00
2.500000000000000139e-02 2.548990000000000110e-03 2.451962490796014027e+00
0.000000000000000000e+00 3.112960000000000033e-02 4.927926397389101432e+00
0.000000000000000000e+00 2.290559999999999970e-04 1.823635338152073793e+00
1.562500000000000000e-02 1.467519999999999936e-03 3.924898316070946080e+00
3.125000000000000173e-03 3.324929999999999813e-03 3.205969586483505829e+00
9.374999999999999653e-03 7.927039999999999781e-04 2.179534315727450711e+00
0.000000000000000000e+00 0.000000000000000000e+00 3.368015409749190336e+00
6.250000000000000347e-03 1.442879999999999900e-03 1.793070002044622191e-01
0.000000000000000000e+00 5.230029999999999662e-04 1.063448374112263561e-02
0.000000000000000000e+00 0.000000000000000000e+00 1.885700420309243786e+00
1.250000000000000069e-02 2.030720000000000181e-03 3.821938293255425556e+00
0.000000000000000000e+00 2.480319999999999834e-03 4.128860716218798466e+00
0.000000000000000000e+00 1.864319999999999931e-04 1.319643575640225830e+00
0.000000000000000000e+00 3.630270000000000111e-03 1.674558149858862421e+00
0.000000000000000000e+00 5.101249999999999882e-03 7.161586847692080759e-03
1.874999999999999931e-02 3.042819999999999900e-03 2.824795844930110267e+00
0.000000000000000000e+00 6.208579999999999568e-04 2.525813236227026692e+00
9.374999999999999653e-03 1.675840000000000055e-03 3.059724332435335814e+00
0.000000000000000000e+00 1.024130000000000049e-03 2.385882038407459937e+00
3.125000000000000173e-03 4.340740000000000050e-03 2.659294468220408270e+00
3.125000000000000173e-03 2.927239999999999790e-03 2.792337379884814119e+00
1.874999999999999931e-02 9.348539999999999628e-02 1.247708081742094910e+00
0.000000000000000000e+00 1.769790000000000035e-03 1.623995096262914606e+00
0.000000000000000000e+00 6.926779999999999569e-04 3.799569853965736321e+00
0.000000000000000000e+00 1.102780000000000036e-03 4.844928780746869279e+00
0.000000000000000000e+00 8.269440000000000297e-04 2.435221140788340621e-01
1.250000000000000069e-02 1.444289999999999984e-02 3.180904933401913937e+00
4.687500000000000000e-02 9.176950000000000385e-02 2.121099440559361504e+00
0.000000000000000000e+00 1.307460000000000089e-03 1.750311424801669347e+00
0.000000000000000000e+00 2.469059999999999918e-03 2.283165604715777786e+00
2.812500000000000069e-02 2.810560000000000141e-03 6.429030027176335649e-01
2.500000000000000139e-02 1.064539999999999931e-01 6.239114239429832676e-01
0.000000000000000000e+00 1.535669999999999885e-04 1.078617483071205863e+00
6.250000000000000347e-03 1.616260000000000006e-03 1.879601089473190711e+00
3.125000000000000173e-03 1.591870000000000004e-03 1.274818387176825496e+00
0.000000000000000000e+00 9.816320000000000774e-04 2.557013765270438332e-01
1.250000000000000069e-02 2.222589999999999982e-03 1.062243835550566562e+00
3.125000000000000173e-03 4.541250000000000148e-03 4.612034475448135495e+00
1.250000000000000069e-02 3.098560000000000203e-03 3.761175072736206104e+00
1.250000000000000069e-02 1.754429999999999965e-03 2.213619652198175469e+00
0.000000000000000000e+00 2.076740000000000096e-03 6.344606842187722195e-01
0.000000000000000000e+00 1.186500000000000055e-03 7.406215348457723113e-01
6.250000000000000347e-03 2.388149999999999995e-02 3.665637235582171805e+00
0.000000000000000000e+00 1.358059999999999996e-02 2.145831478755923172e+00
2.500000000000000139e-02 3.120260000000000134e-03 1.370100255977287240e+00
1.874999999999999931e-02 3.334399999999999951e-03 4.244654026343229525e+00
3.125000000000000173e-03 3.135680000000000064e-03 1.947616922992129185e+00
0.000000000000000000e+00 2.990780000000000174e-03 4.140143813713752508e+00
0.000000000000000000e+00 1.142900000000000079e-03 2.571150710107310999e+00
2.812500000000000069e-02 1.759230000000000082e-03 4.785810167020509098e+00
9.687500000000000278e-02 9.148560000000000025e-02 1.232989887868285894e+00
0.000000000000000000e+00 9.015680000000000525e-04 3.173037514324503761e+00
1.250000000000000069e-02 7.985859999999999140e-03 1.594565521443210843e+00
2.500000000000000139e-02 2.156289999999999943e-03 9.925847935155551749e-01
0.000000000000000000e+00 4.329470000000000193e-03 7.747120763466086579e-01
0.000000000000000000e+00 2.451199999999999842e-04 3.114680581094014800e-01
0.000000000000000000e+00 2.296480000000000049e-02 3.798553103270965625e+00
6.250000000000000347e-03 2.735639999999999947e-02 1.188480687613023834e+00
0.000000000000000000e+00 1.365630000000000056e-03 1.080346735281099146e+00
1.250000000000000069e-02 1.811139999999999929e-03 4.445003070851253568e+00
0.000000000000000000e+00 1.656320000000000025e-04 5.264123431669098796e-02
2.500000000000000139e-02 2.850430000000000151e-03 4.030459015412094281e+00
0.000000000000000000e+00 1.639999999999999965e-03 4.930317837014205118e+00
1.250000000000000069e-02 1.967169999999999856e-03 7.881647012003389907e-01
3.125000000000000173e-03 9.692220000000000002e-02 4.706210112152897196e+00
3.125000000000000173e-03 4.777860000000000093e-03 3.492088516585767799e+00
3.125000000000000173e-03 1.461700000000000022e-03 2.491936938127254475e+00
0.000000000000000000e+00 3.231299999999999884e-03 1.743402283776310124e+00
0.000000000000000000e+00 4.043510000000000160e-02 2.071173359332715957e+00
0.000000000000000000e+00 1.134500000000000092e-03 1.533120417939803470e+00
0.000000000000000000e+00 3.206909999999999882e-03 4.916894013804710362e+00
0.000000000000000000e+00 1.064129999999999937e-03 3.790780591472986405e+00
0.000000000000000000e+00 2.429629999999999897e-03 2.532896674088813693e-01
6.250000000000000347e-03 1.779580000000000007e-03 3.161720234123563955e+00
9.374999999999999653e-03 1.946299999999999983e-03 3.509272475202180441e+00
4.062500000000000139e-02 9.360140000000000127e-02 1.254126215479412387e+00
6.250000000000000347e-03 4.629339999999999844e-02 1.889698125135674811e-02
0.000000000000000000e+00 2.210940000000000214e-03 8.821860876822884556e-01
0.000000000000000000e+00 4.637439999999999835e-04 1.131200218367347077e+00
2.500000000000000139e-02 2.031660000000000063e-02 4.356131042983832913e+00
0.000000000000000000e+00 9.598239999999999637e-04 2.207541625197867674e+00
9.374999999999999653e-03 2.505090000000000181e-03 1.899449496757259492e+00
0.000000000000000000e+00 1.553150000000000103e-03 2.454755386074227719e+00
2.187499999999999861e-02 3.894589999999999858e-03 1.839153126802152149e+00
0.000000000000000000e+00 2.144060000000000150e-03 2.003560736952919363e+00
3.125000000000000173e-03 1.534589999999999956e-03 4.058382866967483515e+00
3.125000000000000000e-02 5.786819999999999811e-03 4.943028834574308306e+00
0.000000000000000000e+00 5.235840000000000069e-04 9.222336045733614540e-01
1.562500000000000000e-02 3.470140000000000030e-03 5.886354341791449896e-01
2.187499999999999861e-02 1.652100000000000096e-03 4.491790151414718046e+00
0.000000000000000000e+00 5.149240000000000457e-04 1.181308834697964993e+00
2.500000000000000139e-02 2.247680000000000164e-03 2.999302630152278493e+00
1.874999999999999931e-02 2.690430000000000165e-03 1.106505469591325674e+00
0.000000000000000000e+00 3.791740000000000041e-03 2.291949473035137963e+00
6.875000000000000555e-02 5.244420000000000331e-02 1.869570320324710488e+00
0.000000000000000000e+00 3.802429999999999873e-03 4.516422658343673291e+00
0.000000000000000000e+00 1.364989999999999953e-03 2.606765314053267613e+00
0.000000000000000000e+00 2.271059999999999903e-05 4.747221612926837864e+00
3.125000000000000173e-03 4.299390000000000156e-03 1.137068224770165337e+00
0.000000000000000000e+00 4.109769999999999786e-04 3.098358080533241132e+00
0.000000000000000000e+00 4.417019999999999801e-03 1.043046312650701246e+00
0.000000000000000000e+00 2.457600000000000062e-02 4.486679117765673297e+00
0.000000000000000000e+00 5.354440000000000458e-04 9.063489214641262670e-01
9.374999999999999653e-03 1.769860000000000053e-03 4.408597095536205934e+00
9.062499999999999722e-02 8.127439999999999665e-02 1.632253515379433750e-01
0.000000000000000000e+00 1.085830000000000085e-03 8.904002801636262676e-01
0.000000000000000000e+00 1.456059999999999906e-03 1.019529784711061371e+00
9.374999999999999653e-03 1.471489999999999994e-03 2.943620970757326205e+00
0.000000000000000000e+00 2.540160000000000074e-03 5.710848262757023397e-01
0.000000000000000000e+00 1.842790000000000053e-02 3.707647293244546560e+00
0.000000000000000000e+00 0.000000000000000000e+00 1.171108646836988676e+00
1.874999999999999931e-02 2.103419999999999943e-03 4.155857870113285557e+00
3.749999999999999861e-02 9.149839999999999363e-02 2.858905690240627351e+00
0.000000000000000000e+00 9.388800000000000097e-04 3.938508825704729599e+00
3.125000000000000173e-03 4.243900000000000103e-03 1.380567704244912264e+00
0.000000000000000000e+00 3.471729999999999912e-04 4.367811139180354907e+00
0.000000000000000000e+00 1.165379999999999932e-03 3.026274930123338702e+00
0.000000000000000000e+00 3.973760000000000118e-04 2.968270753839874043e+00
1.874999999999999931e-02 9.127830000000000665e-02 2.632831429859609607e+00
3.125000000000000173e-03 5.186429999999999686e-03 9.038560322355115861e-01
0.000000000000000000e+00 9.874560000000000542e-04 1.903860403455090555e+00
3.125000000000000173e-03 8.773579999999999574e-03 3.763521077470465936e+00
0.000000000000000000e+00 1.193150000000000027e-03 3.763302276988040873e+00
6.250000000000000347e-03 1.913650000000000073e-02 4.630911859826201571e+00
3.125000000000000000e-02 1.310719999999999941e-02 8.885155235066749535e-01
6.250000000000000347e-03 1.767679999999999989e-03 1.621892140053074360e+00
0.000000000000000000e+00 1.011390000000000032e-03 2.890231089759513594e+00
1.250000000000000069e-02 1.472259999999999975e-03 3.930457896082848457e+00
2.500000000000000139e-02 2.644029999999999905e-03 2.380030951504934045e+00
3.125000000000000173e-03 2.579199999999999809e-03 8.856524550233468851e-01
3.125000000000000173e-03 4.239999999999999845e-03 2.904946856690362900e+00
2.500000000000000139e-02 6.160990000000000216e-02 4.673869463819079861e+00
0.000000000000000000e+00 1.510270000000000015e-02 3.564657737874331822e+00
0.000000000000000000e+00 1.057850000000000040e-01 1.909066679721702187e+00
0.000000000000000000e+00 1.882180000000000008e-03 1.615334830377732622e+00
3.125000000000000173e-03 1.358849999999999988e-03 2.707249162277555854e+00
0.000000000000000000e+00 2.890429999999999822e-03 3.893760354556232706e+00
3.125000000000000173e-03 1.614210000000000037e-03 2.787452830741122156e+00
6.875000000000000555e-02 1.069839999999999958e-01 2.565156361991557610e+00
0.000000000000000000e+00 6.701699999999999888e-04 5.620915853290098241e-01
9.062499999999999722e-02 1.766790000000000027e-02 2.522709272089890042e+00
0.000000000000000000e+00 1.231300000000000059e-03 1.499051119856176228e+00
3.125000000000000173e-03 4.541250000000000148e-03 4.996146408488156609e+00
0.000000000000000000e+00 1.588480000000000079e-04 4.998050930871822395e+00
0.000000000000000000e+00 1.511200000000000043e-02 1.721734050159468010e-01
0.000000000000000000e+00 3.564610000000000174e-03 4.854210081941421784e+00
1.250000000000000069e-02 1.854339999999999895e-03 1.092662452030546127e-01
3.125000000000000173e-03 4.434109999999999788e-03 4.772376198065657604e+00
3.125000000000000173e-03 1.617340000000000097e-03 8.763400278751920514e-01
2.187499999999999861e-02 2.688579999999999876e-03 2.744338205092537564e+00
0.000000000000000000e+00 1.134660000000000009e-03 1.843233686301120500e+00
0.000000000000000000e+00 5.867519999999999550e-04 1.657666330084784256e+00
0.000000000000000000e+00 1.903359999999999883e-04 3.864415022159576552e+00
1.562500000000000000e-02 2.840379999999999988e-03 3.518363974660046800e+00
1.250000000000000069e-02 1.066700000000000009e-01 2.084462560781142226e+00
2.187499999999999861e-02 3.641529999999999767e-02 3.630944435956934280e-01
6.250000000000000347e-03 9.795379999999999365e-02 1.342644167285083068e+00
0.000000000000000000e+00 1.008240000000000091e-03 3.870499338090873209e+00
3.125000000000000173e-03 4.016990000000000144e-02 3.723287478744717216e+00
3.125000000000000173e-03 1.654679999999999953e-03 5.841968234691535811e-01
0.000000000000000000e+00 1.171689999999999971e-03 4.645413192010455772e-01
0.000000000000000000e+00 2.340479999999999818e-03 4.656373347761966208e+00
0.000000000000000000e+00 4.467200000000000164e-03 3.916679763575255269e+00
3.125000000000000173e-03 4.180859999999999785e-03 5.176861244844588317e-01
0.000000000000000000e+00 7.995759999999999760e-04 3.228131598177959916e+00
2.187499999999999861e-02 3.329860000000000025e-03 3.403005460431561158e+00
3.125000000000000173e-03 6.011139999999999886e-03 1.206344724784412126e+00
3.125000000000000173e-03 4.504829999999999599e-03 1.372566073916267726e+00
0.000000000000000000e+00 1.080060000000000091e-03 1.865557816897574384e+00
0.000000000000000000e+00 1.617729999999999949e-03 4.931875601095075723e+00
0.000000000000000000e+00 4.733690000000000120e-02 5.612884948773799731e-01
1.874999999999999931e-02 1.665019999999999912e-03 2.152066655098896053e+00
3.125000000000000000e-02 9.315310000000000257e-03 1.993858839793077209e+00
6.250000000000000347e-03 1.843709999999999924e-03 2.239623781977782446e+00
2.187499999999999861e-02 2.043839999999999893e-03 3.460279057512712253e+00
3.125000000000000173e-03 1.746299999999999892e-03 3.588332470677926267e+00
0.000000000000000000e+00 6.935119999999999696e-04 1.625431956915960319e+00
0.000000000000000000e+00 1.104189999999999902e-03 2.734130376264807705e+00
1.874999999999999931e-02 3.229309999999999993e-03 3.593125350977628862e+00
0.000000000000000000e+00 2.372089999999999962e-02 2.867251273012101365e+00
0.000000000000000000e+00 2.153370000000000018e-05 4.239217379003313191e+00
1.562500000000000000e-02 2.063489999999999856e-03 4.302566146641392031e+00
0.000000000000000000e+00 5.678080000000000280e-03 7.033070897253884679e-01
9.374999999999999653e-03 1.495170000000000093e-03 1.493827718877090982e+00
5.000000000000000278e-02 3.772190000000000265e-02 1.510507852046025334e+00
0.000000000000000000e+00 2.050969999999999877e-02 4.072136211912924519e-01
2.500000000000000139e-02 2.331390000000000025e-03 4.654548658978574505e-01
0.000000000000000000e+00 1.028579999999999946e-02 2.760089720860127827e+00
0.000000000000000000e+00 1.719040000000000130e-04 3.274105247058520796e+00
0.000000000000000000e+00 2.733440000000000175e-04 1.158750713195592086e+00
2.812500000000000069e-02 2.971400000000000083e-02 3.295868811878168270e+00
9.687500000000000278e-02 8.227039999999999353e-02 2.601283733883198224e+00
0.000000000000000000e+00 4.121950000000000201e-04 3.609482801422922993e+00
0.000000000000000000e+00 1.923009999999999954e-03 4.695862756472966026e+00
0.000000000000000000e+00 7.778750000000000074e-03 1.442825611425137655e+00
0.000000000000000000e+00 5.186429999999999469e-04 1.576933353155498096e+00
0.000000000000000000e+00 4.369479999999999914e-04 3.304468460298155996e+00
0.000000000000000000e+00 9.384320000000000031e-04 3.275511955381047446e+00
7.187499999999999445e-02 9.121250000000000191e-02 4.959624332514588119e+00
4.687500000000000000e-02 3.852930000000000244e-02 4.139963972131487147e+00
1.562500000000000000e-02 5.321600000000000115e-03 1.011321651047689674e+00
0.000000000000000000e+00 1.929180000000000131e-02 1.851341460116748383e+00
0.000000000000000000e+00 4.927360000000000203e-04 4.720527443728472328e+00
3.125000000000000173e-03 2.424830000000000214e-03 4.326902570200176434e+00
1.874999999999999931e-02 2.204100000000000070e-03 1.386769670791316411e+00
3.125000000000000173e-03 2.451179999999999852e-03 4.721890014659811285e+00
0.000000000000000000e+00 7.307039999999999889e-04 3.008541994390049545e+00
0.000000000000000000e+00 7.724799999999999766e-04 3.812161333380999384e+00
2.500000000000000139e-02 5.340609999999999975e-03 2.853261074413551146e+00
6.250000000000000347e-03 2.356660000000000005e-02 1.273479647827319150e+00
0.000000000000000000e+00 6.119679999999999521e-04 1.897093324360167976e+00
0.000000000000000000e+00 2.294689999999999878e-05 2.307335461488438266e+00
3.749999999999999861e-02 9.240059999999999940e-02 1.297877006160560454e+00
2.812500000000000069e-02 2.429699999999999915e-03 3.303964917149565528e-01
0.000000000000000000e+00 9.512960000000000209e-04 1.026128322587997577e+00
0.000000000000000000e+00 2.578149999999999973e-03 5.632505398542775321e-01
5.312499999999999861e-02 9.326310000000000155e-02 1.639921176826343974e+00
0.000000000000000000e+00 2.785650000000000192e-03 2.107681308049502711e-02
0.000000000000000000e+00 9.537919999999999645e-04 2.935474151115654351e+00
2.500000000000000139e-02 2.476480000000000087e-03 4.214543538051492177e+00
0.000000000000000000e+00 4.168770000000000136e-04 7.555111373518968998e-01
0.000000000000000000e+00 3.094529999999999850e-03 3.869442450220999419e+00
0.000000000000000000e+00 2.339169999999999832e-05 3.117370351333329737e+00
0.000000000000000000e+00 3.435459999999999989e-03 9.275556365527615199e-01
0.000000000000000000e+00 2.183039999999999807e-03 2.390617240727083370e+00
2.187499999999999861e-02 2.307329999999999798e-03 5.275814954997398720e-01
2.500000000000000139e-02 1.991039999999999911e-03 3.407315145773894383e+00
9.375000000000000000e-02 2.997910000000000158e-02 3.586060504385226722e+00
0.000000000000000000e+00 1.308590000000000100e-03 9.676366137358838326e-02
0.000000000000000000e+00 1.619199999999999893e-03 2.235760302094223384e+00
0.000000000000000000e+00 4.371399999999999787e-04 3.847011993212822389e+00
3.125000000000000173e-03 1.933299999999999949e-02 6.617436531957832102e-01
3.125000000000000173e-03 9.405600000000000072e-03 4.070491385022457997e+00
0.000000000000000000e+00 4.625090000000000104e-03 4.144396421390506902e+00
1.874999999999999931e-02 1.630909999999999955e-03 3.777292111696210597e+00
0.000000000000000000e+00 1.503919999999999953e-03 4.758319148966213774e+00
0.000000000000000000e+00 2.959999999999999958e-03 2.180209560312806438e+00
6.250000000000000347e-03 9.256680000000000463e-02 3.001459506790728149e+00
0.000000000000000000e+00 1.143549999999999905e-03 1.440916214001757290e+00
0.000000000000000000e+00 2.150039999999999832e-05 4.394506741638543268e+00
0.000000000000000000e+00 3.971840000000000244e-04 8.495825455963301742e-01
3.125000000000000173e-03 2.355900000000000181e-03 2.166614727501608995e-01
0.000000000000000000e+00 6.330800000000000143e-03 4.235470209218286541e+00
0.000000000000000000e+00 1.714940000000000084e-03 5.971231134837839960e-01
2.500000000000000139e-02 2.756989999999999962e-03 2.677844927099615191e+00
6.250000000000000347e-03 4.018749999999999753e-03 2.831893828480343878e+00
2.187499999999999861e-02 4.712960000000000066e-02 1.151433553330910575e+00
1.562500000000000000e-02 2.516579999999999859e-02 4.889686986479965469e+00
0.000000000000000000e+00 9.310079999999999875e-04 4.199055020924971515e+00
1.874999999999999931e-02 2.150780000000000140e-03 4.700983400397385381e+00
0.000000000000000000e+00 4.278420000000000009e-04 2.221037229311999095e+00
0.000000000000000000e+00 1.420349999999999911e-03 1.589246982563141675e+00
0.000000000000000000e+00 7.361549999999999474e-04 3.575175339751479164e+00
0.000000000000000000e+00 1.575739999999999953e-03 1.254433558177420194e+00
0.000000000000000000e+00 1.004740000000000060e-03 1.257994605493037987e+00
0.000000000000000000e+00 9.357630000000000461e-03 2.598232615670545087e+00
3.125000000000000173e-03 4.653380000000000363e-03 9.373972652672141193e-01
9.374999999999999653e-03 9.022850000000000661e-03 1.090524199354776957e+00
0.000000000000000000e+00 3.662079999999999741e-04 3.790768370574770785e-01
0.000000000000000000e+00 1.171739999999999934e-02 4.470099812416282070e+00
0.000000000000000000e+00 9.939840000000000567e-04 3.416547594567332258e+00
0.000000000000000000e+00 1.166659999999999919e-03 1.167288291162899005e+00
2.500000000000000139e-02 2.968380000000000064e-03 2.420843648652085456e+00
0.000000000000000000e+00 3.445119999999999866e-03 1.272766670972108605e+00
9.374999999999999653e-03 9.142569999999999864e-02 1.604499678124884365e+00
3.125000000000000173e-03 4.455549999999999962e-03 1.852873411815830762e-01
0.000000000000000000e+00 3.759359999999999785e-03 1.997974420692643083e+00
3.125000000000000173e-03 4.950399999999999766e-03 3.156797607593176735e+00
3.125000000000000173e-03 7.636480000000000178e-04 1.976295341707503983e+00
2.500000000000000139e-02 1.794369999999999993e-03 2.389992077900791045e+00
0.000000000000000000e+00 2.059519999999999960e-04 2.631857706505266847e+00
2.500000000000000139e-02 2.439549999999999965e-03 5.715356123250958653e-01
1.031249999999999944e-01 9.213639999999999330e-02 3.310599919205276631e+00
2.812500000000000069e-02 2.380160000000000088e-03 4.744523072374753347e+00
3.125000000000000173e-03 1.310719999999999941e-02 4.846175883356176328e+00
0.000000000000000000e+00 0.000000000000000000e+00 2.840376882531974623e+00
3.125000000000000173e-03 5.175810000000000306e-03 2.384793254473125401e+00
3.125000000000000173e-03 1.480970000000000029e-02 4.091098697632630454e+00
0.000000000000000000e+00 1.801340000000000016e-03 3.328546856663048281e+00
0.000000000000000000e+00 1.046209999999999892e-03 5.900477332783976570e-01
3.125000000000000173e-03 1.660540000000000063e-03 4.271084997573683317e+00
0.000000000000000000e+00 9.397760000000000228e-04 2.866237870543448363e+00
9.374999999999999653e-03 4.508820000000000189e-02 1.482908194588724582e+00
0.000000000000000000e+00 2.460739999999999889e-03 2.701367941588515453e+00
0.000000000000000000e+00 1.946620000000000034e-03 3.731095049820682519e+00
0.000000000000000000e+00 4.314369999999999664e-03 4.016780574637836665e+00
0.000000000000000000e+00 4.088319999999999780e-04 1.307802416870318396e-01
3.125000000000000173e-03 9.773300000000000043e-02 4.578026222497590503e+00
0.000000000000000000e+00 1.803520000000000080e-03 2.165793482213012044e+00
1.250000000000000069e-02 1.408060000000000041e-03 8.440615038091991984e-01
3.125000000000000173e-03 4.335999999999999577e-03 5.333640571244258055e-01
3.125000000000000173e-03 1.507330000000000085e-03 6.377798871205281328e-01
0.000000000000000000e+00 2.360899999999999978e-03 1.653412727791736536e+00
3.125000000000000173e-03 4.760259999999999665e-03 4.740731251442150906e+00
0.000000000000000000e+00 3.748930000000000144e-03 6.642347107956547703e-01
0.000000000000000000e+00 1.057089999999999896e-03 2.859206441608459937e+00
9.374999999999999653e-03 3.806270000000000053e-03 1.991834131483273929e+00
0.000000000000000000e+00 3.955879999999999943e-04 1.834403099346450627e+00
2.187499999999999861e-02 1.656700000000000100e-03 3.555657020348599318e+00
3.125000000000000173e-03 7.945729999999999807e-03 1.279972852008024020e+00
2.187499999999999861e-02 2.225659999999999965e-03 2.082437781236134544e+00
0.000000000000000000e+00 6.878529999999999887e-03 4.661670973637470183e+00
6.250000000000000347e-03 9.884010000000000018e-02 3.878131198732334362e+00
0.000000000000000000e+00 2.579779999999999834e-03 2.121406128266323687e+00
0.000000000000000000e+00 1.042240000000000050e-03 3.866650093997680671e+00
2.812500000000000069e-02 2.367999999999999879e-03 2.094883447512038366e+00
2.187499999999999861e-02 3.399419999999999786e-03 4.098720117196148927e+00
1.874999999999999931e-02 2.111619999999999817e-03 1.696394561583408622e+00
0.000000000000000000e+00 2.464330000000000036e-04 2.058791400789462323e+00
0.000000000000000000e+00 3.822489999999999786e-04 5.087598402262766273e-01
0.000000000000000000e+00 2.299649999999999871e-03 4.127740488375224892e+00
1.874999999999999931e-02 9.386429999999999774e-02 2.787237330860267370e+00
1.874999999999999931e-02 9.252370000000000039e-02 3.177464802887874917e-01
0.000000000000000000e+00 1.512580000000000001e-02 3.147749335787101366e+00
0.000000000000000000e+00 1.127870000000000001e-03 1.776676321152135696e+00
2.812500000000000069e-02 2.742720000000000140e-03 1.226499220079461772e+00
3.125000000000000173e-03 1.005250000000000067e-03 2.734421710734629141e+00
4.687500000000000000e-02 9.057579999999999798e-02 2.069264093541182792e+00
3.125000000000000173e-03 4.652479999999999637e-03 4.879315384329235172e+00
1.874999999999999931e-02 2.040669999999999984e-02 4.234372867624791148e+00
0.000000000000000000e+00 9.706880000000000413e-04 2.576072283197973434e+00
2.500000000000000139e-02 2.408260000000000175e-03 1.084688123210543198e+00
2.187499999999999861e-02 2.183619999999999832e-03 1.150067064764714431e+00
0.000000000000000000e+00 3.149819999999999790e-03 8.082155441652871808e-01
0.000000000000000000e+00 3.112960000000000033e-02 3.517349008490876727e+00
0.000000000000000000e+00 1.946940000000000085e-03 5.950669497743293901e-01
0.000000000000000000e+00 6.355519999999999919e-03 4.705160079667937367e+00
3.125000000000000173e-03 1.536379999999999951e-03 3.652973718601180586e+00
2.500000000000000139e-02 7.996420000000000611e-03 2.710876110222265822e+00
4.062500000000000139e-02 9.121750000000000691e-02 1.637499276173677742e+00
3.125000000000000173e-03 3.959170000000000050e-02 1.978932484432780914e+00
0.000000000000000000e+00 9.661440000000000522e-04 4.939576009629766951e+00
9.374999999999999653e-03 2.716670000000000022e-03 2.099972859401156189e+00
3.125000000000000173e-03 2.246339999999999882e-03 1.793493991549884869e+00
1.874999999999999931e-02 1.763779999999999949e-03 4.914165868376918489e+00
0.000000000000000000e+00 1.697600000000000064e-03 2.220068541440676224e+00
0.000000000000000000e+00 3.977599999999999864e-04 2.328585342265240499e+00
0.000000000000000000e+00 1.579710000000000012e-03 1.930613367544936620e+00
0.000000000000000000e+00 1.663490000000000107e-03 4.303188963206413753e+00
0.000000000000000000e+00 2.286900000000000076e-05 3.667888247316270167e+00
1.250000000000000069e-02 1.834880000000000105e-03 1.273050380532767978e+00
0.000000000000000000e+00 1.796859999999999950e-03 2.373746042809900203e+00
0.000000000000000000e+00 2.206800000000000081e-02 4.902013883082815049e+00
0.000000000000000000e+00 1.052540000000000029e-03 2.764456080926942949e+00
0.000000000000000000e+00 7.559039999999999510e-04 2.250077979685372043e-01
5.312499999999999861e-02 3.998589999999999783e-02 2.700240977790131058e+00
0.000000000000000000e+00 1.137020000000000088e-03 4.093715634855650265e+00
3.125000000000000173e-03 1.053249999999999933e-03 4.166054667869756312e-01
2.812500000000000069e-02 2.703999999999999806e-03 1.114160215243119589e+00
2.500000000000000139e-02 2.858299999999999817e-03 4.457781942078525850e-01
6.250000000000000347e-03 1.530050000000000030e-03 4.151927286336635881e+00
0.000000000000000000e+00 3.891200000000000149e-04 4.156299944708273131e+00
6.250000000000000347e-03 9.704599999999999338e-02 8.522315230662691476e-01
0.000000000000000000e+00 1.684610000000000014e-03 4.745164070507704501e+00
1.874999999999999931e-02 2.780420000000000027e-03 4.447630796808434539e+00
2.500000000000000139e-02 2.462269999999999910e-03 3.952423472382537550e+00
0.000000000000000000e+00 5.311620000000000404e-03 3.694673271973422768e+00
3.125000000000000173e-03 1.176619999999999923e-02 1.833668213292057203e+00
6.250000000000000347e-03 3.033409999999999839e-03 4.287785063367274496e+00
5.937499999999999722e-02 2.579570000000000127e-02 9.394310109396192265e-01
1.874999999999999931e-02 7.128579999999999812e-03 4.676209403902991113e+00
0.000000000000000000e+00 7.292299999999999824e-04 2.247849758740224857e+00
0.000000000000000000e+00 4.449250000000000080e-03 2.092692842022545463e+00
9.687500000000000278e-02 1.116850000000000065e-01 3.700640610605509639e+00
0.000000000000000000e+00 2.349760000000000217e-03 1.415726757877038278e+00
2.500000000000000139e-02 9.147579999999999600e-02 2.450041184620171952e-01
0.000000000000000000e+00 9.833599999999999633e-04 3.315767921296722598e+00
0.000000000000000000e+00 9.415680000000000490e-04 4.111091175580235735e+00
2.500000000000000139e-02 2.841859999999999872e-03 4.852848125271772339e+00
1.562500000000000000e-02 2.469659999999999911e-02 3.241315407780757774e+00
1.874999999999999931e-02 2.601280000000000085e-03 3.894765284181823439e+00
1.562500000000000000e-02 2.232580000000000068e-03 2.359361948201402548e+00
1.562500000000000000e-02 1.715069999999999963e-03 4.083853032255416515e+00
1.874999999999999931e-02 9.144239999999999313e-02 4.939420904433441173e+00
0.000000000000000000e+00 4.434119999999999728e-03 1.587569040808696652e+00
8.125000000000000278e-02 9.329790000000000305e-02 1.940267645075411940e+00
0.000000000000000000e+00 3.423640000000000038e-04 3.306543658460594948e+00
0.000000000000000000e+00 3.757570000000000007e-03 3.767552139423736790e+00
2.187499999999999861e-02 9.251679999999999626e-02 2.925418995911482911e-01
1.250000000000000069e-02 1.558139999999999959e-03 3.055938770608975119e+00
2.187499999999999861e-02 9.441339999999999455e-03 1.875466761818595618e+00
0.000000000000000000e+00 1.119299999999999939e-03 5.692036760250906990e-01
1.250000000000000069e-02 2.129350000000000132e-01 9.986119393185693971e-01
0.000000000000000000e+00 3.740419999999999943e-03 4.327175516956190293e+00
0.000000000000000000e+00 1.741439999999999915e-03 7.314701698257675133e-01
0.000000000000000000e+00 4.631869999999999737e-03 3.718210808637417486e+00
1.250000000000000069e-02 2.347709999999999814e-03 3.238712147072975167e-01
6.250000000000000347e-03 1.881410000000000027e-03 2.585835016712741741e+00
3.125000000000000173e-03 8.524579999999999658e-02 1.465803183534785781e+00
0.000000000000000000e+00 6.092860000000000290e-03 3.021726331573067803e+00
3.125000000000000173e-03 4.496159999999999740e-02 4.855297219419766108e+00
2.187499999999999861e-02 2.746750000000000060e-03 4.207636834142564730e+00
6.250000000000000347e-03 1.254979999999999941e-03 4.176966034412393114e+00
2.500000000000000139e-02 2.669979999999999923e-02 2.944279074949261332e+00
0.000000000000000000e+00 1.407160000000000008e-02 2.324717948303365755e+00
0.000000000000000000e+00 2.276520000000000017e-05 1.835328592512781132e+00
0.000000000000000000e+00 1.010749999999999930e-03 3.574864497646488282e+00
2.500000000000000139e-02 2.724610000000000139e-03 2.020643864744262164e+00
3.125000000000000173e-03 4.195579999999999969e-03 1.770426815303476342e+00
0.000000000000000000e+00 5.059840000000000127e-04 4.057241950019426113e+00
6.250000000000000347e-03 9.676010000000000166e-02 7.245795213224381914e-02
1.562500000000000000e-02 1.673659999999999991e-03 9.247228639048460375e-01
0.000000000000000000e+00 3.024189999999999951e-03 6.278948557165880962e-01
1.250000000000000069e-02 2.798590000000000105e-03 2.211091610850901557e+00
9.374999999999999653e-03 3.180029999999999923e-03 4.252453201239903890e+00
2.500000000000000139e-02 1.735999999999999913e-03 2.366516234055161760e+00
2.812500000000000069e-02 8.215550000000000283e-03 3.508908545930676137e+00
1.874999999999999931e-02 1.526910000000000029e-03 2.757859925419747782e+00
0.000000000000000000e+00 1.520000000000000084e-03 1.324390718872502370e+00
6.250000000000000347e-03 1.854460000000000049e-03 3.645026328963603124e+00
1.250000000000000069e-02 1.856830000000000069e-03 4.434277971607707869e+00
0.000000000000000000e+00 1.227519999999999957e-03 1.539623416409045653e+00
9.374999999999999653e-03 2.030210000000000174e-03 3.744906227882119243e+00
3.125000000000000173e-03 5.191620000000000089e-03 1.265947366683966457e+00
0.000000000000000000e+00 3.601860000000000131e-03 1.150684872213176835e+00
3.125000000000000173e-03 5.590659999999999900e-03 1.733115470011426407e+00
0.000000000000000000e+00 1.052159999999999901e-03 3.790033120970972558e+00
0.000000000000000000e+00 5.415040000000000521e-04 8.590301404775385619e-01
1.562500000000000000e-02 1.769090000000000072e-03 1.859152896314040238e+00
0.000000000000000000e+00 9.949700000000000558e-03 3.926911249791623426e+00
0.000000000000000000e+00 1.190719999999999930e-03 4.648105487230419497e-01
1.874999999999999931e-02 9.297249999999999959e-02 2.780016345517895449e+00
0.000000000000000000e+00 1.180290000000000072e-03 1.390571523704322132e+00
3.125000000000000173e-03 1.505660000000000028e-03 3.912517090336703474e-01
1.250000000000000069e-02 3.318920000000000203e-02 3.402031061406554535e+00
0.000000000000000000e+00 3.612159999999999785e-04 3.409369356635369552e+00
0.000000000000000000e+00 5.743729999999999843e-04 1.242310603618255627e+00
0.000000000000000000e+00 1.098980000000000052e-03 2.431667038544011561e+00
0.000000000000000000e+00 7.399379999999999890e-04 1.561131518358769732e+00
9.687500000000000278e-02 4.340829999999999689e-02 2.260691097728016352e+00
3.125000000000000173e-03 1.036759999999999939e-02 2.434510405082713103e+00
0.000000000000000000e+00 8.181069999999999922e-04 3.782851990827853506e+00
3.437500000000000278e-02 9.188920000000000421e-02 3.423052397526522572e+00
6.250000000000000347e-03 1.519230000000000103e-03 1.705935014795421090e+00
1.874999999999999931e-02 2.023490000000000184e-03 4.651106297562177083e+00
1.874999999999999931e-02 2.445629999999999853e-03 4.422041815520161290e-01
1.874999999999999931e-02 2.720320000000000030e-03 3.953379332666988155e+00
0.000000000000000000e+00 7.951500000000000018e-04 1.647694269785138221e-01
6.250000000000000347e-03 4.304829999999999941e-03 1.396313638125506351e+00
0.000000000000000000e+00 6.612569999999999473e-04 2.173985178210196434e+00
0.000000000000000000e+00 3.123519999999999856e-03 4.809128162493615299e+00
0.000000000000000000e+00 3.352960000000000098e-04 3.727464661954146052e+00
1.250000000000000069e-02 1.966910000000000099e-03 2.037424681719439246e+00
3.125000000000000000e-02 3.264770000000000172e-02 1.416411889395968071e+00
0.000000000000000000e+00 2.380799999999999974e-04 5.428003006166526312e-03
1.250000000000000069e-02 9.598339999999999650e-02 3.472731974743261230e+00
0.000000000000000000e+00 3.784020000000000135e-04 2.764753597408354580e+00
3.125000000000000173e-03 4.592640000000000264e-03 2.493459019011159405e+00
0.000000000000000000e+00 2.082940000000000139e-03 1.280262201996131832e+00
0.000000000000000000e+00 1.656380000000000048e-03 3.116467622193234810e+00
0.000000000000000000e+00 7.077480000000000143e-04 2.813062330633862906e+00
0.000000000000000000e+00 4.626620000000000233e-04 4.909817106899064143e+00
2.500000000000000139e-02 3.106300000000000207e-03 3.332089610172484395e+00
0.000000000000000000e+00 4.974180000000000138e-04 5.387289415560558847e-01
0.000000000000000000e+00 1.255419999999999930e-03 3.197288364466852162e+00
2.187499999999999861e-02 2.961410000000000084e-02 4.976870486734781274e+00
2.187499999999999861e-02 2.739459999999999985e-03 2.490759044712707926e+00
0.000000000000000000e+00 1.065889999999999893e-03 4.204928941281659505e+00
2.187499999999999861e-02 1.563200000000000050e-03 3.590617283031424911e+00
3.125000000000000173e-03 9.796900000000000053e-02 8.093302330889368124e-01
0.000000000000000000e+00 1.950319999999999832e-02 2.949194560791801312e-01
