6.875000000000000555e-02 1.058110000000000023e-01 3.648476770142555115e+00
0.000000000000000000e+00 1.008559999999999925e-03 4.146318968718090581e+00
6.250000000000000347e-03 1.218429999999999947e-03 8.692359127852433698e-01
2.500000000000000139e-02 2.359490000000000112e-03 2.693636839078196843e+00
0.000000000000000000e+00 8.957439999999999673e-04 1.139963626040729316e+00
5.625000000000000139e-02 8.297860000000000652e-03 3.268265871221327057e+00
0.000000000000000000e+00 5.343940000000000148e-03 3.458222749281985919e+00
9.374999999999999653e-03 1.201960000000000008e-02 3.287513847090948627e+00
6.875000000000000555e-02 3.964829999999999743e-02 1.203554611678285813e+00
0.000000000000000000e+00 1.090180000000000055e-03 4.191967964347234954e+00
0.000000000000000000e+00 1.004730000000000067e-01 3.964560908552448470e+00
0.000000000000000000e+00 2.782259999999999942e-03 2.294017144770958527e+00
3.125000000000000173e-03 9.657290000000000318e-02 5.023785529870011812e-01
3.437500000000000278e-02 9.178989999999999372e-02 3.465384410489956934e+00
1.562500000000000000e-02 1.559679999999999921e-03 1.574601477868892818e+00
0.000000000000000000e+00 4.741759999999999812e-04 4.478102363171200473e+00
0.000000000000000000e+00 1.034179999999999995e-03 2.281536925118425874e+00
6.250000000000000347e-03 1.006449999999999984e-01 3.281785911017768953e+00
3.125000000000000173e-03 2.520559999999999815e-03 4.640551721837617549e+00
0.000000000000000000e+00 1.050109999999999932e-03 1.501902942889068893e+00
0.000000000000000000e+00 1.930880000000000053e-03 4.162294870178842032e+00
6.250000000000000347e-03 9.682770000000000266e-02 4.674800270289412474e+00
0.000000000000000000e+00 1.345789999999999920e-03 4.238956693853209501e+00
1.874999999999999931e-02 1.637819999999999901e-03 1.457077816881265919e+00
6.250000000000000347e-03 1.410180000000000027e-03 1.329116742135971752e-01
3.125000000000000173e-03 1.617020000000000046e-03 7.791987589623872168e-01
0.000000000000000000e+00 4.860539999999999999e-03 4.660865538721041368e+00
0.000000000000000000e+00 1.132610000000000040e-03 3.520717718748967329e+00
0.000000000000000000e+00 3.082240000000000088e-04 2.188624458187489186e+00
3.125000000000000173e-03 1.627970000000000068e-03 1.874070223613940600e+00
0.000000000000000000e+00 5.913599999999999760e-04 2.942074401498736336e+00
2.812500000000000069e-02 9.500880000000000436e-02 1.623863178072157520e+00
0.000000000000000000e+00 1.816959999999999897e-04 2.911787982670914321e+00
3.125000000000000173e-03 5.637569999999999734e-03 4.115451162818464681e+00
0.000000000000000000e+00 3.699840000000000138e-04 4.342584939108420805e+00
0.000000000000000000e+00 1.502080000000000093e-04 1.023907928343556595e+00
0.000000000000000000e+00 4.177739999999999882e-04 3.643127099208025577e+00
0.000000000000000000e+00 3.739519999999999867e-04 4.373528261498311309e+00
2.187499999999999861e-02 3.079680000000000004e-03 4.183331159861364279e-01
0.000000000000000000e+00 2.346050000000000132e-03 2.259891247183901442e+00
0.000000000000000000e+00 3.520470000000000261e-04 3.526048506988892495e+00
3.125000000000000173e-03 9.322500000000000231e-02 4.841366227389992893e+00
3.125000000000000173e-03 3.699389999999999883e-03 2.971449692464908754e+00
2.187499999999999861e-02 3.346109999999999796e-03 9.054453237240717156e-01
1.562500000000000000e-02 1.804990000000000023e-03 2.439585581697371719e+00
3.125000000000000173e-03 9.941029999999999311e-02 4.811979501108586632e+00
3.125000000000000173e-03 9.371010000000000451e-02 3.118265055996728208e+00
0.000000000000000000e+00 2.043899999999999970e-03 1.605531917676694675e-01
6.250000000000000347e-03 5.746880000000000217e-03 6.019774145496703532e-01
0.000000000000000000e+00 1.534720000000000105e-04 1.787972069622837390e+00
2.500000000000000139e-02 2.269950000000000179e-03 2.507283654931545591e+00
0.000000000000000000e+00 1.425540000000000097e-03 1.040974389651208476e+00
0.000000000000000000e+00 4.382020000000000359e-03 4.652334351837433601e+00
0.000000000000000000e+00 1.173639999999999926e-02 1.794312122546172228e+00
0.000000000000000000e+00 2.012669999999999824e-03 1.325755222813610468e+00
4.374999999999999722e-02 3.921279999999999905e-02 2.801027032577961151e+00
0.000000000000000000e+00 2.287690000000000115e-05 1.639464844793082632e+00
0.000000000000000000e+00 4.979070000000000371e-03 4.602207866113521284e+00
2.187499999999999861e-02 2.546749999999999969e-03 8.720214790517516468e-01
1.562500000000000000e-02 2.120750000000000135e-01 9.298109012080962854e-01
2.500000000000000139e-02 2.882619999999999801e-03 2.517040237063478125e-01
6.250000000000000347e-03 2.141820000000000009e-03 3.019427895131646000e+00
0.000000000000000000e+00 1.512179999999999948e-02 1.932975792205056109e+00
0.000000000000000000e+00 2.330109999999999820e-03 3.091298985412697764e+00
3.125000000000000173e-03 1.057349999999999957e-01 2.238056506930953926e+00
0.000000000000000000e+00 1.130270000000000005e-04 4.072387304997520552e+00
0.000000000000000000e+00 9.258240000000000046e-04 3.272793337421978421e+00
0.000000000000000000e+00 4.495550000000000067e-03 3.534235589095226615e+00
1.874999999999999931e-02 3.523520000000000037e-03 3.199619248984507891e+00
0.000000000000000000e+00 4.416960000000000157e-03 2.190025331101379091e+00
3.125000000000000173e-03 9.489980000000000637e-02 1.640671378639652067e-01
4.687500000000000000e-02 9.192759999999999820e-02 2.067936873298574785e+00
2.187499999999999861e-02 2.253180000000000027e-03 1.546869771727330090e+00
0.000000000000000000e+00 1.132669999999999901e-03 3.447902887886544754e+00
3.125000000000000173e-03 1.839039999999999902e-03 2.117608832740679681e+00
0.000000000000000000e+00 9.040639999999999961e-04 2.503723575119051858e+00
0.000000000000000000e+00 4.392949999999999633e-03 1.941345623941318488e+00
0.000000000000000000e+00 1.014530000000000032e-03 3.302204585005287463e+00
0.000000000000000000e+00 4.161710000000000105e-04 1.174807094951171305e+00
0.000000000000000000e+00 7.384629999999999667e-04 1.256862780930182444e+00
6.250000000000000347e-03 1.061919999999999947e-01 4.820927136774481703e+00
0.000000000000000000e+00 4.455920000000000367e-03 2.721442966787417372e+00
1.874999999999999931e-02 3.581060000000000059e-03 8.570414365464146256e-01
3.749999999999999861e-02 3.866370000000000223e-02 6.422645546662919536e-01
1.250000000000000069e-02 1.638399999999999926e-03 4.218172766705388099e+00
0.000000000000000000e+00 3.642599999999999988e-05 8.888497501774106357e-01
0.000000000000000000e+00 1.920899999999999908e-03 3.716336119380896363e+00
2.187499999999999861e-02 3.001470000000000006e-03 4.209274558886805906e+00
6.250000000000000347e-03 1.308219999999999912e-03 4.997510989276225501e+00
1.562500000000000000e-02 2.277250000000000194e-03 2.356051415736010846e+00
0.000000000000000000e+00 4.398909999999999799e-03 4.478815804908522935e+00
2.187499999999999861e-02 9.848449999999999913e-03 4.909225932596739561e+00
0.000000000000000000e+00 9.550719999999999522e-04 1.070667274601005303e+00
0.000000000000000000e+00 1.061819999999999995e-03 9.923453451798036618e-01
0.000000000000000000e+00 6.791040000000000357e-04 4.078267621674119603e+00
6.250000000000000347e-03 4.476289999999999956e-03 1.641737182755703017e+00
2.500000000000000139e-02 1.942909999999999950e-03 1.721498888933656435e+00
2.187499999999999861e-02 1.912960000000000008e-03 3.167001571551750327e+00
0.000000000000000000e+00 2.127359999999999906e-04 6.037400477081633632e-01
3.125000000000000173e-03 2.765380000000000008e-03 1.576755747549673625e+00
6.562500000000000278e-02 4.106189999999999840e-02 2.624485139690646118e+00
6.250000000000000347e-03 1.944699999999999944e-03 4.001533246522002152e+00
0.000000000000000000e+00 4.509820000000000322e-03 1.227743401286780056e+00
3.125000000000000173e-03 1.859390000000000044e-03 4.195430321887734237e+00
0.000000000000000000e+00 4.664770000000000374e-03 4.417149331246355004e+00
2.812500000000000069e-02 1.801920000000000041e-03 3.815663923074863462e+00
1.250000000000000069e-02 5.870779999999999922e-03 2.609559262359523402e+00
0.000000000000000000e+00 5.889880000000000332e-04 2.356384636196876770e+00
0.000000000000000000e+00 4.680830000000000407e-03 4.448186827040311542e+00
0.000000000000000000e+00 1.187710000000000024e-03 1.320773058437397118e+00
0.000000000000000000e+00 3.811840000000000150e-04 6.021730055903795620e-01
2.187499999999999861e-02 1.601280000000000064e-03 4.134803918609112117e+00
2.500000000000000139e-02 1.325629999999999951e-03 9.851745006421713802e-01
0.000000000000000000e+00 4.446620000000000086e-03 2.787659572024191235e+00
2.187499999999999861e-02 1.319620000000000081e-03 2.198348571400969398e+00
5.000000000000000278e-02 9.294339999999999893e-03 1.346051242976904483e+00
0.000000000000000000e+00 1.402430000000000083e-03 1.623659135971163181e+00
0.000000000000000000e+00 1.090180000000000055e-03 2.825390785920581571e+00
1.874999999999999931e-02 1.068940000000000029e-01 1.277228608888650196e+00
0.000000000000000000e+00 2.892800000000000059e-03 2.131078548967258346e+00
1.562500000000000000e-02 1.781500000000000097e-02 3.430882056854626772e+00
1.250000000000000069e-02 2.681729999999999791e-03 3.551718442637667561e+00
0.000000000000000000e+00 4.408579999999999617e-03 9.062880265932604651e-03
0.000000000000000000e+00 1.258940000000000059e-03 2.556214594081876346e+00
0.000000000000000000e+00 7.781119999999999660e-04 3.402356480330650523e+00
0.000000000000000000e+00 9.610570000000000224e-02 3.520398401720612025e+00
0.000000000000000000e+00 1.759170000000000005e-03 8.609644415306166865e-01
0.000000000000000000e+00 4.277819999999999886e-03 4.270255959168321347e+00
0.000000000000000000e+00 9.839359999999999253e-04 3.707671497878319400e+00
0.000000000000000000e+00 0.000000000000000000e+00 3.057271727443312770e+00
3.125000000000000173e-03 1.738299999999999915e-03 1.969951728700247262e+00
3.125000000000000173e-03 2.091370000000000035e-02 1.192539930891365785e+00
3.125000000000000173e-03 1.016590000000000028e-02 2.443343186254979038e+00
0.000000000000000000e+00 3.454780000000000177e-03 4.481604583600915070e+00
4.687500000000000000e-02 9.196429999999999882e-02 6.827334918790450846e-01
0.000000000000000000e+00 4.296259999999999663e-03 3.120901087310087973e+00
9.374999999999999653e-03 2.894959999999999894e-02 3.219039928980887977e-01
1.562500000000000000e-02 1.795460000000000025e-03 3.585516901976817383e+00
0.000000000000000000e+00 3.943549999999999660e-03 2.652115266465385091e+00
0.000000000000000000e+00 1.383679999999999979e-03 1.495025932016675885e+00
0.000000000000000000e+00 5.304770000000000318e-03 7.845077798214217246e-01
3.125000000000000173e-03 1.869699999999999964e-03 1.593262983215618656e+00
0.000000000000000000e+00 1.033940000000000033e-02 1.774509323077710921e-02
0.000000000000000000e+00 1.758890000000000028e-05 2.619659997221425840e+00
0.000000000000000000e+00 1.044479999999999974e-03 2.927447167291552077e+00
3.125000000000000173e-03 5.184189999999999979e-03 4.292306422073782102e+00
1.250000000000000069e-02 3.916799999999999796e-03 1.601622560918229521e+00
6.250000000000000347e-03 5.493589999999999585e-03 2.086637351066711332e-01
6.250000000000000347e-03 2.369340000000000161e-03 4.238985679492765613e+00
0.000000000000000000e+00 8.403840000000000095e-04 1.585786574598589294e+00
0.000000000000000000e+00 9.754880000000000495e-04 4.208029464862263147e+00
3.749999999999999861e-02 9.721799999999999192e-03 1.757361339065111494e+00
0.000000000000000000e+00 4.711940000000000399e-03 4.050044771859261594e+00
1.874999999999999931e-02 1.801089999999999983e-03 3.621310832112643041e+00
3.125000000000000173e-03 8.360960000000000397e-04 4.451566761514603066e+00
0.000000000000000000e+00 1.763140000000000063e-03 2.427993289459259074e+00
0.000000000000000000e+00 1.073600000000000075e-03 2.556041159457786538e+00
0.000000000000000000e+00 1.681409999999999936e-03 9.076372434531926325e-01
0.000000000000000000e+00 5.028160000000000268e-03 3.247175034694419260e+00
4.062500000000000139e-02 3.969109999999999999e-02 4.192258430971094185e+00
0.000000000000000000e+00 6.604799999999999647e-04 1.574417901451234503e+00
6.250000000000000347e-03 3.477500000000000122e-03 1.749249141409786601e-01
1.874999999999999931e-02 1.148099999999999989e-03 5.680221116737971254e-01
0.000000000000000000e+00 1.096769999999999950e-03 4.268209992640672468e+00
1.562500000000000000e-02 2.736259999999999908e-03 6.383713772302634926e-01
6.250000000000000347e-03 9.586229999999999751e-02 2.806181349969723460e+00
0.000000000000000000e+00 1.697280000000000121e-04 3.319146717489974030e+00
3.125000000000000173e-03 3.823360000000000040e-03 4.434062379345153460e+00
0.000000000000000000e+00 8.165040000000000145e-04 1.561401223383998449e+00
0.000000000000000000e+00 1.017220000000000103e-03 3.275790544299458595e+00
0.000000000000000000e+00 9.126400000000000441e-04 1.462008855161409659e+00
6.250000000000000347e-03 1.433859999999999909e-03 1.775353035269491730e+00
9.374999999999999653e-03 1.087040000000000055e-03 2.251968818210197565e+00
0.000000000000000000e+00 3.197789999999999834e-03 2.520230512235237974e+00
5.625000000000000139e-02 9.220159999999999467e-02 4.389500218929860864e+00
0.000000000000000000e+00 2.293939999999999928e-05 9.964409870360774191e-01
2.500000000000000139e-02 1.068140000000000062e-01 4.204868421608970230e+00
0.000000000000000000e+00 8.301439999999999991e-04 3.304848204335355533e+00
0.000000000000000000e+00 9.374080000000000346e-04 1.194152751306115645e+00
0.000000000000000000e+00 1.861570000000000108e-03 1.225636350015801845e+00
2.812500000000000069e-02 9.288449999999999485e-02 2.393205532241981182e+00
9.374999999999999653e-03 1.653310000000000066e-03 4.969497126036158008e+00
0.000000000000000000e+00 7.418620000000000336e-04 2.930542000344376508e+00
1.250000000000000069e-02 3.873150000000000117e-03 2.162548779545086397e+00
3.125000000000000173e-03 9.846590000000000550e-03 2.560372008806903743e+00
0.000000000000000000e+00 4.106300000000000228e-03 4.495412599467232262e+00
1.562500000000000000e-02 2.503099999999999856e-03 2.311002533965455186e+00
0.000000000000000000e+00 9.906559999999999151e-04 3.467669320200384320e+00
3.125000000000000173e-03 4.915199999999999778e-03 1.017473799935099787e+00
0.000000000000000000e+00 8.801279999999999867e-04 3.765542873593186179e+00
0.000000000000000000e+00 4.399939999999999754e-03 2.333626973869043386e+00
6.250000000000000347e-03 8.071810000000000443e-03 7.093263571248026311e-01
0.000000000000000000e+00 6.853039999999999696e-04 3.308329755666946426e+00
0.000000000000000000e+00 4.454849999999999782e-03 1.780469321666898086e+00
2.187499999999999861e-02 2.120819999999999927e-01 9.147170292775885780e-01
6.250000000000000347e-03 2.252029999999999917e-03 2.089018137167355960e+00
0.000000000000000000e+00 6.052120000000000459e-04 3.382699290094111966e+00
0.000000000000000000e+00 5.557570000000000392e-03 2.759853910328273319e+00
0.000000000000000000e+00 8.538239999999999892e-04 1.016555051491785377e-02
2.812500000000000069e-02 2.784829999999999858e-03 1.937673506356365039e+00
0.000000000000000000e+00 1.790080000000000100e-03 4.222836908658921473e+00
8.125000000000000278e-02 3.914290000000000130e-02 2.826339273405775288e+00
0.000000000000000000e+00 8.248399999999999699e-04 2.918173654349987878e+00
0.000000000000000000e+00 4.753280000000000135e-04 3.287417750828047769e+00
9.374999999999999653e-03 1.509890000000000060e-03 4.799645661386875428e-01
0.000000000000000000e+00 1.145659999999999951e-03 2.729882542641337118e+00
0.000000000000000000e+00 3.960319999999999921e-04 6.692629151625201223e-01
1.562500000000000000e-02 4.800190000000000186e-03 1.395564574247650791e+00
3.437500000000000278e-02 9.286880000000000135e-02 3.055733648701676852e+00
0.000000000000000000e+00 2.274250000000000121e-05 8.052439018320256547e-02
3.125000000000000173e-03 1.066140000000000004e-01 3.175906259235512508e+00
6.250000000000000347e-03 9.461439999999999781e-03 1.780458889758419483e+00
3.125000000000000173e-03 5.011459999999999700e-03 3.675481297542856574e+00
0.000000000000000000e+00 8.984960000000000386e-04 2.430131979302649459e+00
0.000000000000000000e+00 6.415279999999999594e-02 2.868950891607862541e+00
0.000000000000000000e+00 2.591870000000000025e-03 8.047318755667443035e-02
1.874999999999999931e-02 1.490690000000000027e-03 2.712682975807707564e+00
0.000000000000000000e+00 3.967999999999999956e-04 4.654803435944662837e+00
0.000000000000000000e+00 4.462780000000000392e-03 8.649992790190796921e-01
1.874999999999999931e-02 3.533249999999999932e-03 1.893150971026277940e+00
2.812500000000000069e-02 3.194049999999999927e-03 4.382883433805059070e+00
0.000000000000000000e+00 7.320319999999999735e-04 1.166449222758416226e+00
0.000000000000000000e+00 1.047629999999999950e-01 1.371830379564345392e+00
1.062499999999999972e-01 8.085749999999999882e-02 5.866895312270420382e-01
0.000000000000000000e+00 7.035789999999999666e-04 1.859295541496774895e-01
0.000000000000000000e+00 4.035049999999999748e-02 3.315402328832226075e+00
1.562500000000000000e-02 2.396029999999999948e-03 1.055069828106960816e+00
5.625000000000000139e-02 9.308929999999999982e-03 2.802863455573971763e+00
0.000000000000000000e+00 5.398039999999999566e-04 2.565714620025360659e+00
2.500000000000000139e-02 2.160899999999999887e-03 1.707969864874488319e+00
0.000000000000000000e+00 9.219200000000000094e-04 9.083875354474768571e-01
1.562500000000000000e-02 3.298880000000000128e-03 2.542203769540628322e+00
2.187499999999999861e-02 2.201020000000000146e-03 4.039328357424358806e+00
0.000000000000000000e+00 2.554799999999999866e-03 1.250595606310235919e+00
0.000000000000000000e+00 2.348990000000000019e-03 3.132394418093138455e+00
6.250000000000000347e-03 1.002289999999999952e-02 1.187664234370962468e+00
0.000000000000000000e+00 5.262270000000000315e-03 3.878350103266814841e+00
6.250000000000000347e-03 9.595529999999999338e-02 2.994519415883596380e+00
4.374999999999999722e-02 3.055619999999999864e-02 5.466993790502178152e-01
0.000000000000000000e+00 1.641600000000000004e-04 3.046333662425395605e+00
1.250000000000000069e-02 2.084610000000000195e-03 2.800410493312619931e+00
3.125000000000000000e-02 2.590630000000000016e-02 4.435273259548873526e+00
0.000000000000000000e+00 1.248699999999999940e-03 4.707175557664690757e+00
6.250000000000000347e-03 1.056260000000000055e-03 4.656834760276952423e+00
0.000000000000000000e+00 5.427200000000000080e-04 2.819190011665306361e+00
3.125000000000000173e-03 9.900860000000000216e-02 4.174446724525543440e-01
0.000000000000000000e+00 2.849089999999999869e-03 5.119889245705133707e-01
0.000000000000000000e+00 1.114240000000000065e-03 4.174209877742319108e+00
0.000000000000000000e+00 2.274560000000000123e-04 3.631248456840897809e+00
3.125000000000000173e-03 1.043779999999999986e-01 3.469683134947788794e+00
3.125000000000000173e-03 9.839040000000000286e-03 3.874928750533828570e+00
0.000000000000000000e+00 6.468540000000000054e-03 7.891287041237093902e-02
1.562500000000000000e-02 1.748860000000000085e-03 3.534454647259350768e+00
0.000000000000000000e+00 5.394840000000000139e-04 4.833150717469690605e+00
0.000000000000000000e+00 3.811609999999999998e-02 2.185481283055157320e-01
2.187499999999999861e-02 1.565760000000000025e-03 2.867641235637791164e-01
0.000000000000000000e+00 1.000379999999999932e-03 2.729811353661238726e+00
6.250000000000000347e-03 2.075329999999999796e-03 3.864538799970701710e+00
0.000000000000000000e+00 8.988800000000000132e-04 2.257190806752771284e+00
3.125000000000000173e-03 9.745199999999999696e-02 4.869231636694884457e+00
0.000000000000000000e+00 4.551999999999999623e-03 4.481725855393699831e+00
0.000000000000000000e+00 1.332349999999999941e-03 4.622526009181124884e+00
0.000000000000000000e+00 6.393179999999999696e-02 3.949586407468071769e+00
0.000000000000000000e+00 2.286069999999999951e-05 8.227356641630212408e-03
0.000000000000000000e+00 9.011200000000000460e-04 2.143604204152910864e+00
0.000000000000000000e+00 8.187519999999999564e-04 1.128203665564642133e+00
0.000000000000000000e+00 1.396799999999999908e-03 2.686425518036485549e+00
1.562500000000000000e-02 2.183099999999999884e-03 5.405507129425102253e-01
0.000000000000000000e+00 3.562239999999999829e-04 1.182368333763322177e+00
1.250000000000000069e-02 2.412220000000000076e-03 2.206107173093053930e+00
6.250000000000000347e-03 9.736939999999999484e-02 4.917762031868123884e+00
3.125000000000000173e-03 2.432899999999999993e-03 4.484130559880256328e+00
0.000000000000000000e+00 1.479420000000000041e-02 2.026946362940085233e-01
0.000000000000000000e+00 3.886079999999999765e-04 6.814654800826280834e-01
2.187499999999999861e-02 2.777539999999999783e-03 2.309814966404748038e+00
0.000000000000000000e+00 6.026879999999999868e-04 1.770963304056741183e+00
0.000000000000000000e+00 2.488830000000000035e-03 4.790967974881533031e+00
0.000000000000000000e+00 5.504000000000000429e-04 2.081403856205544134e+00
0.000000000000000000e+00 1.088189999999999947e-03 2.175703143526328986e+00
3.437500000000000278e-02 3.803920000000000218e-02 9.639567040241070472e-01
6.250000000000000347e-03 9.651869999999999894e-02 4.316505122097602509e+00
0.000000000000000000e+00 9.881600000000000800e-04 3.525847575129358979e+00
0.000000000000000000e+00 1.175620000000000050e-03 1.760635142748532722e+00
6.250000000000000347e-03 1.487349999999999957e-02 3.489259583075140725e+00
3.125000000000000173e-03 1.732339999999999965e-03 4.106578291229603828e+00
0.000000000000000000e+00 2.051059999999999976e-05 1.853016224517102239e+00
0.000000000000000000e+00 5.005700000000000080e-03 2.602930226217869958e+00
6.250000000000000347e-03 1.946559999999999957e-03 4.836157022997588761e+00
0.000000000000000000e+00 1.943679999999999930e-04 2.679146392493693796e+00
3.125000000000000173e-03 2.786419999999999956e-03 2.546642215248126284e+00
0.000000000000000000e+00 4.543899999999999914e-04 3.161713688402576938e+00
9.374999999999999653e-03 9.607400000000000662e-02 9.991862275156720985e-01
0.000000000000000000e+00 3.724159999999999797e-04 3.997525766398753788e+00
0.000000000000000000e+00 4.197620000000000105e-04 1.935055484333265685e+00
9.374999999999999653e-03 3.261570000000000094e-03 2.816389412830818006e+00
0.000000000000000000e+00 3.868799999999999822e-04 4.361819986315228270e+00
0.000000000000000000e+00 1.224830000000000103e-03 3.916077083251682467e+00
2.500000000000000139e-02 2.220929999999999866e-03 3.723865291886191420e-01
1.562500000000000000e-02 2.067649999999999870e-03 1.894774246395381390e+00
3.125000000000000173e-03 5.276860000000000404e-03 1.483022913651621533e+00
0.000000000000000000e+00 9.186560000000000082e-04 3.769015935037627774e+00
0.000000000000000000e+00 2.307790000000000142e-05 3.586868990792923206e+00
6.250000000000000347e-03 4.769589999999999941e-02 3.313780963203534657e+00
3.125000000000000173e-03 1.726850000000000043e-03 3.714653814535873178e+00
5.937499999999999722e-02 9.221379999999999855e-02 1.892481023991420264e+00
1.562500000000000000e-02 2.461819999999999981e-03 4.819545127859194977e+00
0.000000000000000000e+00 5.084100000000000251e-03 3.192662838504243261e+00
0.000000000000000000e+00 4.979949999999999915e-04 5.937406400006434160e-01
1.250000000000000069e-02 2.193339999999999786e-03 2.513343157387028626e+00
3.125000000000000173e-03 8.388610000000000511e-02 1.627136062201834488e+00
5.000000000000000278e-02 9.422519999999999507e-02 2.748999773064814800e+00
0.000000000000000000e+00 5.682559999999999478e-04 1.154503288047598719e+00
0.000000000000000000e+00 4.620479999999999726e-03 3.460645562924939966e+00
0.000000000000000000e+00 1.704959999999999885e-04 1.025128669400465320e+00
0.000000000000000000e+00 3.971790000000000043e-02 3.401266301994429142e+00
0.000000000000000000e+00 2.102779999999999840e-03 2.286412049516252765e+00
6.250000000000000347e-03 9.761039999999999994e-02 4.462046148389823941e+00
1.562500000000000000e-02 2.483009999999999905e-03 2.642687996340058909e+00
0.000000000000000000e+00 8.256640000000000420e-04 8.310643386086374873e-01
1.874999999999999931e-02 2.186879999999999987e-03 2.481511208287261461e+00
0.000000000000000000e+00 1.732859999999999913e-03 1.504330894000710517e-01
0.000000000000000000e+00 4.953280000000000009e-03 1.932695153384458742e+00
0.000000000000000000e+00 1.687490000000000040e-03 2.694060837696372612e+00
0.000000000000000000e+00 4.506109999999999803e-03 2.167734675837046154e+00
0.000000000000000000e+00 4.382399999999999837e-03 3.904336164733643866e+00
3.125000000000000173e-03 3.429080000000000149e-03 5.385707386803600949e-01
0.000000000000000000e+00 4.328320000000000084e-03 3.459381400908099646e+00
0.000000000000000000e+00 1.072559999999999963e-03 1.546418301276522467e+00
0.000000000000000000e+00 9.584640000000000173e-04 8.264694037288328188e-01
0.000000000000000000e+00 2.301000000000000162e-05 5.156824042847990563e-01
1.874999999999999931e-02 1.048459999999999948e-01 1.868580354061421644e+00
0.000000000000000000e+00 0.000000000000000000e+00 9.253958836956233114e-01
0.000000000000000000e+00 4.444290000000000046e-03 5.847426064062422046e-01
0.000000000000000000e+00 3.892480000000000245e-04 3.872440633556983869e-01
1.874999999999999931e-02 9.577479999999999327e-02 1.637706681861798685e+00
2.500000000000000139e-02 3.826809999999999934e-02 1.148116265770721123e+00
9.374999999999999653e-03 1.902140000000000081e-03 3.302358761543123578e+00
0.000000000000000000e+00 5.039579999999999884e-04 2.480040655570617147e+00
0.000000000000000000e+00 1.847680000000000036e-04 8.909857243534036186e-01
0.000000000000000000e+00 1.753919999999999958e-03 4.570617391820534614e+00
2.500000000000000139e-02 3.189379999999999906e-03 3.126891158387313130e+00
3.125000000000000173e-03 1.773950000000000049e-03 2.016589637078480823e-01
9.374999999999999653e-03 1.690239999999999972e-03 2.570995180488644394e+00
0.000000000000000000e+00 7.027199999999999940e-04 4.019032233316327529e-01
3.125000000000000173e-03 1.020410000000000067e-02 1.782240742891800789e+00
1.250000000000000069e-02 1.200829999999999953e-03 1.205353936457647546e+00
0.000000000000000000e+00 8.501760000000000133e-04 3.938748996838606242e+00
0.000000000000000000e+00 7.305120000000000016e-04 3.222579828049383810e+00
3.125000000000000173e-03 2.062999999999999903e-02 2.418252814351443014e+00
9.374999999999999653e-03 1.362930000000000044e-02 3.908074139570729688e+00
0.000000000000000000e+00 3.726719999999999989e-04 3.329969668200466471e-01
0.000000000000000000e+00 2.838399999999999929e-04 2.405994227274732111e+00
9.374999999999999653e-03 2.253250000000000045e-03 2.990755709989442401e+00
0.000000000000000000e+00 9.815679999999999371e-04 1.477024125817891331e+00
0.000000000000000000e+00 4.356160000000000414e-03 3.084728610694509321e-01
6.250000000000000347e-03 3.628929999999999829e-03 1.135472248252785032e+00
0.000000000000000000e+00 2.520959999999999933e-04 2.371609061690480580e+00
1.874999999999999931e-02 2.330819999999999940e-03 3.356842521513090372e+00
0.000000000000000000e+00 1.065219999999999969e-03 3.156012989143814895e+00
0.000000000000000000e+00 9.676670000000000063e-03 9.848923096390926890e-01
0.000000000000000000e+00 1.001219999999999931e-03 3.044498054541971310e+00
0.000000000000000000e+00 1.771329999999999997e-03 3.886039973390034596e+00
9.374999999999999653e-03 3.713520000000000015e-02 2.666513323239422251e-01
0.000000000000000000e+00 3.491220000000000174e-03 4.098338596178765947e+00
0.000000000000000000e+00 1.013699999999999974e-03 4.187447091116675679e+00
0.000000000000000000e+00 6.115839999999999775e-04 3.146869616943339221e+00
0.000000000000000000e+00 1.479729999999999934e-02 3.253728594853116940e-01
2.812500000000000069e-02 2.433789999999999912e-03 4.359981302130498726e+00
3.437500000000000278e-02 4.057560000000000333e-02 2.272909853435860050e+00
5.000000000000000278e-02 8.460030000000000328e-03 4.883394986552195505e+00
0.000000000000000000e+00 1.121280000000000106e-03 1.407072577431778271e-02
1.093750000000000000e-01 8.093949999999999756e-02 1.931912223893934577e+00
9.374999999999999653e-03 1.685499999999999932e-03 2.076927915927622159e+00
0.000000000000000000e+00 3.585920000000000253e-04 6.451727271735718805e-01
1.250000000000000069e-02 2.665920000000000008e-03 4.514516214714523912e+00
1.562500000000000000e-02 1.715329999999999936e-03 3.534764220224384967e+00
3.125000000000000173e-03 9.954999999999999960e-02 5.825667208221413373e-01
0.000000000000000000e+00 4.922619999999999947e-03 1.723360075436827232e+00
9.374999999999999653e-03 1.201960000000000008e-02 3.580140467382078917e+00
6.250000000000000347e-03 1.638399999999999926e-02 2.858919531531510128e+00
0.000000000000000000e+00 5.105280000000000235e-03 3.364939636209100637e+00
0.000000000000000000e+00 5.407020000000000012e-04 4.720653749912026242e+00
0.000000000000000000e+00 7.905979999999999952e-04 2.765764478175116281e+00
2.187499999999999861e-02 2.429950000000000165e-03 4.833366130633473645e+00
0.000000000000000000e+00 7.559700000000000144e-04 1.652046556446603587e+00
1.250000000000000069e-02 9.835240000000000649e-02 8.787402443297115395e-01
0.000000000000000000e+00 0.000000000000000000e+00 2.135178838082433472e+00
1.874999999999999931e-02 2.107840000000000148e-03 8.610182769917429368e-02
0.000000000000000000e+00 4.351940000000000322e-03 1.437891507556244841e+00
0.000000000000000000e+00 4.720320000000000071e-03 2.644319790852423413e+00
3.125000000000000173e-03 1.638209999999999970e-03 2.136443240630232943e+00
0.000000000000000000e+00 1.123520000000000031e-03 4.442223373844706558e+00
0.000000000000000000e+00 9.353270000000000117e-04 1.626241346319537984e+00
0.000000000000000000e+00 6.778650000000000430e-04 2.691863153754991966e-01
0.000000000000000000e+00 1.058499999999999979e-03 9.493611238912147421e-01
0.000000000000000000e+00 4.926400000000000050e-03 4.751359274112703979e+00
0.000000000000000000e+00 1.508540000000000054e-03 4.343765852142874806e+00
0.000000000000000000e+00 5.390720000000000321e-04 4.384462845536233999e+00
1.250000000000000069e-02 2.217980000000000038e-03 7.256287566632652064e-01
1.250000000000000069e-02 1.818500000000000021e-03 4.077391828153656306e+00
6.250000000000000347e-03 1.000130000000000047e-01 2.789122875243400301e+00
0.000000000000000000e+00 5.845120000000000307e-04 3.443755061009621699e+00
2.187499999999999861e-02 2.816509999999999847e-02 1.011745308141825284e+00
0.000000000000000000e+00 1.001219999999999931e-03 9.814051407349400069e-01
9.374999999999999653e-03 1.741179999999999941e-03 4.281156167312534677e+00
0.000000000000000000e+00 4.106560000000000201e-04 3.833075478748112275e+00
3.125000000000000173e-03 9.698160000000000114e-02 2.981003221409351589e+00
2.187499999999999861e-02 2.698240000000000187e-03 3.561992423936770180e+00
0.000000000000000000e+00 5.309630000000000079e-03 5.871330920417167087e-01
0.000000000000000000e+00 4.391410000000000105e-03 2.004679725481116392e+00
2.500000000000000139e-02 3.929860000000000297e-03 2.475019686810986386e-01
0.000000000000000000e+00 2.566399999999999823e-04 4.118578922984561963e+00
0.000000000000000000e+00 7.373090000000000113e-04 4.703109591369425857e+00
0.000000000000000000e+00 4.627710000000000157e-03 2.956760629556413278e+00
6.250000000000000347e-03 2.728770000000000154e-03 2.435922941341045478e-01
2.812500000000000069e-02 2.883650000000000189e-03 2.102044115779314382e+00
1.562500000000000000e-02 2.695170000000000204e-03 2.127370242846176041e+00
2.812500000000000069e-02 3.083719999999999864e-02 4.118709545482032830e+00
0.000000000000000000e+00 7.014690000000000291e-04 1.354317066634154187e+00
0.000000000000000000e+00 5.256320000000000523e-04 1.624541605674854061e+00
6.250000000000000000e-02 4.048079999999999734e-02 4.344279078469693189e+00
2.187499999999999861e-02 2.514250000000000165e-02 2.872901062702001518e+00
6.250000000000000347e-03 7.086460000000000155e-03 4.181686521509677235e+00
1.874999999999999931e-02 2.803139999999999972e-03 2.439280652595669618e+00
0.000000000000000000e+00 3.405179999999999839e-03 2.674356082117842703e+00
1.562500000000000000e-02 9.293999999999999484e-02 2.201341502817460327e+00
5.937499999999999722e-02 3.867369999999999836e-02 3.096281269232299849e+00
0.000000000000000000e+00 2.594559999999999770e-04 2.584581247639232693e+00
0.000000000000000000e+00 1.192769999999999898e-03 2.178819157734768197e-01
0.000000000000000000e+00 1.950020000000000009e-03 3.446302636353570925e+00
0.000000000000000000e+00 1.519509999999999958e-03 4.281371343615774094e+00
0.000000000000000000e+00 8.855020000000000339e-04 7.551974109580128491e-01
3.125000000000000000e-02 9.211260000000000281e-02 3.015977264571533034e+00
1.250000000000000069e-02 4.138619999999999972e-03 2.573414947412336673e+00
3.125000000000000173e-03 2.006400000000000197e-03 2.729415842575378282e+00
0.000000000000000000e+00 4.137990000000000136e-04 3.769052902630924962e+00
3.125000000000000000e-02 6.189059999999999701e-02 1.511418018524728790e+00
6.250000000000000347e-03 1.739709999999999998e-03 2.845385923362584446e+00
0.000000000000000000e+00 5.646079999999999719e-04 3.839942030677895524e+00
9.374999999999999653e-03 1.051509999999999945e-01 3.381778419715420370e+00
1.562500000000000000e-02 1.543679999999999965e-03 8.214684838951580304e-01
1.156250000000000056e-01 3.594560000000000116e-02 5.055973172217897993e-02
1.250000000000000069e-02 1.217409999999999933e-03 1.577714559766546509e-01
0.000000000000000000e+00 5.759420000000000338e-03 2.413231963019111248e+00
0.000000000000000000e+00 4.906240000000000514e-04 1.404579773835157308e+00
1.250000000000000069e-02 2.151679999999999999e-03 3.585003096137342471e+00
9.374999999999999653e-03 1.938110000000000050e-03 1.914649190449148719e+00
2.812500000000000069e-02 3.071620000000000166e-03 4.605760321070882846e+00
1.562500000000000000e-02 2.230400000000000004e-03 1.937991181322447520e+00
3.749999999999999861e-02 8.356419999999999820e-03 1.281399629279910801e+00
1.562500000000000000e-02 3.594329999999999747e-02 1.145173426142572781e+00
1.250000000000000069e-02 2.302460000000000097e-03 9.303794017908662006e-01
1.874999999999999931e-02 9.255829999999999613e-02 4.542098824317219119e+00
0.000000000000000000e+00 3.515980000000000038e-04 2.540845558687215622e+00
0.000000000000000000e+00 2.545860000000000050e-03 4.930907603794913108e+00
0.000000000000000000e+00 4.319299999999999876e-03 6.994432354295604393e-01
0.000000000000000000e+00 2.385599999999999873e-03 4.404576632821278537e+00
0.000000000000000000e+00 4.344770000000000403e-03 1.077290643172026829e+00
7.187499999999999445e-02 4.282969999999999833e-02 3.025864777578207487e+00
6.250000000000000000e-02 3.077440000000000037e-02 8.686431073999806296e-01
0.000000000000000000e+00 6.731899999999999863e-03 2.402586561633863305e+00
0.000000000000000000e+00 4.650340000000000203e-04 1.694514981423238531e+00
1.874999999999999931e-02 2.897090000000000169e-03 1.140514569845796355e-01
0.000000000000000000e+00 9.877760000000001053e-04 2.263167536715279482e+00
0.000000000000000000e+00 2.711680000000000167e-04 4.029229800347779111e+00
0.000000000000000000e+00 4.310210000000000083e-03 3.814744343667953341e+00
5.000000000000000278e-02 9.744210000000000371e-02 3.798601133256367834e+00
6.250000000000000347e-03 6.710889999999999911e-02 4.852178147708846367e+00
0.000000000000000000e+00 2.266370000000000190e-03 2.219726421515451076e+00
0.000000000000000000e+00 2.043779999999999816e-03 1.436859360680098785e+00
3.125000000000000173e-03 3.063300000000000137e-03 4.576860984756031314e+00
5.000000000000000278e-02 9.498239999999999461e-02 3.347299405684842188e+00
3.125000000000000000e-02 4.121430000000000232e-02 9.220760129732274990e-03
0.000000000000000000e+00 7.354500000000000143e-04 4.431163703792744712e+00
2.812500000000000069e-02 4.520389999999999825e-02 2.046969788698314474e+00
0.000000000000000000e+00 5.077120000000000070e-04 4.366918022478558647e+00
0.000000000000000000e+00 2.370559999999999855e-03 2.220685534444104103e+00
0.000000000000000000e+00 8.481279999999999679e-04 3.118235360000707779e+00
6.250000000000000347e-03 4.222730000000000233e-02 9.199487793578525752e-01
9.374999999999999653e-03 2.902660000000000049e-03 3.858247957592970678e+00
0.000000000000000000e+00 9.532800000000000345e-04 1.696007131363441722e+00
3.125000000000000000e-02 9.163029999999999786e-02 4.948405085208777088e+00
5.937499999999999722e-02 9.222669999999999479e-02 2.854695171755847749e+00
0.000000000000000000e+00 5.369829999999999916e-04 8.599669416499144958e-03
0.000000000000000000e+00 1.180030000000000098e-03 4.122467612863648156e+00
0.000000000000000000e+00 7.307680000000000209e-04 2.150616617495479499e+00
3.437500000000000278e-02 3.853680000000000300e-02 1.908368002515083539e+00
1.874999999999999931e-02 1.316830000000000084e-02 3.789758642909288877e+00
0.000000000000000000e+00 2.257449999999999876e-05 4.131469855813245218e+00
3.125000000000000173e-03 2.270020000000000197e-03 2.877191044001955689e+00
0.000000000000000000e+00 4.790780000000000234e-04 2.939250914464404563e+00
0.000000000000000000e+00 5.674470000000000035e-04 2.066777368406288673e+00
0.000000000000000000e+00 6.548440000000000207e-04 3.313330118609957076e+00
0.000000000000000000e+00 2.158320000000000030e-03 7.517640678495962625e-01
0.000000000000000000e+00 4.387969999999999718e-03 1.744728401285455810e+00
0.000000000000000000e+00 3.793630000000000201e-04 4.016275049116413420e+00
2.500000000000000139e-02 2.279869999999999813e-03 2.506757025793643345e-01
0.000000000000000000e+00 1.767099999999999964e-03 2.200755418345382353e+00
0.000000000000000000e+00 1.623169999999999951e-03 3.512983714124466861e+00
0.000000000000000000e+00 4.618879999999999796e-04 1.732078247909598634e+00
3.125000000000000000e-02 2.037310000000000076e-03 3.968520142575985510e+00
0.000000000000000000e+00 3.640960000000000051e-04 3.854084207588760691e+00
0.000000000000000000e+00 3.951359999999999790e-04 4.884590142468343110e+00
2.812500000000000069e-02 2.171259999999999944e-03 2.514595895999883091e+00
0.000000000000000000e+00 2.232190000000000216e-03 1.621492170431777957e+00
0.000000000000000000e+00 9.149440000000000003e-04 3.112148311681063539e+00
1.250000000000000069e-02 4.601860000000000152e-03 2.351933569392900658e+00
0.000000000000000000e+00 2.310079999999999946e-03 4.097987902382902448e+00
0.000000000000000000e+00 4.719489999999999796e-03 6.490510793127601818e-01
5.000000000000000278e-02 9.205480000000000607e-02 1.161325412703837046e+00
1.874999999999999931e-02 1.062799999999999995e-01 2.026220996897273974e+00
0.000000000000000000e+00 1.994879999999999982e-04 8.861771661563000446e-01
2.500000000000000139e-02 3.165630000000000006e-03 3.288155722785115032e+00
0.000000000000000000e+00 8.874900000000000020e-04 4.752172807749790451e+00
5.937499999999999722e-02 4.107070000000000165e-02 4.317529093414080421e+00
0.000000000000000000e+00 1.539839999999999948e-04 1.924294042656171655e+00
3.125000000000000000e-02 9.454590000000000563e-03 4.139122536120400042e+00
0.000000000000000000e+00 7.266640000000000208e-04 1.453905749627512067e+00
0.000000000000000000e+00 1.016250000000000009e-03 4.818855081625148529e+00
3.125000000000000173e-03 1.178359999999999998e-02 4.779851707782560410e+00
0.000000000000000000e+00 1.053179999999999915e-03 4.158086605675744174e+00
1.562500000000000000e-02 2.206210000000000115e-03 2.707318170312570160e+00
2.187499999999999861e-02 1.749759999999999944e-03 1.535216647500227127e+00
0.000000000000000000e+00 1.206019999999999922e-03 4.288575554981431281e+00
3.125000000000000173e-03 1.922600000000000003e-03 3.446175061777135173e+00
1.250000000000000069e-02 1.406659999999999898e-03 4.477706008152584793e+00
2.500000000000000139e-02 1.359229999999999900e-03 3.408692077659008390e+00
0.000000000000000000e+00 4.446079999999999824e-03 3.964478057042423842e+00
0.000000000000000000e+00 1.310079999999999925e-03 9.271238012325933031e-02
6.250000000000000347e-03 2.515390000000000160e-03 8.945096302735822125e-02
3.125000000000000173e-03 9.335880000000000567e-02 9.931845967876601344e-01
0.000000000000000000e+00 9.367300000000000279e-03 1.650583745240519207e+00
1.562500000000000000e-02 2.155199999999999911e-03 3.174974351567448672e+00
3.125000000000000173e-03 1.008679999999999993e-02 4.933659257014539889e+00
2.812500000000000069e-02 1.026430000000000051e-03 3.732623888802995893e+00
2.500000000000000139e-02 1.638020000000000014e-03 3.572287732294656237e+00
2.187499999999999861e-02 2.776639999999999924e-03 2.449513501384884329e+00
0.000000000000000000e+00 1.000900000000000097e-03 2.384624880897745491e+00
9.374999999999999653e-03 7.542399999999999886e-04 4.988713853778893537e+00
0.000000000000000000e+00 4.234169999999999883e-04 3.867620750739482194e+00
6.250000000000000347e-03 2.502020000000000199e-03 4.025897915827937545e+00
6.250000000000000347e-03 9.595770000000000688e-02 6.327472229847386220e-01
0.000000000000000000e+00 7.436580000000000143e-04 3.646552075125423009e+00
3.125000000000000173e-03 9.356480000000000352e-03 1.052070869374430284e+00
6.250000000000000347e-03 1.220970000000000041e-02 8.552536826287721050e-01
0.000000000000000000e+00 4.930559999999999631e-04 2.355238311547977581e+00
0.000000000000000000e+00 4.588740000000000006e-03 3.130299935072606399e+00
0.000000000000000000e+00 2.297009999999999883e-05 2.831888475101200342e+00
3.125000000000000173e-03 2.091459999999999847e-03 2.461280178738541657e+00
0.000000000000000000e+00 1.820459999999999846e-05 4.379244359758630800e+00
0.000000000000000000e+00 2.206509999999999987e-05 4.989352219084218554e+00
1.250000000000000069e-02 1.204290000000000005e-03 2.934889473310900332e+00
0.000000000000000000e+00 6.282770000000000021e-02 3.924675228508028857e-01
2.187499999999999861e-02 2.130990000000000106e-01 4.005367944179169193e+00
0.000000000000000000e+00 1.959489999999999930e-03 2.681964599782918235e+00
0.000000000000000000e+00 1.066139999999999926e-03 2.310936090719653002e+00
9.374999999999999653e-03 1.883970000000000002e-03 1.410564809955024312e+00
0.000000000000000000e+00 1.508870000000000003e-02 1.437793498561050320e+00
4.062500000000000139e-02 1.070949999999999958e-01 4.530644539130862292e+00
1.562500000000000000e-02 2.304449999999999988e-03 7.102159767036159144e-01
9.374999999999999653e-03 1.700990000000000097e-03 3.408453847734757680e+00
9.375000000000000000e-02 8.132129999999999914e-02 3.383643147773121918e+00
5.312499999999999861e-02 8.839939999999999257e-03 3.872202085499160340e+00
2.812500000000000069e-02 2.322499999999999912e-03 4.662811701504994133e+00
9.374999999999999653e-03 1.443310000000000079e-02 3.530107246893781525e+00
1.250000000000000069e-02 2.514820000000000076e-03 4.369632739971477164e+00
0.000000000000000000e+00 9.455880000000000275e-04 4.629738920408242642e+00
1.000000000000000056e-01 9.268360000000000487e-02 2.105453784733107625e+00
0.000000000000000000e+00 4.150809999999999786e-04 3.718529480715002222e+00
6.250000000000000347e-03 1.888380000000000050e-03 8.660285576130827279e-01
0.000000000000000000e+00 9.018029999999999796e-03 2.014208715320633836e+00
0.000000000000000000e+00 2.011179999999999912e-02 6.599453525720327951e-01
2.187499999999999861e-02 2.553730000000000149e-03 2.178160258145378503e+00
0.000000000000000000e+00 9.555199999999999588e-04 4.106273898005895262e+00
0.000000000000000000e+00 4.589570000000000281e-03 1.076392303744071910e+00
0.000000000000000000e+00 2.410589999999999955e-02 3.028278444556233406e+00
0.000000000000000000e+00 1.126400000000000057e-03 4.151924284210722682e+00
0.000000000000000000e+00 1.022780000000000043e-03 4.250173807201695908e-01
0.000000000000000000e+00 5.017790000000000271e-03 8.530478574173394613e-01
0.000000000000000000e+00 4.339839999999999974e-04 2.116302438295136756e+00
0.000000000000000000e+00 3.035040000000000134e-04 4.790220796224372357e+00
0.000000000000000000e+00 3.394560000000000242e-04 4.084789862088207713e+00
6.250000000000000347e-03 2.556609999999999959e-03 4.856316999846467475e+00
0.000000000000000000e+00 9.848319999999999384e-04 3.468018507178684651e+00
0.000000000000000000e+00 1.648259999999999916e-03 3.305906454628815272e+00
9.374999999999999653e-03 9.879419999999999868e-03 3.897306893281324847e+00
0.000000000000000000e+00 1.119299999999999939e-03 3.039674234205327785e+00
1.874999999999999931e-02 2.140990000000000167e-03 4.942850459643388206e+00
0.000000000000000000e+00 1.215230000000000086e-03 4.827750431024594668e+00
0.000000000000000000e+00 3.749760000000000094e-04 2.955846999713126699e+00
0.000000000000000000e+00 9.219200000000000094e-04 3.349244763823862048e+00
3.125000000000000173e-03 1.010559999999999931e-02 2.429117837091704368e-01
3.125000000000000173e-03 1.305340000000000103e-03 2.568851494029280591e+00
0.000000000000000000e+00 2.290519999999999883e-05 4.974297087030205233e+00
0.000000000000000000e+00 9.996160000000000462e-04 1.987352685203884750e+00
0.000000000000000000e+00 8.856960000000000527e-04 9.870995119559533570e-01
0.000000000000000000e+00 9.173760000000000204e-04 2.805394510127707353e+00
0.000000000000000000e+00 9.831040000000000525e-04 4.154225884959135584e+00
0.000000000000000000e+00 7.101850000000000046e-04 3.403820787378435408e+00
3.125000000000000173e-03 1.638399999999999926e-03 1.472197780572626069e-01
0.000000000000000000e+00 1.226689999999999899e-03 3.309828417259947475e+00
0.000000000000000000e+00 6.612569999999999473e-04 2.169717268671024435e+00
0.000000000000000000e+00 4.414020000000000270e-03 6.237976435230030425e-01
0.000000000000000000e+00 8.100919999999999952e-04 2.733737449388458529e+00
2.500000000000000139e-02 2.583740000000000168e-03 2.467365420031240486e+00
0.000000000000000000e+00 4.355330000000000139e-03 4.833418675401478737e+00
2.500000000000000139e-02 2.113549999999999873e-01 3.663581861509970228e+00
3.125000000000000173e-03 5.903040000000000023e-03 4.024037472624874212e+00
0.000000000000000000e+00 4.912620000000000138e-04 1.537894605877547338e+00
2.500000000000000139e-02 1.922429999999999929e-03 1.990418105316712483e+00
3.125000000000000173e-03 9.153530000000000000e-02 6.977516757221746690e-01
0.000000000000000000e+00 9.786879999999999104e-04 3.412881647819369313e+00
0.000000000000000000e+00 1.915199999999999932e-03 4.728087699645834086e+00
3.125000000000000173e-03 1.716290000000000090e-03 1.792332734666675531e+00
1.562500000000000000e-02 2.661119999999999892e-03 1.754780880764387874e+00
0.000000000000000000e+00 2.223740000000000092e-03 1.573409355196327297e+00
0.000000000000000000e+00 5.338880000000000492e-04 4.293454238202674134e+00
0.000000000000000000e+00 2.567679999999999919e-04 3.968984672260065238e+00
0.000000000000000000e+00 4.340029999999999930e-03 2.689552158466886222e+00
0.000000000000000000e+00 2.429619999999999957e-05 3.829550335832896835e+00
3.437500000000000278e-02 9.304479999999999695e-02 1.285528742538783575e+00
0.000000000000000000e+00 6.035440000000000206e-04 2.532340682362572259e+00
0.000000000000000000e+00 8.286720000000000240e-04 1.940779557920320197e+00
0.000000000000000000e+00 2.486980000000000180e-03 2.765048486338681943e+00
0.000000000000000000e+00 3.895039999999999896e-04 2.485868757904049708e+00
2.500000000000000139e-02 1.748669999999999912e-03 8.014081510339171599e-01
0.000000000000000000e+00 2.016659999999999980e-02 1.267877807610699570e+00
0.000000000000000000e+00 2.288669999999999892e-05 1.830101096255944970e+00
6.250000000000000347e-03 1.701379999999999950e-03 3.213906777353958688e+00
0.000000000000000000e+00 1.407689999999999983e-02 1.042405475745037391e+00
0.000000000000000000e+00 2.175700000000000030e-03 3.380904351187025147e-01
3.437500000000000278e-02 9.518210000000000559e-02 4.514036656232035760e+00
6.250000000000000347e-03 9.919559999999999489e-02 9.888368591580792843e-01
0.000000000000000000e+00 0.000000000000000000e+00 1.037191617540290656e+00
1.156250000000000056e-01 9.325229999999999631e-02 2.300269955162846269e+00
0.000000000000000000e+00 7.751680000000000159e-04 3.306367990474267771e+00
0.000000000000000000e+00 7.444910000000000113e-04 1.545827527133312618e+00
0.000000000000000000e+00 2.293080000000000075e-05 2.655223748651903470e+00
0.000000000000000000e+00 1.849790000000000028e-03 3.361556396535983371e+00
0.000000000000000000e+00 1.325500000000000072e-03 4.573304674400709757e+00
