0.000000000000000000e+00 2.285500000000000056e-05 3.091326808168934459e+00
6.250000000000000347e-03 2.450499999999999987e-03 2.291797180651319987e+00
0.000000000000000000e+00 1.693440000000000104e-04 1.865617196985321913e+00
4.374999999999999722e-02 9.145770000000000288e-02 3.098827813113582241e+00
1.250000000000000069e-02 1.984740000000000115e-02 1.573094959752340261e+00
4.687500000000000000e-02 9.252669999999999298e-03 2.646599507936553852e+00
0.000000000000000000e+00 3.776319999999999785e-04 2.338368499260305100e+00
0.000000000000000000e+00 2.753529999999999910e-04 2.206224579393798457e+00
1.874999999999999931e-02 2.251650000000000006e-03 4.502719275548405786e-02
1.874999999999999931e-02 2.449859999999999885e-03 4.903034856955072129e+00
6.250000000000000347e-03 1.057400000000000007e-01 2.223534459386628193e+00
9.374999999999999653e-03 1.916670000000000092e-03 4.387732966380804456e+00
3.125000000000000173e-03 9.576809999999999837e-03 4.604751768751931706e+00
0.000000000000000000e+00 1.048190000000000059e-03 4.581224804108682491e+00
3.125000000000000173e-03 1.638399999999999926e-03 2.518949656496383138e+00
3.125000000000000173e-03 1.581820000000000058e-03 3.588982740642224556e+00
6.250000000000000347e-03 5.398209999999999641e-03 4.290917946071697742e+00
2.187499999999999861e-02 9.563409999999999966e-02 4.925322044359637275e+00
8.437500000000000555e-02 9.184530000000000471e-02 8.152366395877747030e-01
3.125000000000000173e-03 1.748030000000000026e-03 7.882858698159123101e-01
0.000000000000000000e+00 8.912739999999999508e-04 9.962797349569507688e-02
0.000000000000000000e+00 6.869759999999999495e-04 3.338113531446889493e+00
1.562500000000000000e-02 9.469800000000000439e-02 8.615101463019197991e-01
1.874999999999999931e-02 1.466429999999999904e-03 1.731749036422055577e+00
0.000000000000000000e+00 1.237180000000000051e-03 1.724530032221518905e+00
2.187499999999999861e-02 2.448510000000000096e-03 3.539591816781403111e+00
0.000000000000000000e+00 2.828039999999999981e-03 2.984349367107228534e+00
3.125000000000000000e-02 4.511870000000000290e-03 3.988197274544436066e-01
0.000000000000000000e+00 2.388780000000000070e-03 4.823133083365144458e+00
0.000000000000000000e+00 3.600629999999999846e-04 3.752973800690778683e-01
3.125000000000000173e-03 1.270839999999999990e-02 1.886255873654538728e+00
2.500000000000000139e-02 3.864830000000000088e-03 9.036927147013440464e-01
3.125000000000000173e-03 4.263300000000000249e-03 4.351170002259431513e+00
0.000000000000000000e+00 3.977040000000000262e-04 2.308235819821107704e+00
9.374999999999999653e-03 2.867070000000000209e-03 2.913078679710667807e+00
1.562500000000000000e-02 2.805440000000000191e-03 3.610419764991902980e+00
2.187499999999999861e-02 1.891260000000000076e-03 4.866600837919429878e+00
2.187499999999999861e-02 1.813380000000000070e-03 1.775677247301710615e+00
0.000000000000000000e+00 2.428669999999999961e-03 3.519540662299976752e+00
0.000000000000000000e+00 5.536000000000000122e-04 3.208435648162694109e-01
2.187499999999999861e-02 2.630079999999999918e-03 2.011017535432205960e+00
2.187499999999999861e-02 2.868859999999999986e-03 3.909900606453986516e+00
0.000000000000000000e+00 4.329080000000000233e-04 1.567011577150451140e-01
1.250000000000000069e-02 4.446979999999999683e-03 1.063443357248006649e+00
6.250000000000000347e-03 2.878270000000000134e-02 3.438752477428876464e+00
0.000000000000000000e+00 2.339839999999999878e-04 2.352730984790048385e+00
0.000000000000000000e+00 4.837759999999999977e-04 1.233240635282583098e+00
0.000000000000000000e+00 2.010500000000000134e-03 3.736329822493369868e+00
0.000000000000000000e+00 2.325159999999999944e-05 5.743349326728008908e-01
0.000000000000000000e+00 3.752590000000000201e-04 2.001132304601766165e+00
0.000000000000000000e+00 2.364290000000000025e-05 4.999140786191180741e-02
1.874999999999999931e-02 9.935660000000000325e-02 2.288413219028728740e-03
0.000000000000000000e+00 2.071359999999999955e-03 3.856458532592854649e+00
0.000000000000000000e+00 1.624320000000000061e-04 1.962170896355364569e+00
6.250000000000000347e-03 2.276929999999999926e-03 4.179490761119427411e+00
1.874999999999999931e-02 1.686589999999999964e-03 2.666364558239000093e+00
0.000000000000000000e+00 2.651520000000000092e-03 1.340173541982408345e+00
2.500000000000000139e-02 3.265660000000000091e-03 3.619608174346107710e+00
3.125000000000000173e-03 4.532859999999999667e-03 3.942687198883394917e+00
0.000000000000000000e+00 6.453059999999999352e-02 9.757555317443927789e-01
1.562500000000000000e-02 9.361220000000000652e-02 4.739248464791452342e+00
2.187499999999999861e-02 1.544259999999999990e-03 2.665032224120938986e-01
3.125000000000000173e-03 1.638399999999999926e-03 4.943345722750552840e-01
0.000000000000000000e+00 1.083390000000000047e-03 1.886048556190560443e+00
9.374999999999999653e-03 9.846870000000000622e-02 8.012700876149059237e-01
0.000000000000000000e+00 2.777219999999999949e-03 1.398364722800060633e-01
0.000000000000000000e+00 4.037760000000000047e-04 4.960744997671135970e+00
0.000000000000000000e+00 1.184220000000000064e-02 3.005660628909700982e+00
2.812500000000000069e-02 3.701820000000000197e-03 4.438240812099447652e-01
1.250000000000000069e-02 1.921919999999999922e-03 4.439861909491901848e+00
3.125000000000000173e-03 4.492740000000000275e-03 4.373614127631187287e+00
3.125000000000000173e-03 3.907970000000000194e-03 1.231457516170908040e+00
0.000000000000000000e+00 1.517379999999999944e-02 2.135032384432485664e+00
0.000000000000000000e+00 3.806049999999999711e-02 4.501094099001295978e-01
0.000000000000000000e+00 2.674689999999999967e-03 1.643019002806773710e+00
3.125000000000000173e-03 9.328899999999999346e-03 2.328782740624542491e+00
0.000000000000000000e+00 4.458550000000000360e-03 3.079359565318342540e+00
4.687500000000000000e-02 3.748860000000000126e-03 7.956008160754868275e-02
0.000000000000000000e+00 1.193540000000000096e-03 3.715463320811653425e+00
3.125000000000000173e-03 4.281980000000000335e-03 2.051247453367555096e+00
0.000000000000000000e+00 5.506940000000000099e-03 2.559233664519238616e+00
0.000000000000000000e+00 4.874780000000000107e-04 3.025472592023764618e-01
0.000000000000000000e+00 2.034300000000000171e-03 1.619388354963678278e+00
1.562500000000000000e-02 2.118200000000000083e-01 4.313845142542199751e-01
2.812500000000000069e-02 2.105600000000000006e-03 3.548168454451281040e+00
0.000000000000000000e+00 2.076160000000000126e-04 2.378457208802486456e+00
0.000000000000000000e+00 3.311359999999999955e-04 4.591532062790828483e+00
2.812500000000000069e-02 9.407419999999999671e-02 6.297255769351506327e-01
0.000000000000000000e+00 1.152009999999999970e-03 7.323554875659815666e-01
1.000000000000000056e-01 9.307050000000000045e-02 1.842494471108755416e+00
0.000000000000000000e+00 7.200190000000000409e-03 2.225087272037588715e+00
0.000000000000000000e+00 2.038620000000000143e-05 7.985504920055686018e-01
3.125000000000000000e-02 3.893440000000000095e-02 3.259850392634091598e+00
0.000000000000000000e+00 2.296419999999999945e-05 2.815679416730032525e+00
0.000000000000000000e+00 1.048770000000000084e-03 4.440164364043476475e+00
0.000000000000000000e+00 2.094780000000000079e-03 8.614522290605525212e-01
0.000000000000000000e+00 1.511680000000000055e-03 3.604970701164378788e+00
0.000000000000000000e+00 3.874559999999999983e-04 4.757904313270300278e+00
0.000000000000000000e+00 1.066770000000000045e-02 4.385282525189448943e-01
1.562500000000000000e-02 2.124439999999999940e-01 4.814794845677599966e+00
3.125000000000000173e-03 4.382910000000000278e-03 4.104401094305837994e+00
0.000000000000000000e+00 1.197949999999999926e-03 3.908966615617234019e+00
2.187499999999999861e-02 9.986159999999999481e-02 3.341418426800619290e+00
9.374999999999999653e-03 1.952959999999999896e-03 4.369292940639280864e+00
0.000000000000000000e+00 2.017150000000000106e-03 1.205996605388222509e+00
0.000000000000000000e+00 7.273060000000000462e-04 1.440311771495665472e+00
0.000000000000000000e+00 9.752320000000000303e-04 2.682305844717918664e+00
2.500000000000000139e-02 3.074239999999999785e-03 2.706309548912225971e+00
2.500000000000000139e-02 2.442300000000000113e-03 4.451873337982341639e+00
0.000000000000000000e+00 7.235860000000000208e-04 2.568856944878082693e+00
0.000000000000000000e+00 1.939520000000000133e-02 1.529329915417433350e+00
0.000000000000000000e+00 1.762429999999999943e-03 1.888401812551478542e+00
0.000000000000000000e+00 1.779710000000000103e-03 2.316210893983304153e+00
6.250000000000000347e-03 1.641220000000000092e-03 5.227110988492794652e-01
0.000000000000000000e+00 4.771199999999999855e-04 3.075171231372077596e+00
0.000000000000000000e+00 7.278830000000000239e-04 4.854517683621154767e+00
1.874999999999999931e-02 2.713020000000000015e-03 1.824430709993420940e+00
0.000000000000000000e+00 1.711169999999999922e-03 5.005074604385817416e-02
9.374999999999999653e-03 4.779969999999999705e-03 2.750964187371244929e+00
0.000000000000000000e+00 4.350080000000000201e-04 1.661174904364214333e+00
0.000000000000000000e+00 3.866290000000000091e-03 4.796782181941098067e+00
0.000000000000000000e+00 5.837439999999999730e-04 4.547459522209397420e+00
0.000000000000000000e+00 1.107780000000000049e-03 2.140946133551424158e+00
2.500000000000000139e-02 2.610939999999999962e-03 4.000291393580180710e+00
0.000000000000000000e+00 1.113089999999999956e-03 2.996887807826345007e+00
2.187499999999999861e-02 3.288510000000000131e-03 1.715858860175389466e+00
0.000000000000000000e+00 1.354500000000000018e-03 2.518118174345553850e+00
0.000000000000000000e+00 3.994600000000000234e-02 3.044789292938101966e+00
1.874999999999999931e-02 1.837499999999999941e-03 4.409094824749635322e+00
0.000000000000000000e+00 5.060099999999999884e-04 4.246276942029877155e+00
2.187499999999999861e-02 1.024650000000000040e-02 6.106352394030700736e-01
0.000000000000000000e+00 5.871679999999999781e-03 1.487497271190107551e+00
3.125000000000000173e-03 4.392700000000000250e-03 1.150826418097413706e+00
0.000000000000000000e+00 1.878780000000000033e-03 4.963046696949219516e+00
0.000000000000000000e+00 1.334850000000000056e-03 3.945692397406552754e+00
0.000000000000000000e+00 9.182080000000000016e-04 8.583936067524611246e-01
0.000000000000000000e+00 5.854610000000000109e-04 4.675268265024545844e-01
0.000000000000000000e+00 1.841540000000000017e-03 1.273098478344575346e+00
3.125000000000000173e-03 4.410179999999999656e-03 3.954658333016292993e+00
0.000000000000000000e+00 4.049279999999999828e-04 4.426364940228038058e+00
0.000000000000000000e+00 9.216639999999999902e-04 4.684489224395916196e+00
1.562500000000000000e-02 2.750779999999999979e-03 7.483832981475280199e-01
0.000000000000000000e+00 3.349259999999999846e-04 1.998240206607264646e+00
3.125000000000000000e-02 9.238659999999999928e-02 3.770509777857707245e+00
3.125000000000000173e-03 5.058619999999999783e-03 3.067423016198195240e-01
0.000000000000000000e+00 4.452519999999999742e-03 9.533667751746444097e-01
1.562500000000000000e-02 1.091139999999999992e-02 4.129459675996754342e+00
9.374999999999999653e-03 4.221169999999999783e-02 7.811086643561626630e-01
0.000000000000000000e+00 1.506179999999999975e-03 1.276093252100504838e+00
0.000000000000000000e+00 4.249559999999999883e-04 2.934294314335144094e+00
3.125000000000000173e-03 5.129090000000000212e-03 1.976381862978250359e+00
9.374999999999999653e-03 1.131949999999999970e-02 2.307555772955434126e+00
1.874999999999999931e-02 9.727360000000000173e-02 1.494088773065757714e+00
1.562500000000000000e-02 1.892540000000000064e-03 1.705544992592661346e-01
1.562500000000000000e-02 2.004290000000000151e-03 3.279789352506106148e+00
1.874999999999999931e-02 9.198629999999999307e-02 2.551622722759514517e+00
0.000000000000000000e+00 1.328189999999999926e-03 4.020674266580282818e+00
0.000000000000000000e+00 4.994560000000000102e-04 2.882201331202691286e+00
3.125000000000000173e-03 4.646139999999999992e-03 7.737236000948960468e-01
0.000000000000000000e+00 1.012349999999999969e-03 1.673260396186679877e+00
5.312499999999999861e-02 3.148949999999999666e-02 1.604756783970789913e-01
0.000000000000000000e+00 2.290640000000000146e-05 2.029440152475389780e+00
0.000000000000000000e+00 7.667429999999999602e-04 2.649911679324543634e+00
3.125000000000000173e-03 9.611050000000000149e-02 1.587420137589512503e-01
0.000000000000000000e+00 2.283759999999999968e-05 3.452778084574803508e+00
0.000000000000000000e+00 4.472849999999999569e-03 2.160354379449920259e+00
3.125000000000000173e-03 1.787710000000000080e-03 7.027318223416628706e-01
2.187499999999999861e-02 2.148680000000000034e-01 2.229063400782753224e+00
1.562500000000000000e-02 3.661950000000000188e-03 3.155419009173785039e+00
0.000000000000000000e+00 1.087869999999999896e-03 3.251790203971220983e+00
0.000000000000000000e+00 7.283320000000000462e-04 2.134236494593654943e+00
2.500000000000000139e-02 1.796669999999999994e-03 2.332456982251723154e+00
0.000000000000000000e+00 7.737959999999999890e-04 2.017218807692786164e+00
1.562500000000000000e-02 2.478530000000000056e-03 3.369492912205594326e+00
0.000000000000000000e+00 4.541330000000000106e-04 2.812671641389528965e+00
1.250000000000000069e-02 2.669060000000000009e-03 3.971889598220124551e+00
0.000000000000000000e+00 1.193470000000000078e-03 2.420438715053103707e+00
0.000000000000000000e+00 1.167099999999999908e-03 4.989610182163131569e+00
0.000000000000000000e+00 1.875460000000000018e-03 4.129613607391535268e+00
3.437500000000000278e-02 1.019669999999999951e-02 2.007184572603724071e+00
6.250000000000000347e-03 1.063039999999999992e-02 1.748695949253830095e+00
3.125000000000000173e-03 1.710209999999999985e-03 4.076801496129453639e+00
0.000000000000000000e+00 1.824190000000000056e-03 4.769193735141107560e+00
3.125000000000000173e-03 2.845379999999999784e-03 2.638562452394932034e+00
0.000000000000000000e+00 1.935809999999999961e-02 2.312230108518888549e+00
2.187499999999999861e-02 2.979780000000000015e-03 5.821595441334698195e-01
0.000000000000000000e+00 3.078270000000000138e-03 4.804906577169292703e+00
3.125000000000000173e-03 7.895040000000000087e-04 1.644904514327077960e+00
3.125000000000000173e-03 9.959869999999999834e-02 1.054743776159817070e+00
1.874999999999999931e-02 2.438340000000000212e-03 4.095627860381684249e-01
1.562500000000000000e-02 2.409220000000000111e-03 1.695571951622844020e+00
3.125000000000000173e-03 9.505969999999999698e-02 2.619686995855881495e+00
0.000000000000000000e+00 1.477140000000000050e-02 7.897967527554694556e-01
2.187499999999999861e-02 1.987259999999999808e-03 1.144593572153063121e-01
3.125000000000000173e-03 4.914619999999999753e-03 1.012023234930606863e+00
0.000000000000000000e+00 0.000000000000000000e+00 2.426914629090602737e+00
0.000000000000000000e+00 2.053919999999999878e-04 2.127985717057595316e+00
5.625000000000000139e-02 9.583490000000000064e-03 9.331189809951445646e-01
2.812500000000000069e-02 9.262109999999999788e-02 2.181936745773836783e+00
0.000000000000000000e+00 1.674560000000000068e-03 1.829149945713590242e+00
0.000000000000000000e+00 2.000319999999999876e-03 3.827974082855823301e+00
0.000000000000000000e+00 5.601960000000000012e-04 8.850659091126256151e-02
0.000000000000000000e+00 4.731140000000000107e-04 1.176444610973726990e+00
0.000000000000000000e+00 3.749119999999999775e-04 3.204463606085579119e+00
5.937499999999999722e-02 8.893629999999999591e-03 4.196617444272702002e+00
0.000000000000000000e+00 9.694719999999999770e-04 2.871590254701974931e+00
0.000000000000000000e+00 8.666499999999999508e-04 2.497794436460293532e+00
2.812500000000000069e-02 3.310780000000000146e-03 3.991525058021653471e+00
0.000000000000000000e+00 9.680000000000000019e-04 3.465812975482863934e+00
0.000000000000000000e+00 2.104719999999999855e-02 3.708275176784507909e+00
0.000000000000000000e+00 8.928399999999999965e-04 4.328761184487984082e+00
2.500000000000000139e-02 3.661310000000000085e-03 4.975323660405878812e+00
6.250000000000000347e-03 1.058489999999999986e-01 1.792799167847152209e+00
0.000000000000000000e+00 8.952959999999999608e-04 5.165296619606513095e-01
2.187499999999999861e-02 2.328059999999999852e-03 3.743498117550736470e+00
0.000000000000000000e+00 9.885449999999999793e-02 2.071400963322933553e-01
3.125000000000000173e-03 1.739330000000000086e-03 2.060559427393695131e+00
1.562500000000000000e-02 1.760899999999999922e-03 3.003258225372668067e-01
3.125000000000000173e-03 3.778179999999999907e-03 5.656856921271741223e-01
0.000000000000000000e+00 9.561599999999999527e-04 2.347125871083322934e+00
2.500000000000000139e-02 4.507070000000000173e-03 1.288568284047117540e+00
1.874999999999999931e-02 2.769540000000000023e-03 2.566572874841043905e+00
0.000000000000000000e+00 3.960960000000000240e-04 4.481647975275197204e+00
0.000000000000000000e+00 3.061119999999999857e-04 7.622314524503226441e-01
0.000000000000000000e+00 1.150079999999999939e-03 4.837255637854498858e+00
0.000000000000000000e+00 1.974529999999999948e-03 4.906266558018379520e+00
0.000000000000000000e+00 9.844470000000000564e-04 2.284824004767936678e+00
0.000000000000000000e+00 1.145219999999999962e-03 1.253463407210091862e+00
1.562500000000000000e-02 1.766720000000000053e-03 1.131003466802471547e-01
2.187499999999999861e-02 5.042050000000000178e-03 1.860839576696690756e+00
1.562500000000000000e-02 2.621440000000000055e-03 2.890167636492122938e+00
2.187499999999999861e-02 3.278210000000000152e-03 3.071973624315627482e+00
6.250000000000000347e-03 2.447040000000000153e-03 2.622766655794086521e+00
9.374999999999999653e-03 1.430339999999999997e-03 1.367217653323384408e+00
1.250000000000000069e-02 4.921599999999999933e-03 4.953073689187005080e+00
0.000000000000000000e+00 1.518219999999999986e-02 2.205756991973216508e+00
2.500000000000000139e-02 2.143359999999999970e-03 9.292555175596428629e-01
0.000000000000000000e+00 2.131650000000000125e-03 2.998611208163304287e-01
1.562500000000000000e-02 2.207659999999999831e-02 1.123381036530786137e+00
1.250000000000000069e-02 2.737540000000000112e-03 4.757709071182892657e+00
2.812500000000000069e-02 3.600509999999999908e-03 4.645196534026530877e+00
0.000000000000000000e+00 3.731839999999999832e-04 1.570726843077121071e+00
0.000000000000000000e+00 9.016630000000000304e-04 2.234917295233649792e+00
0.000000000000000000e+00 1.683199999999999876e-04 2.469023884855007900e+00
1.250000000000000069e-02 9.511569999999999747e-02 3.507712854781985801e+00
0.000000000000000000e+00 7.561339999999999728e-03 4.962172591521683884e+00
0.000000000000000000e+00 1.112060000000000002e-03 4.840905826906467979e+00
3.125000000000000173e-03 1.411549999999999958e-02 2.020129435510196636e+00
0.000000000000000000e+00 4.291890000000000136e-04 9.697401293896890095e-01
0.000000000000000000e+00 1.888130000000000017e-03 3.907134922680771894e+00
6.250000000000000347e-03 3.350080000000000072e-03 7.071539200766213673e-01
0.000000000000000000e+00 2.236329999999999915e-02 4.720279855902558275e+00
9.374999999999999653e-03 9.483729999999999938e-02 2.080295517569330510e-02
0.000000000000000000e+00 9.365760000000000534e-04 1.248087630869558762e+00
0.000000000000000000e+00 1.184380000000000068e-03 4.963741733721058758e+00
3.125000000000000173e-03 4.304060000000000177e-03 3.033764822126913785e+00
0.000000000000000000e+00 2.329599999999999922e-04 1.901996823607727372e+00
0.000000000000000000e+00 8.389759999999999579e-04 3.545533201967085990e+00
0.000000000000000000e+00 1.160449999999999936e-03 1.881149570405083349e+00
0.000000000000000000e+00 8.103680000000000041e-04 4.356843845152418737e+00
2.812500000000000069e-02 2.488189999999999933e-03 4.814883286993445033e+00
2.187499999999999861e-02 2.122310000000000030e-01 1.590840040032281966e-01
6.250000000000000000e-02 2.588050000000000073e-02 3.880804912240646054e+00
0.000000000000000000e+00 4.442119999999999814e-04 1.126929242419582033e+00
0.000000000000000000e+00 3.752319999999999744e-04 2.590187258330134412e+00
0.000000000000000000e+00 2.057940000000000116e-02 4.884495035008206365e+00
0.000000000000000000e+00 1.875460000000000018e-03 3.672490177140880885e+00
0.000000000000000000e+00 1.082239999999999938e-03 3.368665399884680500e+00
1.874999999999999931e-02 2.825219999999999815e-03 1.509895438421045011e+00
0.000000000000000000e+00 1.562880000000000053e-04 2.010176408893620259e+00
0.000000000000000000e+00 7.468800000000000048e-04 3.821644994868258038e+00
0.000000000000000000e+00 5.621200000000000458e-04 7.030080498179203108e-01
1.250000000000000069e-02 9.641600000000000387e-04 3.580757960607166002e+00
0.000000000000000000e+00 3.412099999999999942e-03 2.398003619194142289e+00
0.000000000000000000e+00 1.305340000000000103e-03 4.057447978861987714e+00
6.250000000000000347e-03 6.040189999999999969e-03 2.184936448422365896e+00
3.125000000000000173e-03 1.673790000000000087e-03 3.811125862344053594e+00
9.374999999999999653e-03 3.731389999999999794e-03 2.067666658623799947e+00
0.000000000000000000e+00 3.404990000000000100e-03 4.016734363573096545e+00
6.250000000000000347e-03 5.825219999999999877e-03 1.033337836014345257e+00
0.000000000000000000e+00 9.822719999999999629e-04 4.786438085493777805e+00
3.125000000000000173e-03 3.640829999999999848e-03 3.794847629297537495e+00
0.000000000000000000e+00 4.339980000000000010e-04 1.260510981804010999e+00
3.125000000000000173e-03 9.330959999999999255e-03 3.970756814029022586e+00
2.812500000000000069e-02 1.063360000000000000e-02 3.217816931245899070e+00
3.125000000000000173e-03 7.843839999999999493e-04 6.843905884764112102e-01
0.000000000000000000e+00 8.992899999999999635e-04 2.969430088740793172e-01
0.000000000000000000e+00 5.140419999999999712e-03 1.893817518679169476e+00
0.000000000000000000e+00 1.770620000000000093e-03 4.352677414276358903e+00
0.000000000000000000e+00 1.944320000000000033e-03 1.374723202765155694e+00
1.874999999999999931e-02 2.067779999999999965e-03 2.230879855576505477e+00
0.000000000000000000e+00 1.183360000000000054e-03 1.644134401543267288e+00
3.125000000000000173e-03 2.029500000000000054e-03 1.197677992456729790e+00
9.374999999999999653e-03 7.839999999999999747e-04 1.397451033297323786e+00
0.000000000000000000e+00 2.282319999999999859e-05 4.237423428845818130e+00
0.000000000000000000e+00 4.139270000000000232e-04 2.669107123914193469e+00
3.125000000000000173e-03 1.857280000000000042e-02 3.920187318368704599e+00
0.000000000000000000e+00 3.288000000000000124e-03 3.389993418128891989e+00
3.125000000000000173e-03 7.883720000000000311e-03 1.300338967319925487e+00
6.250000000000000347e-03 1.130689999999999950e-03 3.432032462743398682e+00
0.000000000000000000e+00 9.939840000000000567e-04 4.187954279249580303e+00
3.125000000000000173e-03 4.294209999999999694e-03 4.909946821397748185e-01
2.500000000000000139e-02 2.125700000000000089e-01 3.264107263560910077e+00
0.000000000000000000e+00 9.439360000000000372e-04 2.416107237179680567e+00
0.000000000000000000e+00 2.825990000000000229e-04 5.164591819547453833e-01
0.000000000000000000e+00 3.102660000000000140e-03 1.348601156753376218e+00
0.000000000000000000e+00 1.034109999999999977e-03 6.608678331731182576e-01
0.000000000000000000e+00 8.837759999999999627e-04 3.530160489021620052e+00
9.374999999999999653e-03 1.654139999999999907e-03 1.832569761886238435e+00
9.374999999999999653e-03 5.486790000000000070e-03 3.831385040546777088e+00
3.125000000000000173e-03 4.404840000000000144e-02 3.755845798120614365e+00
0.000000000000000000e+00 1.202879999999999922e-03 2.813190360052583827e+00
0.000000000000000000e+00 4.507599999999999628e-03 2.826483139086960250e+00
3.125000000000000173e-03 1.753599999999999950e-02 3.154821553608893936e+00
0.000000000000000000e+00 2.296640000000000088e-05 1.792465132666007488e+00
0.000000000000000000e+00 1.184520000000000017e-02 2.894141325702102474e+00
0.000000000000000000e+00 4.377409999999999982e-03 3.759775249435028943e+00
1.874999999999999931e-02 2.735229999999999953e-03 4.359893225925016935e+00
2.500000000000000139e-02 5.197120000000000385e-03 4.110368035396925634e+00
3.125000000000000173e-03 5.534589999999999822e-03 8.413773734623597456e-02
3.125000000000000173e-03 2.059969999999999943e-03 5.370005134857452900e-01
3.125000000000000173e-03 9.325889999999999874e-03 2.522473203679557852e+00
0.000000000000000000e+00 9.765120000000000180e-04 3.829772791257452624e+00
0.000000000000000000e+00 3.545479999999999942e-04 2.421737912622000444e+00
6.250000000000000347e-03 1.973499999999999994e-03 4.893569951262458417e+00
0.000000000000000000e+00 5.089919999999999948e-04 3.705229076075116978e+00
0.000000000000000000e+00 1.070659999999999971e-03 1.389399121726097697e+00
2.187499999999999861e-02 2.121550000000000102e-01 2.001248339038037560e+00
0.000000000000000000e+00 8.624639999999999607e-04 3.406783135897745174e-01
0.000000000000000000e+00 8.162560000000000128e-04 1.821710697155703995e+00
0.000000000000000000e+00 9.723929999999999987e-04 2.294257983209877505e+00
0.000000000000000000e+00 1.033789999999999926e-03 8.818151386101208411e-01
0.000000000000000000e+00 2.132390000000000094e-05 4.804738593357074095e+00
3.125000000000000173e-03 7.861850000000000088e-03 1.846036217798506129e+00
3.125000000000000173e-03 4.945340000000000326e-03 2.303622384379439003e-01
0.000000000000000000e+00 1.064580000000000084e-03 1.463479132683520589e-01
7.187499999999999445e-02 9.139029999999999376e-02 1.285981834450580230e+00
0.000000000000000000e+00 5.130240000000000538e-04 4.268856620680698377e+00
2.500000000000000139e-02 3.974270000000000233e-03 2.088963649652246790e+00
3.125000000000000173e-03 5.036989999999999870e-03 3.062442062957141609e+00
0.000000000000000000e+00 7.199310000000000431e-04 4.395060164681988013e+00
0.000000000000000000e+00 0.000000000000000000e+00 3.540140596113236615e+00
0.000000000000000000e+00 3.937270000000000201e-04 2.325621089743328263e+00
6.250000000000000347e-03 4.265660000000000111e-03 3.436933415163759165e+00
6.250000000000000347e-03 8.228610000000000785e-03 2.820022476231666797e+00
1.874999999999999931e-02 3.084480000000000121e-03 4.772052002171884411e+00
5.000000000000000278e-02 1.884669999999999965e-03 8.921458971851808917e-01
3.125000000000000173e-03 1.800189999999999907e-03 4.923471010635626754e+00
0.000000000000000000e+00 3.749119999999999775e-04 4.419518395038959824e+00
0.000000000000000000e+00 1.558369999999999894e-03 1.542854231802254228e+00
0.000000000000000000e+00 9.837439999999999379e-04 4.878286190687422419e+00
0.000000000000000000e+00 1.314110000000000061e-03 2.986064296156988540e+00
0.000000000000000000e+00 6.556799999999999781e-03 3.777297796794217177e+00
0.000000000000000000e+00 2.584320000000000085e-04 3.461122929885936728e+00
0.000000000000000000e+00 1.064770000000000039e-03 4.508003750438151158e+00
0.000000000000000000e+00 9.394110000000000654e-03 1.097489085638222450e+00
0.000000000000000000e+00 1.263620000000000021e-03 2.507534381437989790e+00
0.000000000000000000e+00 4.261110000000000136e-04 9.351394931604661842e-01
3.125000000000000173e-03 1.564539999999999898e-03 4.307255749141195800e+00
3.125000000000000173e-03 1.690689999999999901e-03 1.850816052878582862e+00
3.125000000000000173e-03 1.675709999999999960e-03 1.599243087986053080e+00
0.000000000000000000e+00 2.092800000000000129e-03 6.863272365607014924e-01
1.874999999999999931e-02 9.947670000000000123e-02 1.812623062577928268e-01
2.187499999999999861e-02 3.601790000000000113e-03 2.272939172287032683e+00
0.000000000000000000e+00 1.098049999999999938e-03 6.979870178624908439e-01
0.000000000000000000e+00 8.446079999999999907e-03 3.560840654184333154e+00
0.000000000000000000e+00 6.810069999999999665e-04 3.115204556404162606e+00
0.000000000000000000e+00 3.608959999999999816e-04 2.953533804360694681e+00
0.000000000000000000e+00 4.224000000000000215e-04 3.210865463943863407e+00
6.250000000000000000e-02 9.151349999999999763e-02 7.423027341236193566e-01
0.000000000000000000e+00 6.199680000000000381e-04 2.400717674127756940e+00
0.000000000000000000e+00 5.684680000000000332e-04 3.545503913181240474e+00
0.000000000000000000e+00 3.507650000000000069e-04 9.511039035511231754e-01
6.250000000000000347e-03 3.626000000000000056e-02 2.007375675930609393e+00
3.125000000000000173e-03 2.539459999999999894e-03 3.192274581909710918e+00
2.187499999999999861e-02 3.273980000000000119e-03 9.822965208352130162e-01
1.250000000000000069e-02 2.449339999999999937e-03 3.001490235571020904e+00
2.812500000000000069e-02 2.844670000000000098e-03 2.009356336153610201e+00
0.000000000000000000e+00 1.990019999999999897e-03 3.823901303870010260e+00
0.000000000000000000e+00 7.203160000000000335e-04 2.508898317897215069e+00
0.000000000000000000e+00 1.058370000000000101e-03 1.697072223201366858e+00
1.874999999999999931e-02 2.931650000000000054e-03 4.132706050308836865e+00
1.562500000000000000e-02 2.997500000000000164e-03 6.260711056104095729e-02
0.000000000000000000e+00 9.825280000000000905e-04 3.706585043129866364e+00
9.374999999999999653e-03 2.014739999999999934e-02 4.859935046664455527e+00
0.000000000000000000e+00 2.271300000000000090e-05 4.489970002022902307e+00
0.000000000000000000e+00 1.044350000000000096e-03 4.165427295971701582e+00
0.000000000000000000e+00 9.691520000000000343e-04 1.730093972480180486e+00
0.000000000000000000e+00 4.132210000000000201e-04 3.355978049618740577e+00
0.000000000000000000e+00 7.429529999999999728e-04 2.888613677806656233e-01
0.000000000000000000e+00 4.323309999999999913e-04 1.507339482137854958e+00
0.000000000000000000e+00 3.569280000000000087e-04 4.136792242358150462e-01
0.000000000000000000e+00 1.302079999999999948e-03 1.940343459003058824e+00
0.000000000000000000e+00 1.617469999999999975e-03 1.923862040034880483e+00
2.812500000000000069e-02 1.794430000000000070e-03 5.777551438133471384e-01
0.000000000000000000e+00 1.945879999999999832e-02 2.738903927285884610e+00
0.000000000000000000e+00 8.855039999999999569e-04 2.100430137945735076e+00
0.000000000000000000e+00 1.802879999999999923e-04 2.212160288833652011e+00
3.125000000000000173e-03 1.818750000000000054e-03 7.556692169163825579e-02
0.000000000000000000e+00 1.802369999999999970e-03 8.321342818486210380e-01
0.000000000000000000e+00 9.768960000000001011e-04 3.338896659915741694e+00
2.500000000000000139e-02 2.112830000000000003e-03 1.556237369723203479e+00
2.500000000000000139e-02 1.047130000000000005e-01 3.818667556772342042e+00
3.125000000000000173e-03 4.393860000000000300e-03 1.883400592220633163e+00
1.562500000000000000e-02 3.234050000000000032e-03 4.168469768957857369e+00
0.000000000000000000e+00 9.305599999999999809e-04 3.361180325811508496e+00
3.125000000000000173e-03 9.837119999999999545e-03 3.182121767281188340e+00
0.000000000000000000e+00 2.298780000000000037e-05 3.306912162096908858e-01
2.812500000000000069e-02 9.370910000000000351e-02 4.393840207713228807e-01
0.000000000000000000e+00 4.248279999999999786e-04 3.514631328822527934e+00
3.125000000000000173e-03 2.255099999999999900e-03 9.818923702197096537e-01
9.374999999999999653e-03 9.429899999999999394e-02 2.113361874116650441e+00
0.000000000000000000e+00 2.595590000000000050e-02 9.230431607396949456e-01
0.000000000000000000e+00 1.154429999999999909e-03 3.495477217854063845e+00
0.000000000000000000e+00 3.829120000000000093e-04 3.143319599453979762e+00
1.562500000000000000e-02 2.117700000000000138e-03 2.382127457207203758e+00
0.000000000000000000e+00 4.912640000000000236e-03 2.348256958934178407e+00
3.437500000000000278e-02 1.685269999999999997e-03 4.555820089996550415e+00
0.000000000000000000e+00 6.451850000000000640e-02 3.087518618491962297e+00
1.562500000000000000e-02 2.368379999999999791e-03 1.609399119839797221e+00
0.000000000000000000e+00 3.738290000000000016e-03 1.101806216913304048e+00
2.187499999999999861e-02 4.938820000000000016e-03 2.541288757306273460e+00
0.000000000000000000e+00 4.663040000000000132e-04 3.292929934186849650e+00
0.000000000000000000e+00 4.259180000000000106e-04 2.401507318305439842e+00
0.000000000000000000e+00 1.713600000000000019e-03 4.142377007526112820e+00
0.000000000000000000e+00 4.035199999999999855e-04 2.408731252935126577e+00
3.125000000000000173e-03 4.438659999999999654e-03 9.380399003358030896e-01
0.000000000000000000e+00 1.906429999999999974e-03 2.194010365325478773e+00
3.125000000000000173e-03 4.452099999999999634e-03 4.304357057517851359e+00
0.000000000000000000e+00 1.029629999999999912e-03 6.867576611910108930e-01
0.000000000000000000e+00 9.006720000000000394e-04 1.520322650237043716e-01
9.374999999999999653e-03 2.509000000000000119e-02 9.597105322487975432e-02
2.812500000000000069e-02 3.734340000000000055e-03 4.845183154604235654e+00
0.000000000000000000e+00 7.744380000000000144e-04 8.711067603551314598e-01
2.187499999999999861e-02 2.422909999999999908e-03 4.679146980956672142e-01
6.250000000000000347e-03 1.019600000000000020e-02 1.577000732171909281e+00
0.000000000000000000e+00 1.207549999999999943e-03 4.001945057182895837e+00
0.000000000000000000e+00 1.680770000000000050e-03 5.116186790146931562e-01
0.000000000000000000e+00 1.090299999999999993e-03 3.042659459408602274e+00
1.874999999999999931e-02 3.206849999999999978e-02 7.345910542913752783e-01
2.187499999999999861e-02 2.943869999999999907e-03 2.718811684563275932e+00
0.000000000000000000e+00 9.729919999999999975e-04 4.133110400783584382e+00
0.000000000000000000e+00 1.531040000000000005e-02 2.882253366495501457e+00
1.874999999999999931e-02 1.953789999999999954e-03 4.219006225192324600e+00
9.374999999999999653e-03 4.475629999999999886e-02 2.049387170037623829e+00
0.000000000000000000e+00 1.126210000000000102e-03 4.030461218561639747e+00
1.874999999999999931e-02 3.609090000000000128e-03 3.532054785093816207e+00
0.000000000000000000e+00 2.205819999999999829e-03 3.169498052821800194e+00
0.000000000000000000e+00 1.900030000000000035e-03 1.376590702052498560e+00
3.437500000000000278e-02 9.179579999999999684e-02 6.952526458360058781e-01
3.125000000000000173e-03 4.572859999999999772e-03 2.944234912855793862e+00
2.500000000000000139e-02 9.865340000000000220e-03 1.053082456627846941e+00
0.000000000000000000e+00 1.809980000000000096e-03 6.117715623455194374e-01
3.125000000000000173e-03 4.942270000000000343e-03 9.781055373595759495e-01
2.812500000000000069e-02 2.446440000000000073e-02 1.676257889262553036e+00
0.000000000000000000e+00 6.155359999999999695e-04 7.859601462560689145e-01
0.000000000000000000e+00 1.138880000000000101e-03 2.211295514202524348e+00
1.250000000000000069e-02 1.431420000000000088e-03 4.404987538078549036e+00
0.000000000000000000e+00 2.292600000000000039e-05 1.258829077032823651e+00
2.500000000000000139e-02 2.116740000000000010e-01 1.701185697976690392e+00
0.000000000000000000e+00 1.028800000000000070e-03 7.683215358815076446e-01
0.000000000000000000e+00 1.892859999999999899e-03 8.320680052878531852e-01
2.500000000000000139e-02 4.741589999999999694e-02 1.072771156092406919e+00
3.125000000000000173e-03 1.526590000000000065e-02 3.497165255354066637e+00
0.000000000000000000e+00 4.380799999999999798e-04 1.240071394258226878e+00
0.000000000000000000e+00 3.065660000000000000e-03 4.027893096825359898e+00
0.000000000000000000e+00 1.001600000000000060e-03 3.432355709873900373e+00
1.874999999999999931e-02 2.119379999999999875e-01 4.238876668505795919e+00
0.000000000000000000e+00 1.097469999999999913e-03 4.070260657062552134e-01
1.874999999999999931e-02 2.012100000000000173e-03 1.906197469686238932e+00
3.125000000000000173e-03 2.133250000000000163e-03 2.328664287129821098e+00
2.187499999999999861e-02 2.113219999999999855e-03 1.508008554560428260e+00
2.812500000000000069e-02 1.118140000000000106e-03 1.355573142103134732e+00
3.125000000000000173e-03 4.377090000000000147e-03 3.397322482704040247e+00
0.000000000000000000e+00 1.070079999999999946e-03 2.781642528774440848e+00
0.000000000000000000e+00 2.308990000000000063e-05 1.126632624051422837e+00
3.125000000000000173e-03 9.958079999999999710e-02 1.322181972161796004e+00
2.187499999999999861e-02 3.558979999999999783e-02 4.383886446874420528e+00
8.437500000000000555e-02 9.248149999999999427e-02 1.421090224490914711e+00
0.000000000000000000e+00 8.358699999999999507e-04 3.186099765704952791e-01
2.500000000000000139e-02 2.157759999999999886e-03 3.527544897844699268e+00
0.000000000000000000e+00 7.321149999999999793e-04 5.350917732616006228e-01
0.000000000000000000e+00 9.612800000000000121e-04 1.889581091578009353e+00
5.312499999999999861e-02 3.625430000000000319e-02 4.263209318945440529e+00
0.000000000000000000e+00 1.241530000000000021e-03 3.367111475990582914e+00
1.874999999999999931e-02 3.353220000000000072e-03 4.835038156528980835e+00
0.000000000000000000e+00 3.655740000000000205e-03 1.645393175154741261e-01
1.250000000000000069e-02 4.574720000000000002e-03 2.179595672004371210e+00
0.000000000000000000e+00 1.349949999999999935e-03 2.947927780227790784e+00
0.000000000000000000e+00 7.320509999999999474e-04 1.797053581975498471e+00
3.125000000000000173e-03 4.672579999999999963e-03 6.069379222580517652e-01
0.000000000000000000e+00 1.275059999999999952e-03 2.285025953723584635e+00
3.437500000000000278e-02 9.776060000000000305e-02 4.403883022616608578e+00
0.000000000000000000e+00 2.097120000000000006e-05 4.259910889769088271e+00
2.187499999999999861e-02 9.088580000000000270e-02 2.111888923997897294e+00
0.000000000000000000e+00 9.107199999999999540e-04 2.840888578162743983e+00
0.000000000000000000e+00 8.686720000000000205e-04 6.463896566054333492e-01
3.125000000000000173e-03 2.461629999999999808e-03 1.430616898253241231e+00
3.125000000000000173e-03 1.047619999999999975e-02 3.409490374849497130e+00
6.250000000000000347e-03 1.573439999999999951e-03 6.971541454389884596e-01
1.250000000000000069e-02 1.054439999999999961e-01 3.447928195643521487e+00
3.125000000000000173e-03 4.803580000000000003e-03 1.865418980931170534e+00
0.000000000000000000e+00 1.186629999999999933e-03 4.480291503335766201e+00
1.874999999999999931e-02 1.846659999999999968e-03 4.533617625361873849e+00
1.250000000000000069e-02 1.548349999999999987e-03 3.744222862650167905e+00
2.500000000000000139e-02 2.330880000000000018e-03 1.776865233658279752e+00
0.000000000000000000e+00 2.897280000000000016e-04 3.401413408060531829e+00
5.312499999999999861e-02 9.213830000000000631e-02 1.127954983598644656e-01
2.187499999999999861e-02 3.015620000000000106e-03 2.056233073125903310e+00
7.499999999999999722e-02 2.452789999999999832e-02 3.499451679021555961e+00
2.187499999999999861e-02 9.378930000000000600e-02 4.115146896460967874e+00
0.000000000000000000e+00 9.116159999999999672e-04 3.003051330263157848e+00
3.125000000000000173e-03 7.536829999999999571e-03 6.703377075539251884e-01
0.000000000000000000e+00 1.030080000000000058e-03 2.179799635924462020e+00
0.000000000000000000e+00 1.504869999999999992e-02 3.123233885912577890e+00
0.000000000000000000e+00 5.536000000000000122e-04 1.789358200430218870e+00
1.250000000000000069e-02 1.710020000000000030e-03 1.911636479642365050e+00
2.187499999999999861e-02 2.004290000000000151e-03 2.340031897071777056e+00
1.874999999999999931e-02 1.288040000000000018e-02 1.441155384880780765e+00
1.874999999999999931e-02 2.128859999999999919e-01 8.173721556756358142e-01
0.000000000000000000e+00 6.322160000000000279e-02 4.860542312148541377e-01
0.000000000000000000e+00 9.861839999999999495e-02 3.286534661435035254e+00
0.000000000000000000e+00 1.000479999999999989e-03 1.704642533237105129e-01
0.000000000000000000e+00 5.651200000000000103e-04 2.144723932042786885e+00
6.250000000000000347e-03 2.047680000000000073e-03 5.696769630237413784e-01
0.000000000000000000e+00 1.962939999999999824e-03 1.030608638439463043e+00
0.000000000000000000e+00 3.897600000000000088e-04 9.425751667358100994e-01
2.187499999999999861e-02 9.308909999999999407e-02 4.997650018919898685e+00
4.687500000000000000e-02 3.814039999999999792e-02 1.977543925925340673e+00
6.250000000000000347e-03 1.027830000000000063e-02 1.532799275072390000e+00
6.250000000000000347e-03 9.579669999999999852e-02 3.512831994154697046e+00
0.000000000000000000e+00 1.083519999999999926e-03 2.858931424846185454e+00
0.000000000000000000e+00 1.062910000000000027e-03 4.091917280329935735e+00
1.874999999999999931e-02 2.577340000000000013e-03 1.842966081453226712e+00
1.874999999999999931e-02 2.157629999999999791e-03 2.489456603320322481e-01
2.187499999999999861e-02 9.827990000000000337e-02 4.950271195726815954e+00
0.000000000000000000e+00 4.678269999999999998e-03 3.847711424126440960e+00
0.000000000000000000e+00 9.814400000000000901e-04 1.460611818695356501e+00
3.125000000000000173e-03 4.379459999999999950e-03 1.232298116129521004e+00
2.187499999999999861e-02 2.276540000000000074e-03 4.913186722530947570e+00
3.125000000000000173e-03 1.812220000000000020e-03 4.155071894891499085e+00
0.000000000000000000e+00 2.293630000000000061e-03 2.874318092056348029e+00
0.000000000000000000e+00 9.997439999999998932e-04 2.832635245714568484e+00
0.000000000000000000e+00 2.022340000000000075e-03 2.675283245370439822e+00
0.000000000000000000e+00 1.111549999999999995e-03 1.647749233357524545e+00
0.000000000000000000e+00 2.348509999999999983e-05 2.984350786051344961e+00
2.812500000000000069e-02 4.566210000000000234e-03 4.279069838051491326e-01
0.000000000000000000e+00 1.383300000000000068e-03 1.737436880244158210e+00
9.374999999999999653e-03 1.698819999999999974e-03 3.902247093804762645e+00
0.000000000000000000e+00 1.047549999999999957e-03 1.567583729472951104e+00
0.000000000000000000e+00 5.232639999999999557e-04 1.337532462922481180e+00
0.000000000000000000e+00 1.190019999999999967e-03 3.622910211602320629e+00
1.250000000000000069e-02 1.880130000000000039e-03 2.556646033427953491e+00
0.000000000000000000e+00 4.430970000000000221e-03 1.975372975073058646e-01
0.000000000000000000e+00 3.752319999999999744e-04 1.339820372258824221e+00
3.125000000000000173e-03 9.770919999999999606e-02 1.619701419750889215e+00
0.000000000000000000e+00 1.016570000000000060e-03 1.748541943917955033e+00
3.125000000000000173e-03 1.026950000000000085e-02 2.464046761074228931e-01
9.374999999999999653e-03 1.837499999999999941e-03 3.147061573678988644e-01
0.000000000000000000e+00 1.430269999999999979e-03 2.953807939715809017e+00
6.250000000000000347e-03 3.223680000000000035e-03 8.473245850409211188e-01
2.500000000000000139e-02 2.498180000000000019e-03 4.616040429971156378e+00
0.000000000000000000e+00 1.041220000000000036e-03 5.858301543951510704e-01
0.000000000000000000e+00 1.310399999999999976e-03 4.601577444409834072e+00
1.250000000000000069e-02 9.236690000000000178e-02 1.239169578698323670e-01
0.000000000000000000e+00 1.163069999999999989e-03 2.082148979821923929e-01
0.000000000000000000e+00 1.514880000000000046e-02 1.551441764741719354e+00
6.250000000000000347e-03 1.949729999999999866e-02 4.612191306372865895e+00
0.000000000000000000e+00 2.649090000000000125e-02 3.530722800048002874e+00
9.374999999999999653e-03 9.865909999999999958e-02 3.504673903007790692e+00
0.000000000000000000e+00 3.757720000000000201e-04 9.103654868132360356e-02
0.000000000000000000e+00 9.207040000000000536e-04 2.763623926645341733e+00
1.000000000000000056e-01 8.065490000000000159e-02 2.862709814545524090e+00
1.562500000000000000e-02 5.208700000000000135e-03 2.976607975091343228e+00
0.000000000000000000e+00 1.200770000000000092e-03 1.070086684796256460e+00
0.000000000000000000e+00 6.276479999999999646e-04 6.742079605075790294e-01
2.187499999999999861e-02 3.549440000000000060e-03 1.148764506035848676e+00
0.000000000000000000e+00 1.118590000000000036e-03 1.266871413122038215e+00
0.000000000000000000e+00 9.303039999999999617e-04 2.854294167154527884e+00
2.187499999999999861e-02 9.465999999999999415e-02 1.601270334014990304e+00
0.000000000000000000e+00 2.271689999999999929e-05 4.798104604975808485e+00
3.437500000000000278e-02 1.070969999999999978e-01 3.140633443691487336e+00
1.874999999999999931e-02 2.701760000000000099e-03 2.558529299633022447e+00
2.500000000000000139e-02 3.192829999999999800e-03 4.157273509218513574e+00
6.250000000000000347e-03 9.884339999999999793e-02 4.713068616840991432e+00
6.250000000000000347e-03 7.984640000000000314e-04 4.879287067823828705e-01
1.874999999999999931e-02 2.467839999999999791e-03 9.434314934212467696e-01
2.500000000000000139e-02 2.394620000000000082e-03 1.666056244007967369e+00
3.125000000000000173e-03 1.585789999999999899e-03 3.901718687095949711e+00
0.000000000000000000e+00 9.084159999999999978e-04 1.855480846225248559e+00
0.000000000000000000e+00 5.722239999999999749e-04 4.905608474705939415e+00
6.250000000000000347e-03 1.676880000000000037e-02 3.422540505741253014e+00
6.250000000000000347e-03 3.423869999999999865e-03 3.638118352693178625e+00
6.250000000000000347e-03 1.355649999999999911e-03 2.060148284017864651e+00
2.187499999999999861e-02 1.564030000000000108e-03 4.072770200610696278e+00
0.000000000000000000e+00 3.806719999999999765e-04 2.074186856132963719e+00
0.000000000000000000e+00 2.421739999999999917e-03 1.367124932915449342e+00
2.812500000000000069e-02 3.182730000000000281e-02 1.115076104952472669e+00
9.374999999999999653e-03 2.433859999999999930e-03 4.999530668334272399e+00
3.125000000000000173e-03 4.318269999999999921e-03 1.747367639411073093e+00
2.187499999999999861e-02 9.571649999999999256e-03 1.617573463881976537e+00
0.000000000000000000e+00 8.371200000000000082e-04 1.154927465147270738e+00
0.000000000000000000e+00 9.088699999999999904e-03 2.107589038800224301e+00
0.000000000000000000e+00 2.113340000000000010e-03 1.326203355047888444e+00
0.000000000000000000e+00 4.171970000000000105e-04 2.573604040304559692e+00
6.250000000000000347e-03 8.620799999999999861e-04 2.592611516452436593e+00
0.000000000000000000e+00 7.337819999999999889e-04 4.742127665729023889e+00
1.562500000000000000e-02 2.649729999999999881e-03 2.316584072929036786e+00
5.000000000000000278e-02 9.100930000000000131e-03 4.166928498581462526e-01
6.250000000000000347e-03 5.550209999999999866e-03 1.805267400550911727e+00
0.000000000000000000e+00 4.561920000000000124e-04 2.527553569400148969e+00
3.125000000000000173e-03 9.116839999999999319e-03 3.236474131654577313e+00
2.500000000000000139e-02 2.049220000000000035e-03 4.303323746815098438e+00
0.000000000000000000e+00 3.952000000000000109e-04 2.635876334619677408e+00
0.000000000000000000e+00 9.866880000000001049e-04 1.484311379333269176e+00
0.000000000000000000e+00 8.820479999999999684e-04 1.002692787509356087e+00
1.874999999999999931e-02 1.687939999999999970e-03 3.462028543892008869e+00
0.000000000000000000e+00 2.544480000000000006e-04 1.188838424221431156e+00
0.000000000000000000e+00 3.856640000000000263e-04 3.762458607504392205e+00
1.250000000000000069e-02 1.039100000000000050e-03 3.370791482824460505e+00
3.125000000000000173e-03 3.803020000000000012e-02 1.830906230684163472e+00
3.125000000000000173e-03 4.485310000000000165e-03 3.740043641853690204e+00
0.000000000000000000e+00 5.995520000000000493e-04 3.774721642107762953e+00
0.000000000000000000e+00 2.340159999999999983e-03 4.098229024692088274e+00
3.125000000000000173e-03 9.633709999999999496e-02 1.930991336564133576e+00
0.000000000000000000e+00 1.073600000000000075e-03 2.922059011932796935e+00
3.125000000000000173e-03 4.683839999999999879e-03 3.070293575019822363e+00
0.000000000000000000e+00 0.000000000000000000e+00 2.884230965959182491e+00
0.000000000000000000e+00 1.825980000000000051e-03 2.965466934331981275e+00
0.000000000000000000e+00 7.324999999999999697e-04 2.434615537042863487e+00
0.000000000000000000e+00 1.588860000000000099e-03 2.936971877621751048e+00
3.749999999999999861e-02 9.322850000000000581e-02 3.953947011032244774e+00
2.812500000000000069e-02 2.237890000000000192e-03 2.139709689963365413e+00
0.000000000000000000e+00 8.854380000000000020e-04 4.863019917451527618e-01
1.874999999999999931e-02 9.149090000000000000e-02 4.883668205998000111e+00
0.000000000000000000e+00 7.477760000000000179e-04 3.868175790262967650e-01
0.000000000000000000e+00 1.027839999999999917e-03 3.476629427749485135e+00
9.374999999999999653e-03 3.419740000000000280e-02 2.930424429207804771e+00
0.000000000000000000e+00 2.287200000000000057e-05 8.595946363358514253e-01
0.000000000000000000e+00 4.187999999999999882e-04 3.687562638711978646e+00
