0.000000000000000000e+00 2.893380000000000084e-03 1.990289403153697734e+00
6.250000000000000347e-03 1.719959999999999978e-03 3.012964515166605572e+00
4.687500000000000000e-02 9.255240000000000689e-02 3.942063956647473555e-01
2.187499999999999861e-02 2.021310000000000121e-03 3.054522874148057454e+00
0.000000000000000000e+00 8.520290000000000242e-04 4.619791325998230391e+00
0.000000000000000000e+00 3.750669999999999785e-04 2.292003130250157117e+00
5.000000000000000278e-02 9.203229999999999744e-02 2.850408862598130533e-02
3.437500000000000278e-02 3.120600000000000110e-02 3.937258058346947642e+00
0.000000000000000000e+00 9.248750000000000243e-04 4.982750345620615917e+00
6.250000000000000347e-03 4.292859999999999905e-03 3.734394373198646200e+00
0.000000000000000000e+00 7.037099999999999692e-04 4.385135019638340736e+00
1.562500000000000000e-02 2.436670000000000155e-03 3.677599974372563363e+00
0.000000000000000000e+00 9.330560000000000329e-04 1.191416494507373525e+00
0.000000000000000000e+00 9.340239999999999654e-02 2.648871770018601524e-02
0.000000000000000000e+00 1.490179999999999977e-02 3.279830565097113571e+00
6.250000000000000347e-03 1.006250000000000061e-01 3.014429251486055339e+00
0.000000000000000000e+00 2.545280000000000025e-03 3.219837475222919299e+00
0.000000000000000000e+00 7.285240000000000335e-04 4.707167115431669657e+00
0.000000000000000000e+00 9.021440000000000145e-04 1.848101946052909117e+00
2.500000000000000139e-02 4.592830000000000003e-03 2.195134703448397673e+00
0.000000000000000000e+00 3.696379999999999978e-03 4.502519337229388130e-01
9.374999999999999653e-03 9.767389999999999406e-02 1.685435448883353393e+00
0.000000000000000000e+00 2.710660000000000153e-03 4.312212515195190221e+00
0.000000000000000000e+00 1.027539999999999964e-03 4.847851198789832061e-03
1.562500000000000000e-02 2.449339999999999937e-03 1.483415702700155325e+00
0.000000000000000000e+00 2.787009999999999921e-03 2.912754215542446623e+00
0.000000000000000000e+00 1.072059999999999897e-03 1.719637733529794099e+00
0.000000000000000000e+00 5.111399999999999885e-04 2.508852203206098253e+00
0.000000000000000000e+00 1.044210000000000060e-03 4.104590362392308123e+00
6.250000000000000347e-03 9.799260000000000609e-03 1.222270300456939740e+00
0.000000000000000000e+00 9.950270000000000642e-03 1.711297730906469639e+00
6.250000000000000347e-03 9.564319999999999766e-02 2.193938685302052161e+00
0.000000000000000000e+00 9.603839999999999990e-04 7.439970140252438746e-01
0.000000000000000000e+00 3.860320000000000201e-04 3.699117581253982046e+00
0.000000000000000000e+00 1.095939999999999892e-03 7.820507421694095074e-01
6.250000000000000347e-03 3.276799999999999852e-03 4.967582312141508361e+00
0.000000000000000000e+00 7.786060000000000463e-04 7.202355962176371085e-01
9.374999999999999653e-03 1.652610000000000103e-03 5.491167606516877964e-01
1.250000000000000069e-02 3.375159999999999966e-02 2.591842563858526738e+00
0.000000000000000000e+00 1.335040000000000011e-04 1.577326834007319878e+00
3.125000000000000173e-03 1.172029999999999903e-03 3.431379261472274678e+00
0.000000000000000000e+00 7.397460000000000016e-04 4.907209679532085644e+00
0.000000000000000000e+00 2.725119999999999821e-04 3.769079932913154352e+00
1.874999999999999931e-02 9.277100000000000624e-02 4.209495642929419468e+00
5.000000000000000278e-02 9.495420000000000249e-02 2.599307729748101981e+00
0.000000000000000000e+00 2.017280000000000039e-04 8.875639550046870996e-01
6.250000000000000347e-03 1.065320000000000017e-01 3.842992780736965042e+00
9.374999999999999653e-03 7.178240000000000445e-04 4.562453865481985726e-01
1.874999999999999931e-02 9.432859999999999856e-02 3.270154668041616475e+00
6.250000000000000347e-03 1.559870000000000093e-03 6.982848400068036865e-01
0.000000000000000000e+00 1.157629999999999987e-03 6.223000278025969667e-01
0.000000000000000000e+00 3.835330000000000076e-03 2.451681576696154607e+00
0.000000000000000000e+00 0.000000000000000000e+00 8.194594849470943076e-01
2.187499999999999861e-02 1.083460000000000065e-03 2.353876511895057533e+00
0.000000000000000000e+00 2.278349999999999963e-05 4.240026658645613900e+00
0.000000000000000000e+00 1.510779999999999979e-03 1.608966135246692186e-02
0.000000000000000000e+00 1.534980000000000025e-03 3.080259910120295430e+00
0.000000000000000000e+00 2.508799999999999832e-04 1.834801857841895645e+00
1.250000000000000069e-02 1.185150000000000049e-03 3.675486247757786540e+00
3.125000000000000173e-03 2.163389999999999844e-03 4.549835804214691359e-01
2.500000000000000139e-02 1.892030000000000057e-03 8.233405710173646863e-01
1.874999999999999931e-02 3.540349999999999834e-03 2.168636586369279140e+00
0.000000000000000000e+00 2.589179999999999954e-03 4.137679382694096297e+00
3.125000000000000173e-03 8.080000000000000160e-04 1.078427133408006000e+00
0.000000000000000000e+00 2.286940000000000164e-05 2.910822172858569701e+00
2.187499999999999861e-02 2.199550000000000203e-03 4.914687178319302241e+00
9.374999999999999653e-03 2.525059999999999978e-03 1.224081445846594285e+00
4.374999999999999722e-02 9.113459999999999617e-02 1.381658975552674251e+00
0.000000000000000000e+00 1.774720000000000030e-03 2.786517451552785296e+00
1.562500000000000000e-02 2.409469999999999928e-03 3.439051983401194335e+00
6.250000000000000347e-03 1.872240000000000015e-02 4.145039762725395427e+00
3.749999999999999861e-02 9.255579999999999363e-02 2.025452991119119250e+00
0.000000000000000000e+00 1.633919999999999969e-04 2.334416839779094754e+00
0.000000000000000000e+00 2.281520000000000138e-05 1.786281260255304648e+00
0.000000000000000000e+00 4.074880000000000125e-04 3.451501772880574581e+00
1.250000000000000069e-02 8.048700000000000646e-03 4.492117964943302511e+00
0.000000000000000000e+00 1.944060000000000059e-03 4.063695538450496691e+00
5.000000000000000278e-02 9.621960000000000235e-02 1.070648136557528218e+00
2.187499999999999861e-02 2.709570000000000121e-03 2.705785529269738587e-01
0.000000000000000000e+00 2.059200000000000180e-03 4.316447237082009281e+00
0.000000000000000000e+00 5.694590000000000242e-03 1.778138513480796989e+00
0.000000000000000000e+00 1.950740000000000113e-02 2.936011382476989340e+00
0.000000000000000000e+00 4.412800000000000034e-04 2.465055002869628975e+00
2.500000000000000139e-02 4.037630000000000385e-03 2.509715888174192777e+00
0.000000000000000000e+00 1.276799999999999973e-04 1.207097229713323561e+00
0.000000000000000000e+00 1.019200000000000054e-03 2.126488967734001090e+00
3.125000000000000173e-03 7.544060000000000002e-03 4.279806508455321179e+00
0.000000000000000000e+00 1.678939999999999946e-02 1.075523283225289894e+00
0.000000000000000000e+00 4.411800000000000010e-04 3.438650226196340753e+00
6.250000000000000347e-03 2.012930000000000014e-03 1.636115000782666362e+00
2.500000000000000139e-02 2.357759999999999977e-03 4.694676923046548822e+00
2.500000000000000139e-02 3.102909999999999956e-03 3.978623157129781873e+00
0.000000000000000000e+00 1.977109999999999914e-04 2.332068179827639920e+00
0.000000000000000000e+00 4.125800000000000105e-04 2.963362981339214386e+00
0.000000000000000000e+00 9.912449999999999734e-04 3.618354385506830528e+00
7.499999999999999722e-02 9.097840000000000094e-02 4.295521657697578988e+00
1.874999999999999931e-02 2.330430000000000088e-03 3.340071294562316773e+00
0.000000000000000000e+00 1.304700000000000000e-03 1.588617797812629906e+00
6.250000000000000347e-03 2.038850000000000037e-03 5.875526268611475089e-01
0.000000000000000000e+00 1.865469999999999932e-03 1.796004987216697657e+00
0.000000000000000000e+00 2.911359999999999990e-04 4.093589107057312049e+00
1.562500000000000000e-02 1.754820000000000034e-03 1.672399772445980926e+00
1.562500000000000000e-02 2.021380000000000138e-03 3.780822838658136398e+00
3.125000000000000173e-03 2.220100000000000025e-03 3.739357633248950208e+00
1.250000000000000069e-02 2.195519999999999850e-03 3.621944208968337797e+00
0.000000000000000000e+00 4.372560000000000335e-02 2.445732387458524393e+00
6.250000000000000347e-03 3.276799999999999852e-03 8.009779865852634240e-01
0.000000000000000000e+00 1.842110000000000102e-03 1.227104205873924547e-01
0.000000000000000000e+00 1.621760000000000085e-03 5.478993364246476094e-01
0.000000000000000000e+00 5.395520000000000004e-03 1.131283597364119986e+00
9.374999999999999653e-03 4.358089999999999881e-02 4.606988073209935308e+00
0.000000000000000000e+00 4.238660000000000106e-04 2.716446232167648134e+00
2.187499999999999861e-02 1.556740000000000033e-03 1.971517364951514972e+00
1.874999999999999931e-02 1.731899999999999976e-03 3.879969583735208172e+00
4.687500000000000000e-02 9.179489999999999872e-02 2.914471551685633433e+00
1.250000000000000069e-02 2.433219999999999827e-03 3.886614157797917635e+00
2.500000000000000139e-02 1.062810000000000005e-01 3.999787845776817008e+00
3.125000000000000173e-03 1.480109999999999933e-02 1.044853288248546619e+00
1.562500000000000000e-02 2.218110000000000134e-03 2.516116814774926880e+00
0.000000000000000000e+00 6.337439999999999740e-02 1.928063279576769373e-01
2.187499999999999861e-02 2.355579999999999914e-03 3.531038316165165725e+00
0.000000000000000000e+00 9.865670000000000429e-04 5.432165189206245026e-01
3.125000000000000000e-02 9.721729999999999608e-03 1.348974536943857050e+00
0.000000000000000000e+00 1.505609999999999934e-02 9.276966707069533857e-01
8.749999999999999445e-02 9.080349999999999533e-02 2.651098310679926850e+00
2.812500000000000069e-02 2.335299999999999789e-03 4.460588085148259552e+00
0.000000000000000000e+00 2.923629999999999979e-02 4.937964515985679981e+00
0.000000000000000000e+00 7.016560000000000462e-04 4.390357723109251431e+00
0.000000000000000000e+00 1.094850000000000077e-03 2.731836116126567404e+00
0.000000000000000000e+00 9.880320000000000161e-04 4.285302228834819260e+00
1.874999999999999931e-02 1.910339999999999955e-03 1.597691995107358709e+00
0.000000000000000000e+00 8.160640000000000255e-04 4.868072213820252792e+00
3.125000000000000173e-03 2.274879999999999958e-03 4.103082467843339742e+00
0.000000000000000000e+00 2.040189999999999886e-03 7.932835391100900857e-02
0.000000000000000000e+00 4.656060000000000060e-03 4.997174431628542912e+00
0.000000000000000000e+00 1.853309999999999940e-03 3.491661052227468254e+00
0.000000000000000000e+00 9.344000000000000526e-04 3.063850396116769570e+00
6.250000000000000347e-03 2.040000000000000147e-03 1.297723165969879133e+00
2.500000000000000139e-02 6.757250000000000235e-03 1.890359747129902734e+00
1.874999999999999931e-02 9.149999999999999800e-02 3.995257800078945820e+00
6.250000000000000347e-03 1.061929999999999992e-02 2.716031040808737362e+00
0.000000000000000000e+00 1.149180000000000080e-03 3.279856729168251217e+00
6.250000000000000347e-03 1.842880000000000082e-03 2.426821639950732523e-01
4.687500000000000000e-02 9.196120000000000683e-02 2.168998204491519477e+00
0.000000000000000000e+00 6.473099999999999861e-03 4.390780467895150085e-01
3.125000000000000173e-03 4.562739999999999851e-02 1.173118189656317423e+00
1.874999999999999931e-02 2.543999999999999821e-03 5.283299077660608134e-01
1.874999999999999931e-02 1.872699999999999929e-03 1.726243270937380281e+00
3.437500000000000278e-02 9.277499999999999636e-02 9.244384566711383311e-01
9.374999999999999653e-03 2.197699999999999914e-03 2.059025673507787424e+00
1.562500000000000000e-02 2.820029999999999846e-03 3.846441786894959414e+00
0.000000000000000000e+00 6.535879999999999988e-03 4.254995454894054063e+00
1.562500000000000000e-02 1.678369999999999862e-02 4.272779079110675227e+00
0.000000000000000000e+00 4.781569999999999744e-03 1.282486176596214111e+00
3.125000000000000173e-03 1.586750000000000053e-03 3.458111533333702692e+00
0.000000000000000000e+00 5.450620000000000204e-04 2.585573358945181699e+00
0.000000000000000000e+00 1.459580000000000035e-03 2.682462319577876730e+00
0.000000000000000000e+00 1.152009999999999970e-03 4.747007591649219371e+00
2.187499999999999861e-02 1.470460000000000040e-03 4.042567518479394550e+00
2.500000000000000139e-02 1.877820000000000097e-03 1.231705311709810235e+00
3.125000000000000173e-03 7.720319999999999700e-04 8.825519188888525379e-01
2.812500000000000069e-02 2.118779999999999795e-03 4.483534640831788209e+00
6.250000000000000347e-03 3.276799999999999852e-03 8.085699367897725143e-01
9.374999999999999653e-03 7.779840000000000106e-04 1.269242541315376283e+00
1.562500000000000000e-02 3.161979999999999999e-03 1.894335936932538988e+00
2.500000000000000139e-02 9.203649999999999332e-02 2.582766021823854174e+00
1.562500000000000000e-02 1.931650000000000034e-03 3.855733311105251637e+00
0.000000000000000000e+00 2.280379999999999820e-03 6.318586186268559945e-01
1.250000000000000069e-02 4.638340000000000345e-03 1.684428053546226378e+00
1.874999999999999931e-02 2.125310000000000046e-03 5.154194698504138694e-01
9.374999999999999653e-03 2.053629999999999865e-03 3.045969994016194171e+00
0.000000000000000000e+00 7.354500000000000143e-04 4.299233758031445696e+00
0.000000000000000000e+00 5.786240000000000220e-04 3.123638030778911556e+00
9.374999999999999653e-03 1.050179999999999950e-03 4.071806954993769878e+00
0.000000000000000000e+00 9.812480000000001028e-04 4.327919022880488686e-02
0.000000000000000000e+00 9.154560000000000388e-04 4.336590476174634112e+00
2.812500000000000069e-02 2.445820000000000025e-03 4.381107526347080672e+00
0.000000000000000000e+00 2.904960000000000051e-04 1.486603038543515831e+00
1.562500000000000000e-02 3.063810000000000144e-03 1.991249888049988481e+00
9.374999999999999653e-03 1.974619999999999848e-02 1.578416205448234688e+00
0.000000000000000000e+00 3.931520000000000197e-04 3.550490326730167290e+00
0.000000000000000000e+00 8.912640000000000102e-04 3.220471668277379962e+00
0.000000000000000000e+00 4.420480000000000242e-02 1.193323171600346733e+00
0.000000000000000000e+00 1.146939999999999939e-03 3.677514428545076264e+00
0.000000000000000000e+00 3.860320000000000201e-04 1.958936765121516155e+00
2.812500000000000069e-02 1.995460000000000116e-03 4.590969388852681021e+00
0.000000000000000000e+00 3.313410000000000140e-03 3.688571092019369502e+00
0.000000000000000000e+00 1.561599999999999956e-04 7.874465802144281490e-01
3.125000000000000173e-03 3.857760000000000009e-04 2.086043427912820825e+00
3.125000000000000173e-03 2.045309999999999837e-03 4.373902828452479241e+00
0.000000000000000000e+00 1.956360000000000043e-02 2.944484825113335091e+00
0.000000000000000000e+00 1.281730000000000022e-03 4.013780733935826461e+00
3.125000000000000173e-03 9.506729999999999348e-02 3.785620533761848261e+00
0.000000000000000000e+00 2.446339999999999973e-03 1.335019336597922823e+00
9.374999999999999653e-03 5.445379999999999665e-03 1.827147957326503036e+00
2.187499999999999861e-02 2.053629999999999865e-03 1.158245479663271738e+00
0.000000000000000000e+00 2.010179999999999866e-03 2.444091936502915452e+00
3.125000000000000000e-02 9.189749999999999308e-02 2.942382579417169186e+00
0.000000000000000000e+00 1.087049999999999995e-03 3.721745481061086380e+00
2.500000000000000139e-02 2.175359999999999881e-03 3.976305086924843302e+00
6.250000000000000347e-03 9.439129999999999743e-02 2.468159925301165458e+00
2.187499999999999861e-02 2.487360000000000092e-03 1.734560086792868994e+00
0.000000000000000000e+00 9.584640000000000173e-04 3.072354888786255067e-01
0.000000000000000000e+00 3.837439999999999905e-04 3.152979764926355788e-01
1.250000000000000069e-02 2.683070000000000073e-03 4.213742891170886296e+00
0.000000000000000000e+00 1.451709999999999936e-03 4.091980987879183296e+00
0.000000000000000000e+00 1.498559999999999996e-02 4.881287252281915734e+00
9.374999999999999653e-03 2.662980000000000121e-03 3.344827819675934677e+00
0.000000000000000000e+00 8.364800000000000143e-04 2.185410361629782194e+00
2.500000000000000139e-02 3.278720000000000159e-03 3.340886156429875964e+00
6.250000000000000347e-03 1.261780000000000020e-02 1.690709350455857907e+00
0.000000000000000000e+00 7.469920000000000336e-04 1.322645292139924544e+00
1.562500000000000000e-02 9.533320000000000682e-02 2.427933486771905347e+00
0.000000000000000000e+00 2.923970000000000128e-03 3.172067570452315355e+00
6.250000000000000347e-03 9.749420000000000308e-02 2.038935999772004237e+00
0.000000000000000000e+00 6.425320000000000207e-04 2.424129061290259735e+00
0.000000000000000000e+00 3.869440000000000141e-04 9.266233051832717393e-01
0.000000000000000000e+00 1.508329999999999914e-02 4.755951365924333984e+00
9.374999999999999653e-03 3.570439999999999725e-02 3.331389842314705696e+00
1.874999999999999931e-02 9.256490000000000551e-02 2.576118390970598249e+00
6.875000000000000555e-02 9.475419999999999676e-02 2.647738034918576400e+00
6.250000000000000347e-03 3.276799999999999852e-03 2.650056041900179071e+00
0.000000000000000000e+00 1.563780000000000074e-03 2.926258897893154298e+00
0.000000000000000000e+00 5.863679999999999804e-04 3.232100858832450019e+00
6.250000000000000347e-03 3.824380000000000054e-03 4.135080396280949699e+00
4.374999999999999722e-02 2.944420000000000023e-02 1.872366913195253613e+00
0.000000000000000000e+00 6.057249999999999917e-04 1.752240385745911233e+00
0.000000000000000000e+00 3.748290000000000042e-03 3.104347406874041759e+00
0.000000000000000000e+00 2.745469999999999855e-03 2.916780419900434573e+00
0.000000000000000000e+00 1.470719999999999905e-04 3.170747694993259813e+00
0.000000000000000000e+00 5.315839999999999845e-04 2.426113664597368658e+00
0.000000000000000000e+00 7.667429999999999602e-04 4.307271761268506971e+00
0.000000000000000000e+00 0.000000000000000000e+00 2.101016103437520766e+00
2.812500000000000069e-02 2.503490000000000142e-03 2.002771974917879838e+00
6.250000000000000347e-03 9.922889999999999489e-02 4.145072961956540070e+00
0.000000000000000000e+00 1.937430000000000055e-02 1.312486955855600712e+00
3.125000000000000173e-03 1.568060000000000027e-03 1.764099279987029867e+00
2.187499999999999861e-02 1.826109999999999929e-03 2.881802841544361282e+00
0.000000000000000000e+00 9.696359999999999701e-02 4.863664628750337116e+00
0.000000000000000000e+00 4.262390000000000232e-04 8.280156434805763244e-01
2.812500000000000069e-02 2.338559999999999944e-03 3.239427495786028288e+00
1.250000000000000069e-02 1.931070000000000009e-03 3.293255272708730086e+00
1.250000000000000069e-02 2.226179999999999912e-03 1.622971456580250660e+00
0.000000000000000000e+00 1.725570000000000055e-03 3.197576750123034550e+00
1.250000000000000069e-02 1.661890000000000069e-03 4.025732975569427552e+00
0.000000000000000000e+00 6.087039999999999508e-04 4.526015666865807141e+00
0.000000000000000000e+00 3.735039999999999801e-04 1.192914177694937461e+00
6.250000000000000347e-03 7.464209999999999769e-03 3.455396717814484653e+00
0.000000000000000000e+00 1.041409999999999992e-03 1.702059775593544044e+00
8.749999999999999445e-02 2.028500000000000095e-02 2.423955100455476241e+00
0.000000000000000000e+00 6.298429999999999827e-03 1.769630485686093824e+00
3.437500000000000278e-02 8.504640000000000810e-03 2.978711355104358915e+00
9.374999999999999653e-03 6.841309999999999752e-03 1.180400941920202840e+00
0.000000000000000000e+00 2.721340000000000044e-03 4.003078373087049613e+00
2.812500000000000069e-02 4.288260000000000335e-03 2.901650223829721487e-01
0.000000000000000000e+00 9.649920000000000199e-04 2.776420034513480406e+00
2.500000000000000139e-02 2.657150000000000050e-03 4.222251849455999739e+00
2.187499999999999861e-02 1.798399999999999912e-03 4.179575430744788100e+00
6.250000000000000347e-03 9.863130000000000508e-02 2.868763663557865051e+00
0.000000000000000000e+00 2.324480000000000079e-04 1.650419752244787208e+00
1.562500000000000000e-02 2.515260000000000065e-03 4.818285005831234535e+00
2.187499999999999861e-02 4.278530000000000007e-03 4.298688403675904546e+00
0.000000000000000000e+00 4.020639999999999913e-04 2.288035598571214635e+00
0.000000000000000000e+00 5.284480000000000470e-04 2.256076084258960446e+00
3.125000000000000173e-03 1.638399999999999926e-03 4.280603933743742040e+00
1.250000000000000069e-02 1.711740000000000006e-03 2.501741075466470399e+00
1.562500000000000000e-02 3.019969999999999859e-03 1.009920419061222097e+00
6.250000000000000347e-03 6.639739999999999878e-03 4.371957687722733965e+00
9.374999999999999653e-03 2.366459999999999918e-03 1.435474272831207099e+00
2.500000000000000139e-02 4.791870000000000157e-03 4.809456129062728014e-01
0.000000000000000000e+00 9.757439999999999603e-04 1.412183906614801199e+00
4.687500000000000000e-02 9.330019999999999980e-02 1.727200599435019246e+00
9.374999999999999653e-03 2.484479999999999848e-03 4.440794271767677159e+00
0.000000000000000000e+00 1.579010000000000049e-03 5.464297484257896187e-01
0.000000000000000000e+00 1.170569999999999944e-02 2.439976110109856489e+00
6.250000000000000347e-03 1.271360000000000025e-03 2.494801049876788079e-01
0.000000000000000000e+00 3.788800000000000045e-04 3.527126926933354500e+00
1.562500000000000000e-02 1.920639999999999934e-03 1.843521755696716502e+00
0.000000000000000000e+00 3.675330000000000090e-03 4.682584263785713574e+00
2.500000000000000139e-02 3.580289999999999861e-03 5.385696420768865122e-01
1.562500000000000000e-02 2.516579999999999859e-02 3.077001820248547403e+00
0.000000000000000000e+00 5.565439999999999623e-04 1.628607637273112196e+00
0.000000000000000000e+00 1.106299999999999948e-03 2.189922839146468680e-01
0.000000000000000000e+00 3.987199999999999772e-04 2.916456893443673426e+00
0.000000000000000000e+00 6.474950000000000150e-02 1.351245997431311796e+00
2.187499999999999861e-02 1.997119999999999798e-03 3.333506290104159664e+00
9.374999999999999653e-03 2.739580000000000140e-03 4.369604522138136105e+00
0.000000000000000000e+00 7.574209999999999623e-03 2.029445535030132142e+00
0.000000000000000000e+00 8.177230000000000176e-04 4.443451263173862742e+00
0.000000000000000000e+00 1.134500000000000092e-03 3.709051308390332036e-01
0.000000000000000000e+00 1.723579999999999947e-03 4.411331727139025105e+00
3.125000000000000173e-03 1.052190000000000070e-02 3.166896414724708730e+00
3.125000000000000000e-02 9.448760000000000492e-02 2.318033776933648760e+00
0.000000000000000000e+00 1.164099999999999944e-03 7.492641140779549014e-01
2.812500000000000069e-02 1.348220000000000017e-03 2.596178236357884916e+00
2.500000000000000139e-02 3.708159999999999842e-03 2.319937749463434340e+00
0.000000000000000000e+00 1.855360000000000071e-04 1.253350753063163125e+00
2.187499999999999861e-02 2.407739999999999794e-03 2.123081062717782519e+00
1.874999999999999931e-02 2.392000000000000029e-03 2.895444434943566847e+00
3.125000000000000000e-02 1.100890000000000063e-01 3.701638697464011862e+00
6.250000000000000347e-03 1.140769999999999978e-02 2.559368620441985875e+00
0.000000000000000000e+00 0.000000000000000000e+00 3.713043178581805659e+00
0.000000000000000000e+00 8.289439999999999699e-04 2.200288382341483384e+00
0.000000000000000000e+00 4.299579999999999787e-04 1.395044181260469252e+00
0.000000000000000000e+00 1.851900000000000074e-03 3.389156380166368443e+00
0.000000000000000000e+00 1.424700000000000098e-03 3.571806611591433978e+00
3.125000000000000173e-03 9.126400000000000441e-04 3.110168111155113824e+00
2.187499999999999861e-02 1.854270000000000094e-03 2.988510407897337906e-01
0.000000000000000000e+00 2.844160000000000091e-03 4.518783949199932870e+00
3.125000000000000173e-03 6.606779999999999597e-03 2.027474680312361777e+00
0.000000000000000000e+00 2.656549999999999884e-02 4.065876205069137050e+00
0.000000000000000000e+00 1.522370000000000103e-03 4.138799312156173471e+00
0.000000000000000000e+00 2.031740000000000195e-03 1.894716840351731157e+00
0.000000000000000000e+00 9.302490000000000064e-03 2.001436523020216462e+00
3.125000000000000173e-03 3.826430000000000022e-03 4.127764566684106740e+00
0.000000000000000000e+00 1.077960000000000029e-01 3.801461652984471584e+00
0.000000000000000000e+00 4.602240000000000172e-04 2.948171913043835968e+00
0.000000000000000000e+00 4.207360000000000049e-04 1.047655248992212407e+00
0.000000000000000000e+00 1.700219999999999900e-03 1.226316675296875713e+00
2.187499999999999861e-02 1.729980000000000103e-03 3.306891933538122608e+00
0.000000000000000000e+00 1.646080000000000069e-04 8.246738507612477731e-01
1.250000000000000069e-02 2.073339999999999905e-03 2.183403938332470595e+00
0.000000000000000000e+00 5.923200000000000210e-04 4.614474017084858382e+00
2.500000000000000139e-02 2.646910000000000148e-03 8.810648925354941374e-01
1.562500000000000000e-02 1.222980000000000031e-03 2.398508973573277192e+00
0.000000000000000000e+00 1.489189999999999958e-02 1.144583140239155972e+00
0.000000000000000000e+00 1.119430000000000034e-03 2.937174442670008823e+00
0.000000000000000000e+00 3.164360000000000089e-02 2.099229535078927622e+00
2.812500000000000069e-02 3.127229999999999940e-03 2.843359255396518126e+00
2.187499999999999861e-02 3.129600000000000177e-03 3.463512402616891750e-01
2.812500000000000069e-02 1.813820000000000059e-03 2.434231280615937187e+00
0.000000000000000000e+00 9.489919999999999562e-04 2.751873685982417772e+00
4.374999999999999722e-02 7.889280000000000251e-03 3.766928873452864313e+00
9.374999999999999653e-03 1.278080000000000015e-03 2.328151107242590889e+00
0.000000000000000000e+00 5.522559999999999926e-04 3.222825539441516174e+00
0.000000000000000000e+00 2.281759999999999987e-05 4.115294321614987538e+00
1.562500000000000000e-02 1.037379999999999969e-01 3.826239459331649329e+00
1.250000000000000069e-02 2.107459999999999802e-03 3.459905511769916231e+00
3.125000000000000173e-03 3.830459999999999941e-03 1.907153283970092872e+00
5.625000000000000139e-02 2.627660000000000065e-02 1.485128937653888981e+00
0.000000000000000000e+00 2.558459999999999814e-03 1.112905214296036505e+00
1.874999999999999931e-02 2.432380000000000046e-03 8.345295638238520164e-01
2.812500000000000069e-02 1.920190000000000004e-03 2.224364224164721016e-01
0.000000000000000000e+00 3.677699999999999893e-03 2.506019787019203582e-01
2.500000000000000139e-02 2.853379999999999979e-03 4.351064718116891328e+00
1.562500000000000000e-02 2.516579999999999859e-02 4.178006909375243438e+00
3.125000000000000173e-03 4.915199999999999778e-03 3.648680904343740039e+00
0.000000000000000000e+00 5.844990000000000428e-04 3.627163491363203818e+00
0.000000000000000000e+00 9.404160000000000167e-04 3.950267097298969077e+00
3.125000000000000173e-03 1.477629999999999959e-03 4.324535486561115860e+00
6.250000000000000347e-03 9.772569999999999868e-02 2.190692260304923256e+00
0.000000000000000000e+00 2.246619999999999845e-05 2.167094981022366085e-01
2.500000000000000139e-02 9.616370000000000473e-02 1.779250456710682604e+00
6.250000000000000347e-03 2.408449999999999914e-03 2.790787383607368222e-01
3.125000000000000173e-03 9.807720000000000327e-02 4.693471423996038006e+00
2.500000000000000139e-02 1.691840000000000011e-03 3.794068687997453004e+00
1.562500000000000000e-02 1.216770000000000048e-03 1.453205118197929302e+00
0.000000000000000000e+00 1.744829999999999949e-03 2.205073638496919841e+00
0.000000000000000000e+00 4.371399999999999787e-04 1.871069433575178298e+00
0.000000000000000000e+00 6.300070000000000670e-02 5.487374102296366241e-01
0.000000000000000000e+00 8.260540000000000244e-03 1.742221044016519782e+00
0.000000000000000000e+00 3.973760000000000118e-04 4.831239571579465597e+00
0.000000000000000000e+00 4.293119999999999987e-04 4.267786418770730394e-01
3.125000000000000173e-03 8.490279999999999355e-03 3.002453544464489532e-02
6.250000000000000347e-03 3.276799999999999852e-03 1.859617570015649868e+00
3.437500000000000278e-02 9.166610000000000036e-02 3.366604266440326843e+00
1.874999999999999931e-02 2.943100000000000143e-03 3.989434931145330765e+00
2.500000000000000139e-02 9.386780000000000124e-02 2.339009345326735989e+00
0.000000000000000000e+00 1.667649999999999905e-03 2.062970808266033629e+00
9.374999999999999653e-03 1.600580000000000102e-03 2.580027763499168181e+00
0.000000000000000000e+00 5.806519999999999694e-04 3.755428185031484567e+00
3.437500000000000278e-02 9.730089999999999573e-02 4.538516493457377621e+00
0.000000000000000000e+00 2.649020000000000194e-03 2.319888782248762826e+00
1.562500000000000000e-02 1.019300000000000067e-02 1.500506177609733260e+00
0.000000000000000000e+00 2.806200000000000014e-02 8.431722708723887738e-02
9.062499999999999722e-02 9.185540000000000371e-02 3.039200533618501954e+00
6.250000000000000347e-03 1.419029999999999944e-02 3.590953247313044550e-01
0.000000000000000000e+00 2.107330000000000141e-03 2.283637799262391077e+00
0.000000000000000000e+00 7.323069999999999666e-04 1.451044767435193394e+00
0.000000000000000000e+00 9.930880000000000436e-04 1.811591723470872273e+00
0.000000000000000000e+00 3.615810000000000118e-03 2.318358828595302512e+00
2.812500000000000069e-02 2.233150000000000152e-03 4.512371273094199609e+00
0.000000000000000000e+00 4.878080000000000025e-04 2.163672953931024434e+00
0.000000000000000000e+00 3.995520000000000126e-04 2.887256000582221649e+00
7.499999999999999722e-02 2.600260000000000071e-02 3.116041343191051638e+00
5.625000000000000139e-02 1.055210000000000037e-01 3.912220393567893861e+00
3.125000000000000000e-02 2.020930000000000209e-03 2.545025747260869942e+00
0.000000000000000000e+00 4.395709999999999722e-03 3.729221732859206995e+00
0.000000000000000000e+00 7.346800000000000335e-04 1.869876538193828264e+00
3.125000000000000173e-03 1.300099999999999997e-03 1.972417269299187037e+00
0.000000000000000000e+00 3.722460000000000135e-04 9.187180123193672276e-01
3.125000000000000000e-02 9.368999999999999551e-02 1.803020931687110417e+00
2.812500000000000069e-02 1.067590000000000067e-01 4.099673994275178757e+00
0.000000000000000000e+00 3.834029999999999882e-04 9.395260379150538466e-01
0.000000000000000000e+00 1.293059999999999956e-03 2.711659259004864708e+00
3.125000000000000173e-03 2.676159999999999910e-03 2.949664578358168310e+00
0.000000000000000000e+00 2.298840000000000169e-05 5.595833005400918658e-01
0.000000000000000000e+00 1.597439999999999939e-04 1.301270346104563824e+00
0.000000000000000000e+00 6.218819999999999903e-03 3.995337955645150263e+00
0.000000000000000000e+00 2.423740000000000182e-03 3.848351147429624586e+00
2.812500000000000069e-02 2.453379999999999797e-03 1.630747569894974269e+00
0.000000000000000000e+00 1.777729999999999935e-03 3.150323555678214316e+00
0.000000000000000000e+00 6.219479999999999887e-04 7.574879235461517979e-01
9.374999999999999653e-03 9.354959999999999665e-02 3.083697488137456588e+00
6.250000000000000347e-03 1.281900000000000053e-02 1.420121229647415273e+00
0.000000000000000000e+00 7.126209999999999793e-04 2.784218444742896814e+00
1.250000000000000069e-02 1.062570000000000042e-01 3.564249044777559661e+00
2.500000000000000139e-02 3.024460000000000082e-03 1.738735592787576500e+00
2.812500000000000069e-02 1.959359999999999834e-03 2.413277764466180031e+00
0.000000000000000000e+00 3.748110000000000135e-04 9.168502448479104450e-01
0.000000000000000000e+00 1.479489999999999972e-03 3.799198944527650390e+00
2.812500000000000069e-02 2.003580000000000031e-03 1.288980782385459323e+00
0.000000000000000000e+00 7.371170000000000239e-04 9.949658193491550673e-01
1.874999999999999931e-02 1.659199999999999998e-03 4.177513451870064287e+00
2.187499999999999861e-02 2.133889999999999832e-03 4.108236776574059057e+00
0.000000000000000000e+00 2.157699999999999809e-03 3.669592190503379037e-01
2.187499999999999861e-02 3.096320000000000062e-03 1.863955728593983396e+00
0.000000000000000000e+00 8.967549999999999480e-03 3.552928484598261161e+00
0.000000000000000000e+00 1.473659999999999901e-03 8.481617539003905026e-01
0.000000000000000000e+00 3.730939999999999864e-03 2.485409498435060094e+00
0.000000000000000000e+00 6.677980000000000461e-04 4.577293724414868592e+00
3.125000000000000000e-02 2.518400000000000066e-03 4.097600831564058410e+00
0.000000000000000000e+00 3.507639999999999803e-03 2.820977115207158992e+00
3.125000000000000173e-03 2.499480000000000104e-02 1.923676580372399414e+00
9.374999999999999653e-03 9.191030000000000033e-02 4.046477732123897830e+00
2.187499999999999861e-02 2.967619999999999807e-03 9.664353454780860719e-01
2.500000000000000139e-02 2.364479999999999967e-03 2.152390908863357932e+00
0.000000000000000000e+00 1.843840000000000019e-04 2.080688535760412350e+00
0.000000000000000000e+00 9.919359999999999029e-04 4.780385646870456640e+00
0.000000000000000000e+00 5.155199999999999973e-04 1.067859832782198648e+00
1.562500000000000000e-02 2.046660000000000059e-03 5.735760689030311443e-02
2.500000000000000139e-02 2.614270000000000135e-03 2.134035044768869405e+00
1.874999999999999931e-02 1.616260000000000006e-03 2.818103104162991812e+00
2.187499999999999861e-02 1.384000000000000031e-03 6.870262925267772713e-01
3.125000000000000173e-03 2.131459999999999952e-03 2.398206107637534945e+00
2.500000000000000139e-02 1.890430000000000018e-03 1.720559606157439081e+00
1.250000000000000069e-02 1.859200000000000089e-03 3.436447272032800537e+00
2.500000000000000139e-02 9.049599999999999311e-02 2.633501382636147969e+00
2.187499999999999861e-02 1.271420000000000102e-03 4.572627525318812225e+00
1.874999999999999931e-02 4.634749999999999981e-03 2.822681600545340341e+00
3.125000000000000173e-03 2.527799999999999839e-02 1.126584537172475864e-01
1.562500000000000000e-02 2.211709999999999978e-03 4.028947386299807754e+00
1.250000000000000069e-02 5.169729999999999985e-03 1.797312432674091909e+00
0.000000000000000000e+00 3.803510000000000224e-02 1.445528886278597991e+00
9.374999999999999653e-03 3.276799999999999852e-03 1.065038880980599512e+00
0.000000000000000000e+00 3.760929999999999785e-04 3.221617116757058419e-03
0.000000000000000000e+00 9.598719999999999605e-04 3.232221362930963071e+00
0.000000000000000000e+00 6.478779999999999956e-03 3.558478934001516159e+00
3.125000000000000173e-03 1.071720000000000034e-01 7.919852244334457669e-01
4.374999999999999722e-02 9.261999999999999400e-02 1.777247308198635523e+00
2.812500000000000069e-02 1.856639999999999896e-03 2.947962400415600648e+00
0.000000000000000000e+00 5.711359999999999744e-04 3.249420280244091241e+00
0.000000000000000000e+00 2.433919999999999899e-04 4.359408359160660495e+00
3.125000000000000173e-03 1.071919999999999956e-01 8.214445258887098644e-01
0.000000000000000000e+00 2.893440000000000270e-04 3.423094918620805949e-01
0.000000000000000000e+00 2.312699999999999999e-03 2.128150973027195914e+00
3.125000000000000173e-03 1.330819999999999920e-03 1.948216670826670160e+00
1.250000000000000069e-02 1.873340000000000031e-03 3.599695527285669439e+00
0.000000000000000000e+00 3.558950000000000069e-04 2.478572642400775017e+00
0.000000000000000000e+00 1.113150000000000034e-03 4.210498277065055639e+00
1.250000000000000069e-02 5.702269999999999735e-03 3.543168796058832726e+00
9.374999999999999653e-03 1.098030000000000013e-02 3.109933211057641422e+00
1.562500000000000000e-02 1.565250000000000018e-03 2.828115138068798995e+00
0.000000000000000000e+00 2.448740000000000031e-03 3.975680231163983613e+00
0.000000000000000000e+00 2.141950000000000104e-03 3.716915651138388288e+00
1.562500000000000000e-02 2.172349999999999975e-03 4.546885036867733376e+00
0.000000000000000000e+00 2.300830000000000128e-05 3.504609931640256804e-02
3.125000000000000173e-03 6.917890000000000324e-03 3.244517412850763005e+00
3.125000000000000173e-03 3.096189999999999967e-03 2.009246441748659961e+00
0.000000000000000000e+00 1.914510000000000170e-02 1.271785553395387014e+00
0.000000000000000000e+00 1.104750000000000046e-03 3.172869348031564840e+00
6.250000000000000347e-03 2.350269999999999790e-03 4.730669527563565069e+00
0.000000000000000000e+00 2.618500000000000168e-03 1.499765756033666353e-01
0.000000000000000000e+00 9.082240000000000105e-04 4.743572170745839145e+00
6.250000000000000347e-03 1.373499999999999938e-03 4.513777638636375045e+00
1.874999999999999931e-02 1.791939999999999896e-03 7.070907385545061041e-01
0.000000000000000000e+00 1.055359999999999979e-03 4.066513193104340118e+00
4.687500000000000000e-02 9.231609999999999816e-02 4.711467068801675318e+00
0.000000000000000000e+00 5.681469999999999663e-04 2.447005872804515647e+00
0.000000000000000000e+00 2.506110000000000195e-03 4.486466552924539553e-01
0.000000000000000000e+00 1.130619999999999932e-03 3.932602458232973497e+00
0.000000000000000000e+00 4.745600000000000100e-04 7.157436197436223280e-01
0.000000000000000000e+00 1.036159999999999946e-03 1.621784233846501166e+00
0.000000000000000000e+00 1.785599999999999980e-04 2.230399079551182329e+00
2.812500000000000069e-02 2.108539999999999894e-03 2.201390270125214155e+00
2.812500000000000069e-02 1.153870000000000069e-02 1.342301002006036637e+00
0.000000000000000000e+00 6.455170000000000352e-02 4.978528553147065772e+00
0.000000000000000000e+00 1.564799999999999926e-04 4.418794158338457123e-01
1.562500000000000000e-02 2.123019999999999907e-01 4.380581871841537911e-01
0.000000000000000000e+00 3.012479999999999997e-04 3.979664833328482310e+00
3.125000000000000173e-03 1.709060000000000093e-02 4.968728946737940078e+00
0.000000000000000000e+00 7.253820000000000016e-04 2.199780356810238757e+00
3.125000000000000173e-03 1.040450000000000055e-03 3.882320453024846962e+00
0.000000000000000000e+00 1.010800000000000066e-03 4.824929863010523512e+00
2.500000000000000139e-02 2.189700000000000153e-03 4.798499922164181086e+00
0.000000000000000000e+00 3.891839999999999926e-04 2.245125314944760753e+00
2.500000000000000139e-02 2.976320000000000181e-03 3.598067202051423941e+00
0.000000000000000000e+00 2.027199999999999835e-03 4.738731048857208750e-01
0.000000000000000000e+00 1.170380000000000031e-02 6.795363014634908660e-01
0.000000000000000000e+00 9.303039999999999617e-04 4.517212892897681797e-01
0.000000000000000000e+00 4.237380000000000009e-04 4.679105732500352666e+00
3.125000000000000173e-03 7.982790000000000025e-03 1.445929078794827127e+00
3.125000000000000173e-03 2.438909999999999863e-03 2.939261520619207868e+00
0.000000000000000000e+00 9.765120000000000180e-04 2.847233243942033365e+00
2.187499999999999861e-02 3.758459999999999926e-03 4.172958635285592521e+00
1.562500000000000000e-02 2.398529999999999846e-03 9.789333545309919504e-01
0.000000000000000000e+00 9.079230000000000633e-03 2.277733034898022701e+00
1.093750000000000000e-01 9.202230000000000132e-02 3.840705792334941915e-01
1.562500000000000000e-02 9.227699999999999791e-02 3.809236975942674075e+00
0.000000000000000000e+00 1.679320000000000118e-02 1.107196888940192858e-01
2.500000000000000139e-02 1.929409999999999892e-03 2.995992549025577878e-01
3.125000000000000000e-02 2.531390000000000116e-03 4.797458334863621943e+00
0.000000000000000000e+00 9.454080000000000122e-04 3.351359598202130030e+00
0.000000000000000000e+00 1.711560000000000165e-02 3.476457127675436798e+00
3.125000000000000173e-03 1.537739999999999940e-02 6.176075623869792253e-02
2.187499999999999861e-02 6.325989999999999391e-02 1.387505905201538159e+00
1.874999999999999931e-02 1.595580000000000089e-03 4.343067339981550035e+00
0.000000000000000000e+00 2.463819999999999899e-02 1.205568271842578199e+00
6.250000000000000347e-03 3.276799999999999852e-03 3.308045972843648430e-01
1.874999999999999931e-02 1.807260000000000116e-02 4.943557190282255043e+00
0.000000000000000000e+00 2.228420000000000054e-03 4.788395991478439306e+00
0.000000000000000000e+00 2.266620000000000006e-03 2.604391840278872827e+00
0.000000000000000000e+00 8.905599999999999844e-04 1.383588957227077199e+00
3.125000000000000173e-03 1.765230000000000011e-03 3.698265382775374643e+00
2.187499999999999861e-02 1.631489999999999980e-03 2.194567403664820393e+00
0.000000000000000000e+00 0.000000000000000000e+00 2.501354875070795902e+00
6.250000000000000347e-03 2.471810000000000066e-03 2.792184897775919605e+00
1.250000000000000069e-02 2.109310000000000091e-03 4.537734154601492875e+00
0.000000000000000000e+00 4.124159999999999762e-04 2.227590639242453374e+00
3.125000000000000173e-03 6.058690000000000256e-03 1.551784353624799939e+00
0.000000000000000000e+00 1.748420000000000096e-03 1.592591214341069206e+00
0.000000000000000000e+00 3.382270000000000155e-03 4.338336416170548659e+00
1.250000000000000069e-02 2.650239999999999888e-03 3.388392797082175445e+00
0.000000000000000000e+00 8.366079999999999697e-04 2.597408728630123953e+00
0.000000000000000000e+00 2.381440000000000022e-04 3.999049915468302352e+00
0.000000000000000000e+00 1.064000000000000059e-03 5.404648679932894106e-01
0.000000000000000000e+00 4.391869999999999975e-03 1.568434623951023177e+00
0.000000000000000000e+00 4.061040000000000136e-04 1.741622881066828832e-02
1.562500000000000000e-02 2.169540000000000184e-03 4.449758784171060633e+00
0.000000000000000000e+00 1.452670000000000090e-03 4.427029830908701058e+00
0.000000000000000000e+00 4.112639999999999981e-04 3.974196788566023208e+00
0.000000000000000000e+00 4.189290000000000136e-04 1.308925448845427830e+00
3.125000000000000173e-03 5.576309999999999470e-04 2.969566213660408849e+00
0.000000000000000000e+00 1.542399999999999869e-04 9.701832863050774414e-01
0.000000000000000000e+00 1.514239999999999922e-04 2.462159369996718361e+00
0.000000000000000000e+00 1.623680000000000013e-04 2.678895726853179227e+00
6.250000000000000347e-03 1.630850000000000095e-03 6.450807859203100403e-02
1.250000000000000069e-02 1.834499999999999976e-03 4.412507402432199299e+00
2.500000000000000139e-02 1.052310000000000051e-01 4.627483752281060347e+00
0.000000000000000000e+00 4.238660000000000106e-04 2.973525006584436081e+00
0.000000000000000000e+00 1.611330000000000011e-03 9.298607464701191816e-01
3.125000000000000173e-03 9.532229999999999870e-02 4.565537217665250225e+00
0.000000000000000000e+00 2.298820000000000125e-05 1.078493026813891920e+00
0.000000000000000000e+00 5.088319999999999692e-04 1.022859751749258361e+00
0.000000000000000000e+00 4.213010000000000106e-04 5.715602817132553470e-01
2.187499999999999861e-02 3.227069999999999852e-03 1.357688738013849594e+00
0.000000000000000000e+00 1.240430000000000048e-03 4.161904580975545720e+00
0.000000000000000000e+00 5.075200000000000197e-04 1.235439093259738108e-01
0.000000000000000000e+00 1.001310000000000047e-03 6.540515674690683401e-01
0.000000000000000000e+00 3.892800000000000080e-03 2.966333221772554651e+00
0.000000000000000000e+00 3.741050000000000104e-04 3.337634278339485228e+00
2.187499999999999861e-02 2.214460000000000126e-03 2.393475543314038667e+00
0.000000000000000000e+00 1.936480000000000146e-02 1.469261971174204540e+00
1.874999999999999931e-02 2.816260000000000117e-03 1.692854823110222506e+00
6.250000000000000347e-03 3.276799999999999852e-03 1.385534981593598003e+00
1.250000000000000069e-02 2.121719999999999995e-01 4.862534223318138338e+00
0.000000000000000000e+00 2.360060000000000196e-03 1.705248470458331500e-02
0.000000000000000000e+00 1.510000000000000057e-02 3.994793690528453567e+00
0.000000000000000000e+00 1.120509999999999909e-03 1.370667403293566178e+00
0.000000000000000000e+00 4.230020000000000134e-03 4.221699879019841894e+00
0.000000000000000000e+00 2.198850000000000023e-03 2.529959125669743791e+00
2.500000000000000139e-02 2.457600000000000062e-02 1.752718919266138098e+00
9.374999999999999653e-03 9.562829999999999941e-02 4.671216546453457852e+00
0.000000000000000000e+00 1.101889999999999901e-03 3.233278537034306455e-01
1.562500000000000000e-02 1.807039999999999992e-03 2.987916694872120082e+00
1.562500000000000000e-02 2.015739999999999806e-03 3.329532893223853485e+00
1.874999999999999931e-02 1.971329999999999871e-03 4.409152462176122889e+00
2.187499999999999861e-02 2.091969999999999854e-03 2.543598521672723045e+00
0.000000000000000000e+00 1.022590000000000087e-03 9.772195271063521815e-01
0.000000000000000000e+00 1.757950000000000094e-03 4.305782977603453077e+00
1.562500000000000000e-02 2.424060000000000017e-03 1.078891342491425487e+00
6.250000000000000347e-03 3.276799999999999852e-03 4.020311036940451110e+00
0.000000000000000000e+00 0.000000000000000000e+00 1.625936873117378445e+00
6.250000000000000347e-03 1.612350000000000024e-03 4.435837346579424967e+00
0.000000000000000000e+00 2.555840000000000195e-03 1.093443352881204866e+00
1.874999999999999931e-02 9.180929999999999647e-02 4.056256600348778107e+00
0.000000000000000000e+00 3.747460000000000201e-04 1.681611823592965571e+00
0.000000000000000000e+00 7.572800000000000191e-03 3.264195639274127814e+00
0.000000000000000000e+00 3.986109999999999653e-02 4.122785846024501488e+00
0.000000000000000000e+00 9.627099999999999764e-04 2.288541081373693498e+00
3.125000000000000000e-02 8.019790000000000599e-03 2.491653521094605583e+00
6.250000000000000347e-03 2.479199999999999980e-03 3.472985572751359218e+00
0.000000000000000000e+00 1.895619999999999987e-03 1.270485367125795850e+00
9.374999999999999653e-03 9.719210000000000349e-02 1.667876884015151884e+00
1.250000000000000069e-02 1.410709999999999915e-02 3.081994943672085263e+00
0.000000000000000000e+00 1.129919999999999970e-03 8.565511275868914476e-01
0.000000000000000000e+00 6.348799999999999930e-03 2.023027966603527350e+00
0.000000000000000000e+00 2.892860000000000136e-03 1.873224777334825397e+00
6.250000000000000347e-03 1.728359999999999966e-03 2.250311651176180039e+00
2.187499999999999861e-02 2.819330000000000100e-03 3.901623874098682165e+00
0.000000000000000000e+00 1.487419999999999931e-03 3.366457046313616086e+00
9.374999999999999653e-03 9.341399999999999704e-02 2.195020993430073730e+00
6.250000000000000347e-03 1.624959999999999946e-03 2.666539142688511443e+00
0.000000000000000000e+00 3.897600000000000088e-04 3.520483420657054108e+00
0.000000000000000000e+00 1.496509999999999941e-03 8.356917767482707760e-02
3.125000000000000173e-03 9.306580000000000408e-02 2.348390189823296836e+00
1.250000000000000069e-02 7.679039999999999824e-03 1.374553503587395697e+00
0.000000000000000000e+00 9.550080000000000287e-04 3.413230305827549493e+00
1.562500000000000000e-02 2.650109999999999792e-03 4.285125478344445682e+00
0.000000000000000000e+00 1.217790000000000062e-03 3.210546172675304843e-01
0.000000000000000000e+00 4.408399999999999819e-03 3.647687925882477256e+00
0.000000000000000000e+00 4.632960000000000203e-03 1.839608828448690003e+00
0.000000000000000000e+00 3.710079999999999823e-04 6.471009420305551263e-01
1.250000000000000000e-01 8.050279999999999936e-02 2.084248757801610008e-02
2.812500000000000069e-02 3.926139999999999838e-03 4.543899169145379169e+00
0.000000000000000000e+00 9.797670000000000944e-04 2.780546136383724054e+00
0.000000000000000000e+00 8.928780000000000527e-04 4.801562065047191297e+00
0.000000000000000000e+00 1.938449999999999895e-02 2.182101504767725020e-01
0.000000000000000000e+00 9.818240000000000647e-04 4.795198089883212944e+00
6.250000000000000347e-03 9.784610000000000529e-02 2.001555394935106591e+00
0.000000000000000000e+00 7.310889999999999793e-04 3.233148569526091531e+00
0.000000000000000000e+00 3.562050000000000199e-03 4.578028074018074989e+00
7.812500000000000000e-02 9.232029999999999403e-02 2.760431503037445555e+00
0.000000000000000000e+00 4.319360000000000061e-04 3.259670883838463595e+00
2.500000000000000139e-02 1.956859999999999936e-03 2.469649826312462881e+00
0.000000000000000000e+00 4.450920000000000137e-04 1.828666038183065501e+00
0.000000000000000000e+00 4.437579999999999997e-03 6.077148725308578747e-01
2.500000000000000139e-02 6.969229999999999869e-03 4.594902735974060182e-01
3.125000000000000000e-02 4.747529999999999806e-02 4.203149496440456545e+00
2.812500000000000069e-02 1.017110000000000063e-02 1.987342754161814273e+00
0.000000000000000000e+00 3.960960000000000240e-04 1.346759927190776640e+00
0.000000000000000000e+00 1.067110000000000020e-03 4.978944420090151368e+00
3.125000000000000173e-03 9.237120000000000357e-04 3.023919511068170252e+00
0.000000000000000000e+00 1.757950000000000094e-03 4.271923005214784297e+00
0.000000000000000000e+00 7.911490000000000189e-03 3.494131219238481467e+00
0.000000000000000000e+00 3.840639999999999874e-04 2.612323541109121905e+00
1.874999999999999931e-02 2.540160000000000074e-03 9.379595390193590232e-01
0.000000000000000000e+00 3.083829999999999905e-02 5.087648288958246390e-01
9.374999999999999653e-03 1.899899999999999940e-03 2.100357043967804316e+00
0.000000000000000000e+00 3.860480000000000010e-04 4.138475184516608785e+00
