1.874999999999999931e-02 2.135489999999999871e-03 3.300203947244869873e+00
3.125000000000000173e-03 1.517089999999999932e-02 2.551652143737512368e+00
6.250000000000000347e-03 1.077700000000000012e-03 8.234734164272866641e-01
0.000000000000000000e+00 1.873949999999999905e-05 2.186412276108288921e+00
3.125000000000000173e-03 1.047619999999999940e-01 2.681117279055293956e+00
0.000000000000000000e+00 4.239299999999999883e-04 7.555854921456356399e-01
0.000000000000000000e+00 1.721150000000000067e-03 3.827929182899425520e-01
0.000000000000000000e+00 3.798760000000000201e-04 4.243044581396473447e+00
0.000000000000000000e+00 9.874619999999999318e-04 9.965088060969612416e-01
3.125000000000000173e-03 4.013239999999999863e-02 9.725851371123700462e-01
3.437500000000000278e-02 1.050200000000000022e-01 5.497098607858758035e-01
2.187499999999999861e-02 1.974979999999999878e-03 8.773888831028764379e-01
2.812500000000000069e-02 9.503219999999999723e-02 4.699868515786342016e+00
3.125000000000000173e-03 1.802620000000000004e-03 2.191765719538131929e+00
0.000000000000000000e+00 6.546520000000000334e-04 2.816258259455211022e+00
2.500000000000000139e-02 2.890559999999999918e-03 3.188594365212637616e+00
0.000000000000000000e+00 3.919999999999999873e-04 3.515337099925831765e+00
0.000000000000000000e+00 4.270079999999999883e-04 4.264560628528880848e+00
0.000000000000000000e+00 1.933939999999999965e-02 1.202698555899237132e+00
0.000000000000000000e+00 1.153729999999999947e-03 2.217806782886676764e+00
6.250000000000000347e-03 2.136900000000000171e-03 4.834312241078056793e+00
0.000000000000000000e+00 1.135039999999999921e-03 2.300910816724899277e-02
3.125000000000000173e-03 7.978690000000000088e-03 5.382301451586302132e-02
0.000000000000000000e+00 3.726940000000000201e-04 4.719835752194023737e-01
0.000000000000000000e+00 2.478080000000000235e-04 1.765212229608171146e+00
2.187499999999999861e-02 2.020350000000000184e-03 2.491911773080240255e+00
0.000000000000000000e+00 6.219070000000000153e-03 4.643229053084269031e-01
0.000000000000000000e+00 1.038660000000000061e-03 3.087076407274084833e+00
0.000000000000000000e+00 7.276259999999999889e-04 2.948982043158871136e+00
0.000000000000000000e+00 7.573760000000000344e-04 5.212743227176425131e-01
2.812500000000000069e-02 2.834940000000000203e-03 2.434544029442281321e+00
0.000000000000000000e+00 6.448969999999999703e-02 9.974899347339816202e-01
3.125000000000000173e-03 1.293700000000000058e-03 3.016340161960266553e+00
1.250000000000000069e-02 2.515780000000000013e-03 2.986758490904052987e+00
5.625000000000000139e-02 9.258610000000000451e-02 5.162634274253097288e-01
4.374999999999999722e-02 7.684670000000000216e-03 2.124542651884905986e+00
0.000000000000000000e+00 3.758370000000000135e-04 1.776087925112187493e+00
0.000000000000000000e+00 1.949669999999999875e-02 1.403797913328560520e+00
2.500000000000000139e-02 4.179579999999999580e-03 3.753649692114115588e+00
2.500000000000000139e-02 5.671680000000000124e-03 3.666143954671640781e+00
1.250000000000000069e-02 4.926909999999999623e-03 1.029256613097838668e+00
0.000000000000000000e+00 2.496130000000000050e-03 3.363974557861382220e-01
0.000000000000000000e+00 5.303419999999999662e-03 3.727091050647819426e+00
3.125000000000000173e-03 9.164620000000000058e-03 3.907384391851416172e+00
0.000000000000000000e+00 1.161020000000000021e-03 3.429573401205611827e+00
0.000000000000000000e+00 1.961660000000000140e-02 3.508511642418449483e+00
6.250000000000000347e-03 9.521910000000000096e-02 1.429524358740856815e+00
2.500000000000000139e-02 3.492799999999999898e-03 4.204326240569547402e+00
6.562500000000000278e-02 9.175969999999999960e-02 3.966330738712027237e+00
0.000000000000000000e+00 9.839359999999999253e-04 4.285542592547813001e+00
1.562500000000000000e-02 1.566080000000000076e-03 4.608500757827695082e+00
2.500000000000000139e-02 9.635970000000000646e-02 1.748366657371602795e-02
2.500000000000000139e-02 1.781379999999999943e-03 4.371801295057381687e+00
2.500000000000000139e-02 9.307500000000000495e-02 6.594589780024345815e-01
1.250000000000000069e-02 2.631740000000000034e-03 3.557444737585124361e+00
0.000000000000000000e+00 5.695040000000000172e-03 1.187497682162083068e+00
0.000000000000000000e+00 1.497159999999999984e-02 2.291274484605354544e+00
0.000000000000000000e+00 7.265999999999999889e-04 1.277524311720333205e+00
0.000000000000000000e+00 4.260460000000000202e-04 1.766412614597534514e+00
6.250000000000000347e-03 9.503000000000000336e-02 2.295639859774378788e-01
5.000000000000000278e-02 7.005009999999999883e-03 2.374058621481622833e+00
0.000000000000000000e+00 9.674320000000000142e-02 1.906635523955788170e+00
0.000000000000000000e+00 1.133249999999999926e-03 3.315902346483062813e-01
9.374999999999999653e-03 1.883710000000000028e-03 3.880150632657336507e-01
2.812500000000000069e-02 1.203070000000000007e-02 3.292829399094246767e+00
0.000000000000000000e+00 1.860289999999999904e-03 1.425405613055072962e+00
1.874999999999999931e-02 2.453949999999999881e-03 4.188501540374967469e+00
0.000000000000000000e+00 7.086080000000000026e-04 1.258551582547727810e+00
3.125000000000000173e-03 9.548879999999999868e-02 3.536907632955485603e+00
0.000000000000000000e+00 3.539069999999999846e-04 1.837056692517758272e+00
3.437500000000000278e-02 9.200149999999999995e-02 2.970812540499789822e-01
0.000000000000000000e+00 1.129659999999999996e-03 2.430618703431974836e-02
0.000000000000000000e+00 1.701759999999999916e-04 1.135700354320482441e+00
2.187499999999999861e-02 9.968380000000000296e-02 4.657532047819976206e+00
0.000000000000000000e+00 3.886720000000000084e-04 3.248057526241978188e+00
0.000000000000000000e+00 2.992449999999999798e-03 2.159374462435740938e+00
2.500000000000000139e-02 9.650560000000000518e-04 2.949785978344221515e+00
1.250000000000000069e-02 2.279230000000000145e-03 3.486937253879538456e+00
0.000000000000000000e+00 2.047619999999999996e-03 4.165238680215413325e+00
0.000000000000000000e+00 9.695059999999999789e-02 4.657621606705238726e+00
0.000000000000000000e+00 9.944319999999999549e-04 3.681094528284248213e+00
0.000000000000000000e+00 1.132479999999999945e-03 1.467240623245293918e+00
0.000000000000000000e+00 7.351929999999999793e-04 2.814745479489875191e+00
0.000000000000000000e+00 1.487940000000000096e-03 1.773535861241880562e+00
6.250000000000000347e-03 3.932930000000000280e-03 1.336805431857516213e+00
0.000000000000000000e+00 6.328259999999999615e-03 2.997630860075096493e+00
0.000000000000000000e+00 1.642749999999999896e-03 3.373951666725178100e+00
0.000000000000000000e+00 2.242440000000000058e-02 3.562144352703144889e-01
3.125000000000000173e-03 9.825620000000000187e-02 4.002558426490185006e+00
6.250000000000000347e-03 9.549950000000000105e-02 7.073324082227383514e-03
0.000000000000000000e+00 3.905919999999999900e-04 1.629712526354055058e+00
2.812500000000000069e-02 6.169909999999999978e-02 2.797709803694641728e+00
0.000000000000000000e+00 8.030209999999999432e-03 1.396386984115371988e+00
9.374999999999999653e-03 2.335680000000000135e-03 8.673605487758923038e-01
3.125000000000000173e-03 1.519619999999999955e-03 2.279535973383600478e+00
2.812500000000000069e-02 2.850559999999999813e-03 2.810877311125427713e+00
2.187499999999999861e-02 3.024129999999999874e-03 1.795085313510016878e+00
0.000000000000000000e+00 5.284799999999999914e-02 3.706114771682365472e+00
0.000000000000000000e+00 9.457279999999999550e-04 6.371516750983308164e-01
0.000000000000000000e+00 1.063380000000000054e-03 4.817649630428305407e+00
1.874999999999999931e-02 1.026610000000000023e-02 2.145598071132889473e+00
0.000000000000000000e+00 3.087550000000000103e-03 2.275755765096364236e+00
6.250000000000000347e-03 9.338880000000000792e-03 2.733608095955465167e+00
0.000000000000000000e+00 8.687999999999999759e-04 1.220578779138005832e+00
0.000000000000000000e+00 3.544199999999999846e-04 2.207649422680091345e+00
1.562500000000000000e-02 2.516579999999999859e-02 4.707301742615314311e+00
0.000000000000000000e+00 7.246719999999999898e-04 1.184200521222288360e+00
0.000000000000000000e+00 2.200129999999999794e-03 2.655262906342028106e+00
0.000000000000000000e+00 3.809020000000000201e-04 7.836935409722356471e-01
0.000000000000000000e+00 1.212219999999999964e-03 1.982803053744353505e+00
1.250000000000000069e-02 1.811579999999999918e-03 4.257938094043448807e+00
0.000000000000000000e+00 3.582030000000000262e-04 1.494976894751737229e-01
6.250000000000000347e-03 1.004799999999999921e-03 1.257513608455538723e+00
1.250000000000000069e-02 9.609130000000000449e-02 2.147712856566091899e-01
0.000000000000000000e+00 8.469380000000000311e-03 1.322075748972782350e+00
0.000000000000000000e+00 1.126779999999999969e-03 1.397595258677447605e-01
4.687500000000000000e-02 9.463869999999999227e-03 4.459029957710226810e+00
0.000000000000000000e+00 7.597529999999999475e-04 4.015350311926406235e+00
0.000000000000000000e+00 5.261820000000000386e-03 4.646074332703151732e+00
0.000000000000000000e+00 2.553199999999999827e-03 2.295560279713923180e+00
0.000000000000000000e+00 8.147729999999999730e-04 4.529329088666218084e+00
3.125000000000000173e-03 6.242369999999999690e-03 4.658275165642518978e+00
0.000000000000000000e+00 1.235049999999999907e-03 2.085275493430125415e+00
0.000000000000000000e+00 9.778560000000000377e-04 2.415571692679688187e+00
3.125000000000000173e-03 1.056929999999999953e-01 1.482265639439706018e-02
0.000000000000000000e+00 1.248320000000000029e-03 9.790738226503042929e-01
0.000000000000000000e+00 3.674880000000000160e-04 1.639509088562498995e+00
2.500000000000000139e-02 2.661499999999999803e-03 1.716684959598905325e+00
2.812500000000000069e-02 1.811330000000000101e-03 3.515843985754905532e+00
0.000000000000000000e+00 1.183200000000000050e-02 2.490534524061105426e-01
0.000000000000000000e+00 3.662589999999999856e-03 4.588676305332134442e-01
0.000000000000000000e+00 0.000000000000000000e+00 4.490383733335658434e+00
0.000000000000000000e+00 2.318140000000000136e-05 2.516474181639708263e+00
0.000000000000000000e+00 2.954880000000000007e-04 2.821680832963646246e+00
3.125000000000000173e-03 1.032319999999999939e-02 2.101930109974662564e+00
0.000000000000000000e+00 1.660800000000000091e-04 3.536562131353981897e+00
0.000000000000000000e+00 2.439489999999999888e-03 1.138071045630204114e+00
0.000000000000000000e+00 4.023200000000000105e-04 9.945480949315221864e-01
2.812500000000000069e-02 2.298940000000000185e-03 2.985551535246246946e+00
0.000000000000000000e+00 1.267899999999999973e-03 1.087325576184552389e+00
0.000000000000000000e+00 1.920430000000000054e-02 2.021574937166565444e+00
0.000000000000000000e+00 1.506270000000000005e-02 4.132633879587440440e+00
0.000000000000000000e+00 1.078589999999999931e-03 5.793153669849715470e-01
0.000000000000000000e+00 7.296139999999999570e-04 3.306426301080475305e+00
3.437500000000000278e-02 9.145810000000000051e-02 4.331242337586677094e-01
0.000000000000000000e+00 4.083840000000000256e-04 2.571523196920146859e+00
2.187499999999999861e-02 2.124669999999999892e-01 2.360979781235801767e+00
1.874999999999999931e-02 2.367230000000000115e-03 3.404820083149348697e+00
3.125000000000000173e-03 1.029809999999999927e-02 4.531340259714271568e+00
0.000000000000000000e+00 8.400770000000000546e-06 6.622988387017308964e-01
0.000000000000000000e+00 2.675779999999999999e-03 1.986679978256682855e+00
2.812500000000000069e-02 9.376230000000000675e-02 1.473935644845798087e+00
0.000000000000000000e+00 1.960959999999999873e-04 6.660440583263649295e-02
2.812500000000000069e-02 2.549060000000000128e-03 3.895373887523284617e-01
0.000000000000000000e+00 3.707070000000000135e-04 1.612942429105582054e+00
9.374999999999999653e-03 1.946500000000000096e-03 1.765446669058492013e+00
1.874999999999999931e-02 1.749120000000000058e-03 3.696838383007663875e+00
3.125000000000000000e-02 1.366910000000000043e-03 5.983850521509892495e-01
3.125000000000000173e-03 2.138049999999999846e-03 4.876922039349596893e+00
2.812500000000000069e-02 1.838980000000000042e-03 1.041851175834066501e+00
0.000000000000000000e+00 1.046849999999999994e-03 3.725101961996510447e+00
0.000000000000000000e+00 7.901440000000000026e-04 1.664480881067033069e+00
2.187499999999999861e-02 9.314769999999999994e-02 2.516441142273579512e+00
0.000000000000000000e+00 2.292600000000000039e-05 7.512090399835291699e-01
3.125000000000000173e-03 2.104770000000000165e-03 1.462532222941216320e+00
0.000000000000000000e+00 1.358779999999999970e-03 3.669431948377150476e+00
0.000000000000000000e+00 4.713830000000000233e-04 4.896664558373949205e+00
0.000000000000000000e+00 1.294589999999999977e-03 6.759084371374135536e-01
0.000000000000000000e+00 1.010300000000000000e-03 4.073430329210225853e-01
2.500000000000000139e-02 9.395200000000000036e-04 1.036444532597757817e-01
3.125000000000000000e-02 2.457280000000000054e-03 4.029528088132190433e+00
2.500000000000000139e-02 3.341950000000000216e-03 2.241919781059293904e+00
3.125000000000000173e-03 8.042300000000000490e-03 3.704910719301621747e+00
0.000000000000000000e+00 9.290239999999999740e-04 5.506365372707655581e-02
6.250000000000000347e-03 9.959680000000000269e-03 1.769142728655664909e+00
0.000000000000000000e+00 4.917759999999999753e-04 4.208884758022242600e+00
3.125000000000000173e-03 3.163710000000000133e-03 3.676184808772378521e+00
1.250000000000000069e-02 7.994239999999999680e-03 1.879687021375669342e+00
0.000000000000000000e+00 4.181119999999999975e-04 4.892945047126383784e+00
0.000000000000000000e+00 1.120260000000000093e-03 4.718675551584289529e+00
3.125000000000000173e-03 4.915199999999999778e-03 2.508480961483314786e+00
6.250000000000000347e-03 9.355819999999999415e-02 4.450114260566732760e+00
0.000000000000000000e+00 1.843459999999999890e-02 3.926371066123908626e+00
0.000000000000000000e+00 6.266880000000000280e-04 2.263931261728999278e+00
1.874999999999999931e-02 2.341569999999999849e-03 2.621935297288553013e+00
0.000000000000000000e+00 2.248590000000000099e-05 1.070599042363483688e+00
0.000000000000000000e+00 5.698690000000000179e-03 4.284672541967698978e-01
0.000000000000000000e+00 7.570600000000000463e-04 4.344544583056154430e+00
0.000000000000000000e+00 1.205759999999999948e-03 2.137140081564364191e+00
0.000000000000000000e+00 1.950750000000000053e-02 1.926919321458164358e+00
3.125000000000000173e-03 5.083650000000000321e-03 3.868486253653926177e+00
6.250000000000000347e-03 1.055500000000000049e-01 2.803451105172230839e+00
0.000000000000000000e+00 7.615480000000000209e-04 1.203772283910413687e+00
0.000000000000000000e+00 5.866880000000000315e-04 8.836023741656046093e-01
0.000000000000000000e+00 3.937279999999999816e-04 4.802490141713176897e+00
1.562500000000000000e-02 1.383490000000000024e-03 2.738514404011316294e+00
6.250000000000000347e-03 2.375889999999999946e-02 9.630070852262806458e-01
1.874999999999999931e-02 2.498750000000000103e-03 1.380248736112213992e+00
0.000000000000000000e+00 2.971520000000000172e-04 4.659654784050569987e+00
0.000000000000000000e+00 8.955070000000000304e-04 3.294105426005252024e+00
0.000000000000000000e+00 1.160540000000000052e-03 1.597777838493356750e+00
1.874999999999999931e-02 2.480190000000000172e-03 1.344790755813721095e+00
1.874999999999999931e-02 9.369829999999999826e-02 3.136959530781814998e+00
0.000000000000000000e+00 1.054779999999999954e-03 1.451693249838192923e+00
0.000000000000000000e+00 2.144000000000000072e-03 3.385537407136204102e+00
2.812500000000000069e-02 3.900160000000000172e-03 7.606035135217187326e-01
0.000000000000000000e+00 4.477720000000000138e-03 1.459502536512924387e+00
0.000000000000000000e+00 1.927670000000000078e-02 2.643876968473344302e+00
4.062500000000000139e-02 9.308750000000000357e-02 1.052246558324808623e+00
1.562500000000000000e-02 1.948929999999999977e-03 1.752083891375327163e+00
0.000000000000000000e+00 1.051779999999999989e-03 4.799870699384540806e+00
0.000000000000000000e+00 5.207589999999999789e-04 3.665250598860144038e+00
2.187499999999999861e-02 2.008380000000000148e-03 1.230762028288275189e+00
3.125000000000000173e-03 1.036179999999999914e-02 2.599564323118653153e+00
3.125000000000000173e-03 1.768189999999999996e-03 1.158656775263485761e+00
0.000000000000000000e+00 1.545219999999999927e-03 3.436151908503265240e+00
2.500000000000000139e-02 2.261819999999999890e-03 2.332934278609078316e+00
0.000000000000000000e+00 2.836480000000000056e-04 1.448769793230756386e+00
0.000000000000000000e+00 5.144319999999999969e-04 4.316061303037868946e+00
0.000000000000000000e+00 1.056450000000000011e-03 5.209747399967656900e-02
9.374999999999999653e-03 1.749700000000000083e-03 2.042128804093914063e+00
1.250000000000000069e-02 2.142020000000000122e-03 2.301033198146309466e+00
3.125000000000000173e-03 2.573530000000000088e-03 1.184709966767540479e+00
1.874999999999999931e-02 3.687870000000000210e-03 4.461099601077754606e+00
0.000000000000000000e+00 2.524670000000000126e-03 1.393377259679053903e+00
2.500000000000000139e-02 1.058410000000000045e-01 1.510159129698436242e+00
0.000000000000000000e+00 2.300139999999999970e-05 8.957727133775239547e-01
0.000000000000000000e+00 1.098430000000000066e-03 1.415534884693465667e+00
1.874999999999999931e-02 1.734459999999999951e-03 3.211918139374651204e+00
2.187499999999999861e-02 2.075459999999999892e-03 4.649549252893573126e+00
3.125000000000000000e-02 2.189439999999999963e-03 1.078254722558396050e+00
0.000000000000000000e+00 6.020700000000000140e-04 2.772824379099181336e-01
3.125000000000000173e-03 2.460990000000000139e-03 4.312079545523716639e+00
4.374999999999999722e-02 1.058530000000000026e-01 2.390207598293675462e-01
3.125000000000000173e-03 7.727829999999999769e-03 4.335343775794347820e+00
0.000000000000000000e+00 2.183870000000000082e-03 3.379576541925851885e+00
0.000000000000000000e+00 2.328380000000000120e-03 3.436361904698709280e-01
0.000000000000000000e+00 3.766400000000000260e-04 2.396467673832866296e+00
0.000000000000000000e+00 1.633539999999999949e-03 1.830174653445584276e+00
2.500000000000000139e-02 3.440900000000000208e-03 4.653248514543570025e+00
0.000000000000000000e+00 2.334079999999999987e-04 3.181035779665966956e+00
1.874999999999999931e-02 1.618300000000000034e-03 1.472390167637696479e+00
3.125000000000000173e-03 9.921859999999999360e-03 3.567166660613122708e+00
0.000000000000000000e+00 9.758079999999999922e-04 1.967592520589813265e+00
0.000000000000000000e+00 2.208000000000000002e-04 4.411805438926605483e+00
2.500000000000000139e-02 2.450879999999999899e-03 2.396837259349340776e+00
9.374999999999999653e-03 1.059540000000000065e-01 4.222539011957832322e+00
0.000000000000000000e+00 8.338560000000000069e-04 2.858622096606209695e+00
0.000000000000000000e+00 9.872049999999998968e-04 3.135195932824949239e+00
0.000000000000000000e+00 2.344580000000000188e-03 1.129482485941882830e+00
3.125000000000000173e-03 4.372560000000000335e-02 2.571294055735316331e+00
2.812500000000000069e-02 2.635580000000000214e-03 1.152899159883155722e+00
0.000000000000000000e+00 1.894019999999999948e-03 4.637748180339639426e+00
3.125000000000000173e-03 1.034179999999999995e-03 4.752844789424986338e+00
2.187499999999999861e-02 9.182819999999999871e-02 3.916995420195754640e+00
2.187499999999999861e-02 1.242640000000000064e-02 2.913452012915762612e-02
3.125000000000000173e-03 5.686850000000000238e-03 1.270091342745659491e+00
0.000000000000000000e+00 8.691839999999999506e-04 5.777297804320341568e-01
0.000000000000000000e+00 1.124219999999999994e-03 1.781318319292701347e+00
0.000000000000000000e+00 1.094270000000000052e-03 3.339566364177386060e+00
9.374999999999999653e-03 2.328000000000000208e-03 2.496423963599337270e+00
0.000000000000000000e+00 1.879489999999999937e-03 4.451910492782316986e+00
2.187499999999999861e-02 9.191929999999999545e-02 1.455799647488204007e-01
0.000000000000000000e+00 1.255419999999999930e-03 1.313440465441173099e+00
3.125000000000000173e-03 1.989219999999999877e-03 3.140124753697896676e+00
6.250000000000000347e-03 9.887780000000000180e-02 4.929496347755831565e+00
9.374999999999999653e-03 1.018180000000000040e-03 2.348895494124437100e+00
6.250000000000000347e-03 1.122500000000000017e-03 3.359589102289299856e+00
2.812500000000000069e-02 6.942430000000000302e-03 1.761660578791541809e+00
0.000000000000000000e+00 1.624900000000000086e-03 4.929569177863038831e+00
1.874999999999999931e-02 1.005760000000000074e-03 2.858303562054098634e-01
2.500000000000000139e-02 3.756160000000000141e-03 4.240393065760590829e+00
0.000000000000000000e+00 1.050619999999999939e-03 1.823786563996890875e+00
0.000000000000000000e+00 9.286399999999999722e-05 3.519291716302879180e+00
3.125000000000000173e-03 9.682709999999999928e-02 2.812570239151364060e+00
1.874999999999999931e-02 2.330560000000000184e-03 3.303544691193975869e+00
0.000000000000000000e+00 1.649280000000000039e-04 3.369705716075141577e+00
1.562500000000000000e-02 1.752059999999999946e-03 4.578634503080699858e+00
4.062500000000000139e-02 9.300609999999999433e-02 2.814895817228884489e+00
0.000000000000000000e+00 1.729149999999999868e-05 9.819810823996855120e-01
0.000000000000000000e+00 9.665280000000000269e-04 4.066881974502247310e+00
0.000000000000000000e+00 4.449309999999999723e-03 1.643827730277991339e-01
0.000000000000000000e+00 1.166979999999999970e-03 1.446984667832024174e-01
0.000000000000000000e+00 4.426240000000000231e-04 6.659979150495326516e-01
6.250000000000000347e-03 1.034999999999999983e-02 4.387375989369396656e+00
3.125000000000000000e-02 9.132830000000000115e-02 1.532844174990977137e+00
0.000000000000000000e+00 1.080000000000000014e-03 2.775592665445700824e+00
3.437500000000000278e-02 1.049139999999999934e-01 8.707123961425405900e-01
0.000000000000000000e+00 1.048000000000000103e-03 2.206926730358623079e+00
3.125000000000000173e-03 1.024929999999999938e-02 2.004773877867252363e+00
3.125000000000000173e-03 2.042609999999999912e-02 3.501144639931643265e+00
0.000000000000000000e+00 2.470400000000000200e-04 2.169685141185483168e+00
1.562500000000000000e-02 1.077469999999999956e-01 4.489016774458758796e+00
0.000000000000000000e+00 8.779350000000000435e-04 3.243924988802087128e+00
0.000000000000000000e+00 9.108480000000000179e-04 4.162033209491140973e+00
0.000000000000000000e+00 2.289609999999999920e-05 1.740843226072283478e+00
2.187499999999999861e-02 1.340540000000000091e-03 4.973923264191987492e+00
3.125000000000000173e-03 1.964760000000000117e-02 3.188078539214469931e+00
6.250000000000000347e-03 9.712579999999999825e-02 4.494966510219604139e+00
0.000000000000000000e+00 2.027010000000000096e-03 1.813073404438836356e-01
0.000000000000000000e+00 1.100290000000000079e-03 3.870966364920338965e+00
0.000000000000000000e+00 5.208449999999999885e-03 2.106723877219836005e+00
0.000000000000000000e+00 9.718399999999999652e-04 3.893740655809497131e+00
2.500000000000000139e-02 2.600900000000000174e-03 2.611033906389976345e+00
0.000000000000000000e+00 5.366850000000000266e-03 2.195318338954583837e+00
1.874999999999999931e-02 9.610090000000000299e-02 3.021850946701825524e+00
2.187499999999999861e-02 6.463810000000000389e-03 4.407617058183673109e+00
0.000000000000000000e+00 9.597440000000000051e-04 4.438395419808683684e+00
0.000000000000000000e+00 1.463779999999999942e-02 9.955405030781155906e-01
0.000000000000000000e+00 2.274570000000000145e-05 8.349940016596107961e-01
0.000000000000000000e+00 6.119939999999999929e-03 8.624927348364730406e-01
3.125000000000000173e-03 7.668860000000000433e-03 3.217420712028895124e+00
0.000000000000000000e+00 1.617729999999999949e-03 2.716576747909403622e+00
0.000000000000000000e+00 0.000000000000000000e+00 2.062296922431547941e+00
0.000000000000000000e+00 4.071039999999999837e-04 2.775434690077594357e+00
3.125000000000000173e-03 2.198910000000000101e-03 1.426992397350176356e+00
0.000000000000000000e+00 1.693710000000000007e-02 4.739820162431032990e+00
5.000000000000000278e-02 9.583519999999999539e-02 2.055342045101660631e+00
6.250000000000000347e-03 1.812349999999999899e-03 7.940470694871343271e-01
9.374999999999999653e-03 9.734980000000000022e-02 1.376141375688100688e+00
0.000000000000000000e+00 5.498109999999999629e-03 4.043252259852334163e+00
0.000000000000000000e+00 6.917829999999999596e-04 4.904105787085133450e+00
2.500000000000000139e-02 9.095939999999999581e-02 4.752752858219892573e+00
3.125000000000000173e-03 2.625220000000000158e-03 1.616702908387226412e+00
0.000000000000000000e+00 4.899459999999999579e-03 2.491557837970348022e+00
2.187499999999999861e-02 2.642429999999999866e-03 6.174873755126897290e-01
2.187499999999999861e-02 3.708610000000000205e-03 1.723521501907842035e+00
3.125000000000000173e-03 1.738240000000000054e-03 2.882077398385747724e+00
0.000000000000000000e+00 1.317819999999999929e-03 3.447974341114305119e+00
0.000000000000000000e+00 1.090819999999999941e-03 3.996399039100651862e+00
0.000000000000000000e+00 2.268950000000000020e-05 4.713426443021791812e+00
2.187499999999999861e-02 1.972289999999999807e-03 8.980800110333542197e-01
0.000000000000000000e+00 1.757309999999999992e-03 1.345593629410146264e+00
6.250000000000000347e-03 9.540869999999999906e-02 4.489647431634541164e+00
0.000000000000000000e+00 2.116990000000000018e-03 3.986123190889030887e+00
1.562500000000000000e-02 1.922749999999999980e-03 2.547411097161655924e-01
0.000000000000000000e+00 8.579840000000000036e-04 3.350958994011454806e+00
1.874999999999999931e-02 7.223680000000000335e-04 4.848600258618066761e+00
3.125000000000000173e-03 2.058500000000000000e-03 4.231434262727321816e+00
0.000000000000000000e+00 4.941179999999999878e-03 2.427113732193399986e+00
0.000000000000000000e+00 1.103040000000000010e-03 1.455564524972163820e-01
2.500000000000000139e-02 6.416819999999999469e-02 4.728789814279727111e+00
1.250000000000000069e-02 1.978880000000000135e-03 3.439026173195822267e+00
2.812500000000000069e-02 2.046080000000000034e-03 2.280715381531231323e+00
0.000000000000000000e+00 1.061759999999999917e-03 3.571787948567783921e+00
0.000000000000000000e+00 5.490820000000000423e-03 1.123034221253182974e+00
0.000000000000000000e+00 1.208560000000000016e-03 3.510757074106326314e+00
0.000000000000000000e+00 4.542719999999999766e-04 1.069708977013809070e+00
0.000000000000000000e+00 1.203649999999999902e-03 2.938652158255401936e+00
1.250000000000000069e-02 1.412159999999999978e-03 2.666839504486375301e+00
0.000000000000000000e+00 2.978820000000000079e-03 3.269528051500278032e+00
0.000000000000000000e+00 4.925630000000000286e-03 4.678509381636366982e+00
3.125000000000000173e-03 6.574270000000000114e-03 8.879712670122846818e-01
3.125000000000000173e-03 1.740419999999999901e-03 4.306343828341230306e+00
0.000000000000000000e+00 1.507840000000000048e-02 3.846049159402901818e+00
0.000000000000000000e+00 9.898240000000000424e-04 7.808459551824603606e-01
0.000000000000000000e+00 2.463490000000000037e-03 1.985593869542850998e-01
0.000000000000000000e+00 1.008130000000000094e-03 3.805225275616923586e+00
2.187499999999999861e-02 6.974880000000000142e-03 2.645101113007272797e+00
0.000000000000000000e+00 3.206909999999999882e-03 4.742207024862299392e+00
9.374999999999999653e-03 9.724309999999999898e-02 4.548473001592306941e-01
0.000000000000000000e+00 3.802240000000000242e-04 4.743285645860629174e+00
0.000000000000000000e+00 1.006960000000000103e-03 2.648457026426087602e-01
9.374999999999999653e-03 2.638140000000000190e-03 2.913459206989242212e+00
3.125000000000000173e-03 3.935049999999999659e-02 2.287038663469154187e+00
0.000000000000000000e+00 8.075199999999999392e-03 4.443458430607799770e+00
0.000000000000000000e+00 9.439360000000000372e-04 4.679545819025730857e+00
0.000000000000000000e+00 4.620429999999999676e-02 1.943037783294188081e+00
0.000000000000000000e+00 1.187500000000000014e-02 2.643547100404131101e+00
0.000000000000000000e+00 1.668050000000000064e-05 4.947707457531819841e+00
5.000000000000000278e-02 9.709950000000000178e-03 7.999749175334081031e-02
0.000000000000000000e+00 3.731200000000000055e-04 9.996827730171170545e-01
0.000000000000000000e+00 3.792319999999999719e-02 4.434644524194225390e+00
0.000000000000000000e+00 5.698690000000000179e-03 9.030572170251743858e-01
0.000000000000000000e+00 2.291840000000000066e-05 2.822674489892614602e+00
0.000000000000000000e+00 3.482639999999999846e-04 4.672189403150879272e+00
0.000000000000000000e+00 1.109760000000000000e-03 3.708287068691046962e+00
0.000000000000000000e+00 8.215040000000000276e-04 2.786360569098826900e+00
0.000000000000000000e+00 5.745010000000000481e-04 1.115361004126585343e+00
0.000000000000000000e+00 1.054849999999999972e-03 2.242588128943143300e+00
0.000000000000000000e+00 1.612099999999999991e-03 9.407977825807573025e-01
0.000000000000000000e+00 3.836600000000000231e-04 1.402702744628971931e+00
0.000000000000000000e+00 7.283320000000000462e-04 6.262528450415028036e-01
0.000000000000000000e+00 8.456820000000000526e-04 4.749148429026721629e+00
0.000000000000000000e+00 2.148349999999999826e-03 3.317716902421128378e+00
9.374999999999999653e-03 2.074180000000000121e-03 5.174394539371440782e-01
2.187499999999999861e-02 2.144130000000000168e-03 4.140068044405463610e+00
0.000000000000000000e+00 8.358699999999999507e-04 7.602943062281181108e-01
3.125000000000000173e-03 9.265769999999999562e-02 2.537407184182285835e+00
0.000000000000000000e+00 5.218560000000000126e-04 2.001484317721175188e+00
0.000000000000000000e+00 1.631360000000000047e-04 2.073391730668458166e+00
2.187499999999999861e-02 2.120080000000000020e-01 3.423291982609744544e+00
0.000000000000000000e+00 9.228160000000000225e-04 1.573759502756106876e+00
0.000000000000000000e+00 2.282540000000000003e-05 2.034606127906944284e+00
3.125000000000000173e-03 1.483579999999999968e-03 4.642034760046500175e+00
0.000000000000000000e+00 1.161309999999999946e-02 4.143873968143989117e+00
0.000000000000000000e+00 7.267839999999999587e-04 2.097026277048732457e+00
3.125000000000000173e-03 1.379050000000000067e-02 2.800759961024659628e+00
9.374999999999999653e-03 1.903430000000000052e-02 5.053225578941195062e-01
0.000000000000000000e+00 9.108480000000000179e-04 2.897439512407339990e+00
0.000000000000000000e+00 3.810560000000000054e-04 8.850041979213757459e-01
0.000000000000000000e+00 1.174820000000000031e-02 7.715690772457189928e-01
9.374999999999999653e-03 1.551999999999999994e-03 2.140687120819798395e+00
6.250000000000000347e-03 9.715609999999999524e-02 4.984875976690231525e+00
3.125000000000000173e-03 9.583369999999999389e-02 1.740873078061797141e+00
0.000000000000000000e+00 3.029570000000000093e-03 4.179440335252396110e+00
0.000000000000000000e+00 1.062589999999999976e-03 8.999283670531899038e-01
9.374999999999999653e-03 1.669380000000000039e-03 4.582817669325491394e+00
1.874999999999999931e-02 2.290749999999999818e-03 1.320257985104342335e+00
3.437500000000000278e-02 9.224519999999999942e-02 1.167591691322139580e+00
1.062499999999999972e-01 8.104100000000000192e-02 3.210284931667441999e+00
2.187499999999999861e-02 2.842879999999999886e-03 3.824732239829554015e+00
1.562500000000000000e-02 2.193220000000000065e-03 1.697339876517329316e+00
0.000000000000000000e+00 5.985279999999999724e-04 1.304979355583590905e-01
0.000000000000000000e+00 2.360320000000000061e-04 1.658614804567259959e+00
3.125000000000000173e-03 4.789890000000000120e-02 3.091326534388302960e+00
0.000000000000000000e+00 9.892480000000000804e-04 2.907640230341351772e-01
6.250000000000000347e-03 6.190779999999999894e-03 4.521313505354271456e+00
0.000000000000000000e+00 6.402689999999999944e-03 2.896238294818195058e+00
2.500000000000000139e-02 2.303869999999999963e-03 4.613143603227198852e+00
0.000000000000000000e+00 2.837820000000000013e-03 4.372699009909787549e+00
0.000000000000000000e+00 9.388540000000000340e-04 3.725011450409321245e-02
0.000000000000000000e+00 8.579199999999999717e-04 3.353017407310860509e+00
0.000000000000000000e+00 1.433659999999999969e-02 3.224603428904340152e+00
0.000000000000000000e+00 5.101529999999999954e-02 4.343680049250213671e+00
1.250000000000000069e-02 4.248260000000000230e-03 1.306600244900689045e+00
9.374999999999999653e-03 9.660860000000000281e-02 2.758978050263628745e+00
1.562500000000000000e-02 3.667229999999999795e-02 3.513653822127141169e+00
0.000000000000000000e+00 1.074749999999999968e-03 3.094050881740706860e+00
3.125000000000000173e-03 7.717510000000000342e-03 2.508122842733662594e+00
0.000000000000000000e+00 4.344320000000000039e-04 9.143288408646244037e-01
0.000000000000000000e+00 8.109439999999999661e-04 1.460898505285773030e+00
0.000000000000000000e+00 4.355370000000000010e-04 7.137935369751857717e-01
1.250000000000000069e-02 2.089020000000000026e-03 2.523724486473488682e-01
0.000000000000000000e+00 1.120260000000000093e-03 4.321213045908867123e-01
6.250000000000000347e-03 1.421119999999999892e-03 1.306871878079850502e+00
0.000000000000000000e+00 9.623680000000000125e-04 4.953769857771751717e+00
1.250000000000000069e-02 1.426219999999999918e-02 1.776712565877857752e+00
0.000000000000000000e+00 1.525819999999999954e-02 2.973865134456806558e+00
0.000000000000000000e+00 1.130429999999999977e-03 4.489411112142268401e+00
3.125000000000000000e-02 9.405270000000000297e-02 7.098258319146244499e-01
0.000000000000000000e+00 2.059590000000000032e-02 9.848434197641070531e-01
0.000000000000000000e+00 4.075139999999999882e-04 3.791917689668889757e+00
0.000000000000000000e+00 2.958660000000000109e-03 4.530716018347217044e+00
0.000000000000000000e+00 3.746560000000000125e-04 6.331533874084327440e-01
0.000000000000000000e+00 8.540800000000000084e-04 4.671953029081504560e+00
0.000000000000000000e+00 4.771840000000000174e-04 4.437635591678390501e-01
0.000000000000000000e+00 1.180540000000000105e-03 4.098091053797706884e+00
0.000000000000000000e+00 3.033150000000000082e-03 3.706887295965800355e+00
0.000000000000000000e+00 2.277569999999999947e-05 1.092048535293026479e+00
0.000000000000000000e+00 5.272960000000000147e-03 4.522322134465782462e+00
3.125000000000000173e-03 1.217470000000000011e-03 1.158865918103573200e+00
0.000000000000000000e+00 2.566399999999999823e-04 2.354501035691686894e+00
2.187499999999999861e-02 2.549060000000000128e-03 2.904206861825466390e+00
1.250000000000000069e-02 9.187170000000000059e-02 1.485753884259908730e+00
3.125000000000000173e-03 1.188290000000000006e-02 2.734531106887922114e+00
3.125000000000000173e-03 1.105660000000000063e-03 4.224177087148173193e-01
3.125000000000000000e-02 2.830270000000000181e-03 3.342797728879112196e+00
0.000000000000000000e+00 4.286760000000000136e-04 3.485700421886470224e+00
2.500000000000000139e-02 5.722879999999999634e-03 4.730265069761404817e+00
0.000000000000000000e+00 2.164479999999999876e-03 2.568817132929153146e+00
0.000000000000000000e+00 1.250180000000000041e-03 4.281251919452247812e+00
6.250000000000000347e-03 1.176830000000000020e-03 2.222258932464441727e+00
0.000000000000000000e+00 3.109230000000000153e-03 4.014971577385276547e+00
0.000000000000000000e+00 4.134780000000000009e-04 2.157030814645466421e+00
1.250000000000000069e-02 1.823100000000000024e-03 3.073268688840817831e+00
4.062500000000000139e-02 8.816640000000000588e-03 1.075046277976974718e+00
0.000000000000000000e+00 7.232659999999999697e-04 8.942864467839428677e-01
1.562500000000000000e-02 2.015299999999999817e-03 1.267113225881799643e-03
2.500000000000000139e-02 9.095939999999999581e-02 2.449126290253552440e+00
0.000000000000000000e+00 2.729799999999999783e-04 5.447157198828106450e-01
1.250000000000000069e-02 2.649090000000000212e-03 3.047650356706175678e+00
1.562500000000000000e-02 2.002939999999999929e-03 3.628748018516927853e+00
0.000000000000000000e+00 5.237119999999999623e-04 3.203641763029704492e+00
0.000000000000000000e+00 2.866389999999999910e-04 4.602039740111623090e+00
1.250000000000000069e-02 9.944880000000000386e-02 8.595948895549082591e-01
0.000000000000000000e+00 9.875899999999999956e-04 2.672554362040618248e+00
2.187499999999999861e-02 2.133359999999999979e-01 4.247884039124326883e+00
0.000000000000000000e+00 3.207620000000000002e-03 3.905162541767122075e+00
9.374999999999999653e-03 2.378429999999999954e-03 2.595923424440991667e+00
4.374999999999999722e-02 8.542660000000000531e-03 2.031052106875235186e+00
0.000000000000000000e+00 1.239419999999999975e-03 5.557064604851869039e-01
6.250000000000000347e-03 9.669759999999999467e-02 4.389064335819588436e+00
0.000000000000000000e+00 3.991040000000000061e-04 3.840760544497956008e+00
0.000000000000000000e+00 1.686400000000000008e-03 1.659707049827281011e+00
1.250000000000000069e-02 2.854399999999999993e-03 3.065942129269400240e+00
0.000000000000000000e+00 2.553709999999999834e-03 1.242388520286800135e+00
0.000000000000000000e+00 8.274050000000000241e-04 1.924614248062163746e+00
2.812500000000000069e-02 1.529090000000000093e-03 3.455016991239067359e+00
3.125000000000000173e-03 1.109439999999999949e-03 2.886582895335165322e+00
2.500000000000000139e-02 3.528260000000000077e-03 4.126754615376465374e+00
2.187499999999999861e-02 3.436799999999999838e-03 1.003395206664875472e+00
0.000000000000000000e+00 1.003460000000000072e-03 4.114250849348690231e+00
2.500000000000000139e-02 2.974529999999999969e-03 4.162000044795345133e+00
0.000000000000000000e+00 3.623170000000000210e-03 1.132897296816027799e+00
0.000000000000000000e+00 2.342659999999999881e-03 3.327040325402090826e+00
0.000000000000000000e+00 1.900989999999999971e-03 2.984570442361711873e+00
0.000000000000000000e+00 9.840639999999999891e-04 1.210235065424224432e+00
8.437500000000000555e-02 9.375100000000000100e-02 4.683460615689850393e+00
0.000000000000000000e+00 4.268799999999999786e-04 1.722295945241885118e+00
0.000000000000000000e+00 5.634560000000000480e-04 3.579873621043870191e+00
0.000000000000000000e+00 3.788169999999999732e-02 2.611302710704399566e+00
3.125000000000000173e-03 1.645699999999999941e-03 2.548624634348481521e+00
0.000000000000000000e+00 2.318140000000000136e-05 1.569147497654288959e+00
0.000000000000000000e+00 2.947140000000000003e-03 1.492920959734077568e+00
2.187499999999999861e-02 9.523969999999999658e-02 4.875805497037352332e+00
0.000000000000000000e+00 1.861119999999999962e-04 4.498922402095216100e+00
0.000000000000000000e+00 3.112960000000000033e-02 4.634734859824592768e+00
6.250000000000000347e-03 4.195229999999999793e-02 3.133631387730957396e+00
3.125000000000000173e-03 5.392379999999999569e-03 4.324957159334405610e+00
7.499999999999999722e-02 9.337769999999999404e-02 8.722616247172298998e-02
0.000000000000000000e+00 1.219140000000000067e-03 3.333598018592358603e+00
0.000000000000000000e+00 4.121309999999999882e-04 2.382086217016864182e+00
3.125000000000000173e-03 1.423489999999999912e-03 1.068169710097161662e+00
0.000000000000000000e+00 5.761920000000000019e-04 1.017347222578894428e+00
0.000000000000000000e+00 1.230460000000000061e-03 1.029137358501298616e+00
0.000000000000000000e+00 4.061679999999999913e-04 2.493545484334378060e+00
0.000000000000000000e+00 1.726209999999999941e-03 4.025262909104604603e+00
2.500000000000000139e-02 2.290500000000000001e-03 1.742177418270414169e+00
3.125000000000000173e-03 1.020420000000000008e-02 7.901167208573151024e-01
0.000000000000000000e+00 5.880899999999999886e-04 3.325170573258994899e+00
0.000000000000000000e+00 1.070210000000000041e-03 1.387948405294009424e+00
0.000000000000000000e+00 1.591549999999999953e-03 4.838775433485976940e+00
9.374999999999999653e-03 9.803580000000000627e-02 4.966586896483417668e+00
0.000000000000000000e+00 1.075519999999999948e-03 3.590847778339480989e+00
1.874999999999999931e-02 9.459489999999999565e-02 2.244860685346323326e+00
3.125000000000000173e-03 6.367229999999999765e-03 1.316244547925724540e+00
0.000000000000000000e+00 4.821560000000000234e-04 4.324993453213566319e+00
6.250000000000000347e-03 8.026500000000000648e-03 9.931576307350398203e-01
0.000000000000000000e+00 1.065470000000000002e-03 1.434833550361973575e+00
0.000000000000000000e+00 1.004670000000000042e-03 1.607207995280806045e+00
2.812500000000000069e-02 3.121089999999999975e-03 4.442989416855635199e+00
9.374999999999999653e-03 3.030720000000000202e-03 2.223121899735273743e+00
0.000000000000000000e+00 0.000000000000000000e+00 4.168707065611581442e+00
2.812500000000000069e-02 2.222019999999999898e-03 8.160921193457443268e-01
3.125000000000000173e-03 4.377960000000000185e-02 4.661746238254171004e+00
0.000000000000000000e+00 2.719420000000000170e-03 2.964724776840470089e+00
3.125000000000000173e-03 4.442700000000000121e-02 1.689827497400873568e+00
1.250000000000000069e-02 1.812540000000000071e-03 1.312214663453907360e+00
1.874999999999999931e-02 2.378939999999999961e-03 1.466978921388541579e+00
0.000000000000000000e+00 8.373820000000000568e-03 3.518456241287127639e+00
0.000000000000000000e+00 2.121079999999999841e-02 3.227735918799531589e+00
0.000000000000000000e+00 8.295209999999999476e-04 4.515195628706749176e+00
3.125000000000000173e-03 9.237610000000000265e-02 2.432259951103332707e-01
0.000000000000000000e+00 9.992320000000000715e-04 4.503318047360131082e+00
6.250000000000000347e-03 2.709700000000000216e-03 4.564498707698608548e+00
0.000000000000000000e+00 1.537920000000000075e-04 3.755293700790118372e+00
2.812500000000000069e-02 1.082510000000000000e-01 4.133104659543108461e+00
0.000000000000000000e+00 1.254020000000000004e-03 2.462488807273309099e+00
1.250000000000000069e-02 9.192119999999999458e-02 3.703443762515367332e+00
0.000000000000000000e+00 2.518339999999999988e-03 3.852705649407512922e+00
0.000000000000000000e+00 8.321500000000000338e-04 4.001347793986828272e+00
2.500000000000000139e-02 3.067390000000000134e-03 4.605792746346173416e+00
1.562500000000000000e-02 1.299439999999999970e-02 2.119419206005580314e+00
1.562500000000000000e-02 3.326459999999999834e-03 4.209224086865224201e+00
0.000000000000000000e+00 2.946939999999999889e-03 2.488558679394470285e-01
0.000000000000000000e+00 3.107969999999999830e-03 6.622603180075647966e-01
3.125000000000000173e-03 3.867580000000000323e-02 8.697846731902381112e-02
2.187499999999999861e-02 2.138430000000000192e-03 4.094669063980055368e-01
0.000000000000000000e+00 5.235840000000000069e-04 3.234661417431049735e+00
9.374999999999999653e-03 6.386750000000000066e-03 1.050779584870475958e+00
0.000000000000000000e+00 8.347520000000000200e-04 3.535626124345139676e+00
0.000000000000000000e+00 1.068900000000000058e-02 3.682651103723255215e+00
0.000000000000000000e+00 2.364290000000000025e-05 1.717075559774079885e+00
1.874999999999999931e-02 3.179389999999999820e-03 1.755031941752144276e+00
0.000000000000000000e+00 3.142849999999999984e-03 3.315564569433566700e+00
0.000000000000000000e+00 3.723520000000000020e-04 3.036327613294659500e+00
0.000000000000000000e+00 3.341180000000000018e-03 3.478144225738959872e+00
0.000000000000000000e+00 1.968069999999999889e-02 4.191007368208853556e+00
2.500000000000000139e-02 1.053400000000000031e-01 1.276537930610432969e-01
0.000000000000000000e+00 9.592319999999999666e-04 2.441660053699508115e+00
0.000000000000000000e+00 7.943040000000000170e-04 3.023928424422550609e+00
0.000000000000000000e+00 1.822269999999999966e-03 4.278183081810587929e+00
0.000000000000000000e+00 2.276690000000000050e-05 7.011551946266086910e-01
9.374999999999999653e-03 1.702460000000000041e-03 3.954128121042172594e+00
0.000000000000000000e+00 1.508480000000000064e-02 2.581008160223461356e+00
0.000000000000000000e+00 2.177589999999999932e-05 4.651610998123867358e-01
0.000000000000000000e+00 3.750669999999999785e-04 3.163643770097089192e+00
3.437500000000000278e-02 8.384660000000000377e-03 2.342486130423313107e+00
5.000000000000000278e-02 1.394429999999999975e-02 1.649660940516491259e+00
0.000000000000000000e+00 1.618110000000000078e-03 2.799704956421233959e-02
1.874999999999999931e-02 2.267069999999999936e-03 4.077765210568273346e+00
0.000000000000000000e+00 3.580799999999999868e-04 4.491981540656780902e-01
0.000000000000000000e+00 3.544199999999999846e-04 1.508007751109186056e-01
0.000000000000000000e+00 9.598080000000000370e-04 7.662183332025795934e-01
3.125000000000000173e-03 9.957890000000000491e-03 2.130807952381958081e+00
0.000000000000000000e+00 1.152189999999999985e-03 3.829375126982874633e+00
0.000000000000000000e+00 7.265999999999999889e-04 9.398949348912705171e-01
1.562500000000000000e-02 9.229840000000000266e-02 8.678693103960183342e-01
9.374999999999999653e-03 1.413439999999999966e-03 2.897443736995791719e-01
0.000000000000000000e+00 9.759359999999999476e-04 3.146516169851878431e+00
0.000000000000000000e+00 5.233409999999999972e-03 7.786534134565331611e-01
1.874999999999999931e-02 9.241320000000000090e-02 4.940007498326904667e+00
1.562500000000000000e-02 1.500540000000000077e-03 3.874905095451703474e+00
3.125000000000000173e-03 1.382140000000000018e-03 5.973381101297975393e-01
3.749999999999999861e-02 1.239269999999999955e-02 2.701526450489806663e+00
0.000000000000000000e+00 1.007400000000000092e-03 2.406664095041785245e+00
0.000000000000000000e+00 2.457600000000000062e-02 1.904367493904129960e+00
2.500000000000000139e-02 2.782719999999999812e-03 4.785307546550542135e+00
0.000000000000000000e+00 0.000000000000000000e+00 2.308078555543054300e+00
1.250000000000000069e-02 1.528580000000000086e-03 1.689237631897761549e+00
0.000000000000000000e+00 1.074749999999999968e-03 4.816662739322764786e+00
2.500000000000000139e-02 3.490500000000000113e-03 3.569314263111273977e+00
0.000000000000000000e+00 4.241739999999999920e-03 4.246141401106053870e+00
0.000000000000000000e+00 3.112960000000000033e-02 2.561348059981160219e+00
0.000000000000000000e+00 3.066880000000000018e-04 4.845031233608903420e+00
0.000000000000000000e+00 4.082370000000000096e-03 4.187059108853212308e+00
0.000000000000000000e+00 7.355779999999999697e-04 3.070518200295573319e+00
0.000000000000000000e+00 1.084539999999999940e-03 1.288369038901782115e+00
6.250000000000000347e-03 2.089979999999999963e-03 3.687320523430642760e-01
1.562500000000000000e-02 1.638399999999999926e-03 3.833486995031749611e+00
3.125000000000000173e-03 9.912509999999999377e-03 1.671110282147189041e+00
9.374999999999999653e-03 2.003459999999999963e-02 7.359432526897974336e-01
0.000000000000000000e+00 3.273600000000000099e-04 2.641103025802702398e+00
2.812500000000000069e-02 2.978049999999999881e-03 3.588745369065430069e+00
0.000000000000000000e+00 7.452609999999999920e-04 3.685179568841503883e+00
9.374999999999999653e-03 1.059940000000000049e-01 2.106130882952743644e+00
6.250000000000000347e-03 9.859890000000000321e-02 4.570038464807320899e+00
1.031249999999999944e-01 1.724339999999999901e-02 1.262766338953092315e+00
2.187499999999999861e-02 2.249150000000000107e-03 2.690877421278787818e+00
0.000000000000000000e+00 2.313999999999999868e-05 4.739840877762419247e+00
0.000000000000000000e+00 3.170689999999999880e-03 3.827721650350405014e+00
0.000000000000000000e+00 2.312049999999999997e-05 3.778902349608941336e+00
1.250000000000000069e-02 1.558979999999999958e-03 1.864152022760445782e-01
1.562500000000000000e-02 2.267710000000000038e-03 1.583420328207965078e+00
0.000000000000000000e+00 1.387149999999999972e-03 3.229953818490420403e+00
0.000000000000000000e+00 4.758399999999999978e-04 7.569396138522843653e-01
6.250000000000000347e-03 1.277030000000000005e-02 3.035141353394688046e+00
0.000000000000000000e+00 7.313460000000000143e-04 4.646386102073506663e+00
6.250000000000000347e-03 1.034999999999999983e-02 4.795614559005787036e+00
0.000000000000000000e+00 9.818879999999999882e-04 3.663349882273834623e+00
2.500000000000000139e-02 2.741379999999999859e-03 4.776253381162333334e+00
3.749999999999999861e-02 9.185269999999999546e-02 2.828234593920746054e+00
0.000000000000000000e+00 1.463300000000000061e-03 3.169685650386806053e+00
0.000000000000000000e+00 4.087040000000000226e-04 1.541517983749740583e-02
3.125000000000000173e-03 1.883899999999999984e-03 2.692302520324009407e+00
9.374999999999999653e-03 9.607899999999999774e-02 3.140621792723612415e+00
1.562500000000000000e-02 1.774589999999999935e-03 3.960762715303520753e+00
1.874999999999999931e-02 1.018420000000000020e-01 3.251711901246173708e-01
0.000000000000000000e+00 3.991040000000000061e-04 4.236821000068008436e-01
