0.000000000000000000e+00 4.434559999999999717e-03 9.856133496338459477e-01
5.312499999999999861e-02 9.812799999999999995e-03 4.438579572601542012e-01
1.562500000000000000e-02 2.494659999999999933e-02 1.705997349188731471e-01
0.000000000000000000e+00 1.537659999999999938e-03 2.229470127253002643e-01
0.000000000000000000e+00 5.437439999999999765e-04 2.036837562845057903e+00
0.000000000000000000e+00 1.440129999999999969e-03 3.504628181534185316e+00
3.125000000000000173e-03 2.213380000000000035e-03 2.441947699722075260e+00
0.000000000000000000e+00 1.106430000000000044e-03 4.201101241844359180e+00
0.000000000000000000e+00 1.260220000000000047e-03 1.129386735823740384e+00
0.000000000000000000e+00 1.062720000000000071e-03 3.539264938498238422e+00
0.000000000000000000e+00 2.145220000000000200e-03 2.694500414335503358e+00
3.125000000000000173e-03 3.830770000000000008e-02 5.954714755536666404e-01
4.062500000000000139e-02 9.282999999999999585e-02 2.221806634521037882e+00
1.874999999999999931e-02 2.174849999999999874e-03 1.888244386347057713e+00
0.000000000000000000e+00 5.102429999999999596e-04 1.517788934798036671e-01
2.812500000000000069e-02 9.474589999999999401e-02 7.884706884054110132e-01
0.000000000000000000e+00 4.873500000000000011e-04 1.214650200539357794e-01
3.125000000000000173e-03 7.425920000000000350e-04 3.601326550014499972e+00
2.500000000000000139e-02 9.249880000000000602e-02 4.509049540842546833e-01
1.874999999999999931e-02 3.714939999999999909e-03 2.526518334773325547e-01
0.000000000000000000e+00 7.266560000000000033e-04 3.161054610095136219e+00
3.125000000000000173e-03 6.072130000000000236e-03 1.028678984120878326e+00
3.125000000000000173e-03 1.644540000000000108e-03 2.299098547098513912e+00
0.000000000000000000e+00 1.190400000000000095e-03 3.603486331169799328e+00
2.500000000000000139e-02 5.216769999999999914e-03 7.735887851688050265e-02
0.000000000000000000e+00 4.112639999999999981e-04 5.467522922223250204e-01
0.000000000000000000e+00 7.128320000000000489e-04 4.487029599893815890e-01
2.500000000000000139e-02 9.251719999999999389e-02 9.681715523292022674e-01
0.000000000000000000e+00 9.798400000000000512e-04 9.797375538510627591e-01
0.000000000000000000e+00 6.515200000000000505e-04 4.207849612508137938e+00
3.125000000000000173e-03 5.776510000000000325e-03 2.861890096952226070e+00
0.000000000000000000e+00 2.303600000000000103e-05 3.760272892115973375e-01
6.250000000000000347e-03 1.696960000000000135e-02 4.314940586242191678e+00
2.812500000000000069e-02 9.332740000000000480e-02 1.594206965526453468e+00
1.874999999999999931e-02 3.662980000000000142e-03 4.340739412818818366e+00
0.000000000000000000e+00 7.346800000000000335e-04 4.966653837282153816e+00
0.000000000000000000e+00 5.112040000000000204e-04 3.632997037129428897e+00
0.000000000000000000e+00 4.179669999999999913e-04 2.378344913766199387e+00
1.250000000000000069e-02 2.842560000000000052e-03 3.711090748805376816e+00
3.125000000000000173e-03 1.007599999999999989e-02 4.034188131580157766e+00
2.187499999999999861e-02 2.342340000000000047e-03 2.915019644126026321e+00
0.000000000000000000e+00 6.239620000000000409e-03 1.648471680894447733e+00
2.812500000000000069e-02 1.062509999999999982e-01 2.778128282350418754e+00
2.812500000000000069e-02 2.124870000000000092e-01 3.366998693616561233e+00
1.874999999999999931e-02 2.397439999999999814e-03 3.784476592480578550e+00
0.000000000000000000e+00 7.954719999999999760e-04 1.489507122723822130e+00
0.000000000000000000e+00 1.206079999999999999e-03 3.077447166165231396e-01
3.125000000000000173e-03 1.008470000000000026e-02 4.669604311712849842e+00
0.000000000000000000e+00 1.926779999999999899e-03 4.021454159288782471e+00
2.500000000000000139e-02 2.456509999999999857e-03 1.824370556137401289e+00
0.000000000000000000e+00 9.973119999999999815e-04 1.198265937511413526e+00
3.125000000000000173e-03 9.857249999999999346e-02 2.651380799082313722e+00
1.874999999999999931e-02 1.652030000000000078e-03 1.941613237921213653e+00
0.000000000000000000e+00 2.017790000000000208e-03 1.703998507677051411e-02
1.562500000000000000e-02 2.112009999999999998e-01 4.513057071049578539e+00
0.000000000000000000e+00 7.324999999999999697e-04 1.154628301880478158e+00
0.000000000000000000e+00 2.293980000000000015e-05 1.418031781816855297e+00
3.125000000000000000e-02 9.370219999999999938e-02 4.164351060441173757e+00
3.125000000000000173e-03 1.843140000000000056e-03 4.820956289335721401e+00
0.000000000000000000e+00 4.008959999999999781e-04 4.612368788162561017e+00
6.250000000000000347e-03 8.045889999999999986e-03 4.492188553614789193e+00
0.000000000000000000e+00 3.857760000000000009e-04 4.213066408307042376e-01
0.000000000000000000e+00 2.305279999999999992e-04 2.843332595871324919e+00
9.374999999999999653e-03 1.665089999999999930e-03 6.761536866763867559e-01
2.187499999999999861e-02 1.662209999999999903e-03 3.400209906446043373e+00
6.250000000000000347e-03 9.702689999999999926e-02 1.096429436457182938e+00
0.000000000000000000e+00 1.302709999999999979e-02 3.893444115213748891e+00
0.000000000000000000e+00 1.816320000000000087e-02 4.137857655693349734e+00
3.125000000000000173e-03 1.057509999999999978e-01 4.535169847164112866e+00
0.000000000000000000e+00 1.690429999999999927e-03 2.030928796694738026e+00
2.500000000000000139e-02 9.553860000000000130e-02 4.117539410079228190e+00
9.374999999999999653e-03 4.308519999999999711e-02 1.957363186188756377e+00
0.000000000000000000e+00 2.297519999999999985e-05 4.425770980933959819e+00
0.000000000000000000e+00 7.508480000000000319e-04 2.150592753796106038e+00
9.374999999999999653e-03 2.106880000000000211e-03 2.198567308991913549e+00
3.125000000000000173e-03 2.499459999999999876e-02 1.200080848785737286e+00
0.000000000000000000e+00 3.842559999999999748e-04 2.622909054548551389e+00
0.000000000000000000e+00 1.655039999999999929e-04 2.463613800812283650e+00
0.000000000000000000e+00 3.716479999999999762e-04 1.998058442146460889e-01
2.500000000000000139e-02 9.294170000000000209e-02 3.646745963971294913e+00
0.000000000000000000e+00 6.837759999999999802e-04 3.585860247363334974e+00
3.749999999999999861e-02 9.266749999999999987e-02 3.483329325995840886e+00
2.187499999999999861e-02 1.071769999999999945e-01 8.897027258563316998e-01
3.125000000000000173e-03 1.638399999999999926e-03 4.404261661313955578e+00
1.031249999999999944e-01 9.041180000000000050e-02 2.599138986913966498e+00
0.000000000000000000e+00 9.404160000000000167e-04 4.317228268243114897e+00
0.000000000000000000e+00 1.402880000000000012e-03 3.779351063880053818e+00
1.093750000000000000e-01 1.018909999999999955e-01 1.451996906260904385e+00
0.000000000000000000e+00 1.336960000000000101e-03 2.940292254629043978e+00
4.374999999999999722e-02 9.922980000000000689e-02 3.593743547746732769e+00
0.000000000000000000e+00 1.584000000000000013e-04 2.911949038445165616e+00
0.000000000000000000e+00 1.339259999999999930e-02 2.414451894110060781e+00
0.000000000000000000e+00 1.133990000000000085e-03 2.761311522168523158e+00
3.125000000000000173e-03 2.057840000000000016e-02 3.435612641855317895e-01
0.000000000000000000e+00 1.008769999999999979e-03 3.691867398817312740e+00
0.000000000000000000e+00 1.663870000000000019e-03 3.958832151560702783e+00
1.250000000000000069e-02 1.779259999999999956e-03 2.433657221634043744e+00
1.874999999999999931e-02 2.732539999999999882e-03 4.996509583068028171e+00
0.000000000000000000e+00 6.906899999999999889e-04 4.948924095214540797e-01
0.000000000000000000e+00 1.139199999999999935e-02 1.648374746052740480e+00
0.000000000000000000e+00 9.039999999999999642e-04 1.107352667999044193e+00
0.000000000000000000e+00 7.572520000000000336e-04 4.429536810579975947e-01
2.812500000000000069e-02 4.610940000000000004e-03 1.738947612710227686e+00
1.562500000000000000e-02 2.260670000000000214e-03 2.098631950820024183e+00
0.000000000000000000e+00 1.148989999999999907e-03 1.065282890825339779e+00
1.250000000000000069e-02 1.931329999999999983e-03 2.029904882546963663e+00
6.562500000000000278e-02 9.168080000000000673e-02 3.320138414501832003e+00
3.125000000000000173e-03 3.498690000000000046e-03 4.723349026862249112e+00
0.000000000000000000e+00 6.531199999999999809e-04 4.154181689974855374e+00
0.000000000000000000e+00 1.823229999999999903e-03 1.526936999121940586e+00
0.000000000000000000e+00 2.145279999999999843e-03 2.892797095344135094e+00
0.000000000000000000e+00 1.450499999999999966e-03 1.086672276952929561e+00
3.125000000000000000e-02 9.653480000000000394e-02 2.044214956955156648e+00
0.000000000000000000e+00 1.187260000000000095e-03 1.070121668939575388e+00
2.500000000000000139e-02 1.565500000000000051e-03 1.361777713304801019e+00
6.250000000000000347e-03 1.733809999999999909e-03 2.889639334752613919e-01
0.000000000000000000e+00 4.347029999999999883e-04 2.240765905584681583e+00
9.374999999999999653e-03 2.997380000000000010e-03 2.240247193235180845e+00
0.000000000000000000e+00 2.248959999999999935e-03 2.004484549430535445e+00
0.000000000000000000e+00 5.463039999999999520e-04 2.454137280576834002e+00
1.562500000000000000e-02 9.291080000000000172e-02 2.439251683772293511e+00
4.062500000000000139e-02 1.686999999999999915e-03 2.910638700997087991e+00
5.000000000000000278e-02 9.309320000000000095e-02 1.939313378733803495e-01
3.125000000000000173e-03 9.726949999999999485e-02 2.383924361828549721e+00
3.125000000000000173e-03 1.943740000000000008e-03 6.010418550550783445e-01
0.000000000000000000e+00 1.093400000000000014e-03 6.535231499694338364e-01
0.000000000000000000e+00 7.430400000000000416e-04 4.208709437640368201e+00
0.000000000000000000e+00 1.238940000000000007e-02 4.068098471398778893e-01
2.500000000000000139e-02 2.687940000000000208e-03 4.213099848605751596e+00
0.000000000000000000e+00 9.891839999999999401e-04 4.069130334205762978e+00
0.000000000000000000e+00 1.479940000000000075e-02 7.275476397233565651e-01
0.000000000000000000e+00 6.241919999999999760e-04 4.133037647682849425e+00
0.000000000000000000e+00 1.965389999999999845e-02 1.390489221671402653e+00
0.000000000000000000e+00 3.158160000000000134e-04 4.468069534378923180e+00
2.500000000000000139e-02 3.036350000000000160e-03 1.649608739548091840e-01
2.500000000000000139e-02 6.335699999999999665e-02 2.998680255112148973e+00
0.000000000000000000e+00 1.315329999999999971e-03 2.893998379472024318e+00
0.000000000000000000e+00 3.822079999999999835e-04 3.717852129956283669e+00
1.562500000000000000e-02 6.839040000000000440e-04 1.517967189303448539e+00
0.000000000000000000e+00 1.095739999999999995e-03 2.691535978087000736e+00
3.125000000000000173e-03 2.054020000000000151e-03 3.106946835428087361e+00
2.500000000000000139e-02 4.200770000000000372e-03 1.174040354296373989e-01
0.000000000000000000e+00 1.733699999999999911e-03 9.013749382126906573e-01
2.500000000000000139e-02 5.529599999999999967e-03 1.400886188715571024e+00
0.000000000000000000e+00 1.126719999999999892e-03 4.333143019850938416e+00
3.437500000000000278e-02 1.012040000000000023e-01 1.222885851829397241e+00
1.874999999999999931e-02 1.826689999999999954e-03 3.082719476385841872e+00
0.000000000000000000e+00 1.042500000000000024e-03 3.568806063082847757e+00
3.125000000000000173e-03 1.720989999999999933e-03 4.921999352854425247e+00
0.000000000000000000e+00 1.683140000000000070e-03 1.456062641563982130e+00
0.000000000000000000e+00 1.162239999999999931e-03 1.058929332033621273e+00
6.250000000000000347e-03 3.491140000000000215e-03 2.711730266472716533e+00
6.250000000000000347e-03 9.582119999999999527e-02 4.437410784278823073e+00
0.000000000000000000e+00 5.100499999999999565e-04 2.373069948329331602e+00
0.000000000000000000e+00 1.191739999999999943e-03 1.366016998598420074e+00
6.250000000000000347e-03 2.075780000000000160e-03 4.076592188938739980e+00
2.812500000000000069e-02 9.476469999999999339e-02 2.094205142841596423e+00
0.000000000000000000e+00 4.079999999999999968e-04 5.056787338410023702e-01
0.000000000000000000e+00 2.590080000000000247e-04 2.445091349486101961e+00
3.125000000000000173e-03 4.600449999999999852e-03 2.735805787467897154e+00
0.000000000000000000e+00 3.774399999999999912e-04 1.116752646579346919e+00
0.000000000000000000e+00 7.330130000000000239e-04 3.659065951058387167e+00
0.000000000000000000e+00 5.247350000000000235e-04 1.846154776031376787e+00
0.000000000000000000e+00 6.179650000000000074e-03 1.479125497112385723e+00
2.500000000000000139e-02 2.280320000000000177e-03 1.997872077075182773e+00
0.000000000000000000e+00 1.527399999999999938e-02 3.317179543951427778e+00
3.125000000000000173e-03 6.718270000000000144e-03 1.366765556574838669e+00
0.000000000000000000e+00 7.270490000000000112e-04 4.724341326800781005e+00
2.500000000000000139e-02 4.698749999999999802e-03 1.611597912268256216e+00
2.500000000000000139e-02 9.769599999999999812e-03 4.533350432054733536e-01
0.000000000000000000e+00 1.941699999999999980e-03 4.059525961190372456e+00
0.000000000000000000e+00 6.501959999999999684e-02 2.978446247859352081e+00
1.250000000000000069e-02 4.061879999999999658e-02 2.503344050523437225e-01
0.000000000000000000e+00 1.109180000000000062e-02 4.589545089584904147e+00
1.562500000000000000e-02 2.221310000000000211e-03 2.171617526062180614e-01
0.000000000000000000e+00 7.286519999999999889e-04 1.024660388489093688e+00
2.500000000000000139e-02 9.352770000000000528e-02 2.785254062993099300e+00
0.000000000000000000e+00 5.192320000000000052e-04 2.429781183301780612e+00
1.562500000000000000e-02 3.882940000000000089e-03 4.852523445829537430e+00
0.000000000000000000e+00 3.813120000000000246e-04 2.252461440955672023e-01
0.000000000000000000e+00 2.503099999999999856e-03 1.765955366405298044e+00
0.000000000000000000e+00 2.037179999999999894e-02 4.138293317546992700e-01
6.250000000000000347e-03 9.937999999999999612e-02 8.422083705144095545e-01
0.000000000000000000e+00 5.760000000000000146e-04 2.897658992846521286e+00
0.000000000000000000e+00 1.141249999999999903e-03 2.955354254088579768e+00
0.000000000000000000e+00 1.769590000000000111e-05 3.215562873486911499e+00
3.125000000000000173e-03 1.911039999999999918e-03 3.509103825455807790e+00
3.437500000000000278e-02 8.649220000000000866e-03 3.802458830200174056e+00
6.250000000000000347e-03 1.726950000000000100e-03 4.533064744417655945e+00
0.000000000000000000e+00 8.514560000000000010e-04 2.307017769343373992e+00
0.000000000000000000e+00 7.028479999999999494e-04 3.277149532792424047e+00
0.000000000000000000e+00 1.102590000000000080e-03 3.705651553036550361e+00
1.562500000000000000e-02 2.806400000000000127e-03 3.400007475286054515e+00
0.000000000000000000e+00 1.964799999999999891e-04 4.320427111499058448e+00
0.000000000000000000e+00 3.571649999999999998e-03 3.819157685691799031e+00
3.125000000000000173e-03 3.012669999999999845e-03 4.747035716365598290e+00
6.250000000000000347e-03 9.528040000000000120e-02 7.422749430240604962e-01
5.625000000000000139e-02 9.753019999999999398e-03 2.479489439479363622e+00
0.000000000000000000e+00 1.744840000000000052e-04 4.976041238528106980e+00
3.125000000000000173e-03 2.250690000000000069e-03 2.537167376568758570e+00
0.000000000000000000e+00 1.477550000000000044e-02 3.334047462968769970e-01
0.000000000000000000e+00 8.258500000000000216e-03 2.584866436196028516e+00
0.000000000000000000e+00 5.701999999999999820e-04 4.419793838904595873e+00
1.250000000000000069e-02 2.069590000000000041e-01 2.064365507739845951e-01
3.125000000000000173e-03 3.832819999999999803e-03 1.313213939514034756e+00
0.000000000000000000e+00 1.108159999999999961e-03 3.829504755344746325e+00
0.000000000000000000e+00 5.112689999999999596e-04 1.924326303920179004e+00
2.812500000000000069e-02 2.563259999999999931e-03 1.299360699915580453e-01
1.250000000000000069e-02 3.197059999999999833e-03 1.715041985356458021e+00
0.000000000000000000e+00 3.660479999999999810e-03 2.306362232975252446e+00
0.000000000000000000e+00 0.000000000000000000e+00 4.518824875206498781e+00
3.125000000000000000e-02 9.721030000000000296e-03 4.854811180635162593e+00
1.250000000000000069e-02 2.404219999999999881e-03 4.444677664075044277e+00
0.000000000000000000e+00 1.667840000000000078e-04 9.779901614931579834e-01
0.000000000000000000e+00 7.985340000000000493e-02 3.442252199941224333e+00
0.000000000000000000e+00 1.792769999999999954e-03 6.077284139769567606e-01
0.000000000000000000e+00 3.478399999999999765e-04 1.533702796409354807e+00
0.000000000000000000e+00 1.151679999999999978e-03 3.848628513752206270e+00
0.000000000000000000e+00 1.215740000000000093e-03 3.610936380740452201e+00
6.250000000000000347e-03 9.654799999999999494e-02 3.823425815020088159e+00
1.250000000000000069e-02 3.103489999999999981e-03 6.125717103481265191e-01
0.000000000000000000e+00 3.841280000000000193e-04 1.262906928042045074e+00
2.500000000000000139e-02 3.669120000000000107e-03 2.664661237332388577e+00
3.125000000000000173e-03 9.776260000000000505e-02 1.640237285016900692e+00
6.250000000000000347e-03 1.057170000000000054e-01 3.337189548380318449e+00
9.687500000000000278e-02 2.025510000000000158e-02 4.007920424434312068e+00
3.125000000000000173e-03 1.120380000000000030e-03 1.167037109586441357e+00
2.812500000000000069e-02 7.519170000000000367e-03 4.816802709923415193e+00
0.000000000000000000e+00 4.150809999999999786e-04 2.668657082254089374e+00
1.250000000000000069e-02 3.086180000000000173e-02 2.147770997550449312e+00
0.000000000000000000e+00 1.961660000000000140e-02 4.574695734752665111e+00
2.500000000000000139e-02 2.670780000000000202e-03 3.874534908427451185e+00
3.749999999999999861e-02 9.289780000000000260e-02 4.206933444597710237e-01
0.000000000000000000e+00 3.734640000000000008e-04 4.605042181807808888e+00
3.125000000000000173e-03 9.185849999999999571e-02 3.402641111874866287e+00
2.500000000000000139e-02 1.060379999999999934e-01 4.532847686512837981e+00
2.187499999999999861e-02 4.813249999999999820e-03 3.085236036102169788e+00
3.125000000000000173e-03 3.488639999999999883e-03 4.632426484400386180e+00
0.000000000000000000e+00 4.038399999999999824e-04 1.334002773497510841e+00
1.562500000000000000e-02 9.240750000000000353e-02 3.518892618400779160e+00
0.000000000000000000e+00 1.382530000000000087e-03 1.297261764616541413e+00
0.000000000000000000e+00 1.188739999999999936e-02 3.431858497236353056e+00
2.187499999999999861e-02 3.086719999999999828e-03 1.641159381657117500e+00
2.187499999999999861e-02 2.078459999999999856e-03 2.034885738347912643e+00
1.250000000000000069e-02 2.070670000000000011e-01 7.138773641755208343e-01
2.187499999999999861e-02 3.548669999999999863e-03 1.989471363739164778e-01
1.874999999999999931e-02 1.709819999999999916e-03 3.224414992557217197e+00
0.000000000000000000e+00 1.212989999999999945e-03 4.641064788907013572e+00
0.000000000000000000e+00 1.637250000000000033e-03 3.055527761780603591e+00
3.437500000000000278e-02 9.195989999999999720e-02 1.435200833323218461e+00
0.000000000000000000e+00 8.764159999999999789e-04 4.033491548864617471e+00
3.125000000000000173e-03 6.986240000000000115e-04 1.246364891969075739e+00
0.000000000000000000e+00 1.675969999999999934e-03 1.700660025929322527e+00
9.374999999999999653e-03 4.584829999999999808e-03 2.682800794178304304e+00
2.500000000000000139e-02 9.386429999999999774e-02 1.141313424277884403e+00
0.000000000000000000e+00 6.736640000000000336e-04 3.830764904713220176e+00
2.500000000000000139e-02 2.490819999999999926e-03 4.863502087747436420e+00
0.000000000000000000e+00 2.405389999999999872e-03 6.304343889652896937e-02
2.187499999999999861e-02 3.122180000000000007e-03 2.162975995612229418e+00
0.000000000000000000e+00 1.167510000000000076e-02 3.833255251677227804e+00
3.125000000000000173e-03 1.933500000000000106e-03 1.095070405962168536e+00
2.812500000000000069e-02 9.254629999999999801e-02 2.283634749481107562e+00
0.000000000000000000e+00 1.935740000000000030e-03 1.113934030630195249e+00
3.125000000000000173e-03 7.020669999999999689e-03 4.947583981790502072e+00
0.000000000000000000e+00 4.304070000000000010e-04 1.448593916743560195e+00
1.874999999999999931e-02 2.953470000000000140e-03 3.678605426740916506e+00
0.000000000000000000e+00 3.774079999999999753e-04 4.524085303300878769e-01
3.125000000000000173e-03 1.941180000000000032e-03 5.723712645001427513e-01
0.000000000000000000e+00 6.574719999999999826e-04 1.813994221488959280e+00
0.000000000000000000e+00 1.939009999999999909e-03 2.266679736658670841e+00
0.000000000000000000e+00 1.788160000000000010e-03 2.276944907585367606e+00
5.937499999999999722e-02 6.538470000000000393e-02 6.198389530920184187e-01
0.000000000000000000e+00 4.867089999999999915e-04 1.641323099301887911e+00
0.000000000000000000e+00 3.642879999999999925e-04 3.570102698305794853e+00
0.000000000000000000e+00 2.622640000000000041e-02 9.634875642557633180e-01
2.187499999999999861e-02 2.249859999999999794e-03 2.388041152140941925e+00
2.812500000000000069e-02 2.597059999999999994e-03 6.909551150619092086e-01
1.874999999999999931e-02 2.565439999999999995e-03 4.073751447287702554e+00
1.874999999999999931e-02 3.034110000000000019e-03 1.346578126873108072e+00
0.000000000000000000e+00 2.777640000000000057e-03 4.999209126886333010e+00
3.125000000000000173e-03 2.213380000000000035e-03 4.839625106412985822e+00
1.874999999999999931e-02 9.522930000000000283e-02 2.482395206026946521e+00
2.187499999999999861e-02 3.118339999999999827e-03 2.290052636298173461e+00
0.000000000000000000e+00 1.217860000000000080e-03 1.706520717895437800e+00
0.000000000000000000e+00 9.663360000000000396e-04 2.473602477973156688e+00
3.125000000000000173e-03 7.942199999999999954e-03 8.899393985408127206e-01
1.562500000000000000e-02 9.322529999999999706e-02 1.040461194651957078e+00
0.000000000000000000e+00 1.998339999999999925e-03 3.422862224361977734e-01
9.374999999999999653e-03 2.901180000000000165e-03 2.894086690441918908e+00
0.000000000000000000e+00 1.177730000000000096e-03 3.501610326439994036e+00
0.000000000000000000e+00 1.437249999999999943e-03 4.773609700953941548e+00
0.000000000000000000e+00 6.453890000000000321e-03 1.927503832518406401e+00
0.000000000000000000e+00 4.179530000000000051e-02 3.206963938051090590e+00
3.125000000000000173e-03 9.643329999999999957e-02 1.700375994704943050e+00
0.000000000000000000e+00 2.548860000000000015e-03 4.407771408833990101e+00
0.000000000000000000e+00 2.286900000000000076e-05 6.124228120024832744e-02
0.000000000000000000e+00 1.258879999999999982e-03 4.308457132588166871e+00
0.000000000000000000e+00 3.350399999999999906e-04 2.152728895927584762e+00
6.250000000000000347e-03 1.575170000000000086e-03 6.364420274479642980e-02
0.000000000000000000e+00 1.721200000000000055e-05 1.899052218580649765e+00
0.000000000000000000e+00 2.491900000000000018e-03 1.040977368246008838e+00
3.125000000000000173e-03 7.189120000000000449e-04 3.251515906223328978e-01
0.000000000000000000e+00 7.703980000000000463e-04 1.029883794147627540e+00
0.000000000000000000e+00 6.951680000000000229e-04 1.805784084009128820e+00
0.000000000000000000e+00 9.217920000000000540e-04 2.162653137685449645e-01
0.000000000000000000e+00 3.269450000000000134e-02 1.613761497413257473e+00
1.562500000000000000e-02 1.053629999999999983e-01 4.038677967233532229e+00
2.187499999999999861e-02 1.068390000000000034e-01 3.249711280591786711e+00
0.000000000000000000e+00 4.480409999999999883e-04 4.189297656250051460e+00
3.125000000000000173e-03 9.677429999999999366e-02 3.123173566072557250e+00
0.000000000000000000e+00 3.915470000000000105e-04 3.272119423830937457e+00
0.000000000000000000e+00 1.140479999999999923e-03 5.113009413742874987e-01
3.125000000000000173e-03 6.494390000000000059e-03 4.304189307218514449e-01
0.000000000000000000e+00 2.974529999999999969e-03 4.572919406875035619e+00
0.000000000000000000e+00 9.768960000000001011e-04 1.604569676288327251e+00
3.125000000000000173e-03 1.729190000000000024e-03 3.437539911592207176e+00
0.000000000000000000e+00 0.000000000000000000e+00 1.356890363646257036e+00
0.000000000000000000e+00 1.023390000000000064e-02 2.631445780479245045e+00
9.374999999999999653e-03 7.853439999999999943e-04 4.238429320166561709e+00
0.000000000000000000e+00 6.295030000000000070e-02 4.627048754808570585e+00
9.374999999999999653e-03 4.206910000000000337e-03 4.567888151396795493e+00
3.125000000000000173e-03 6.561280000000000064e-03 2.788595201625156950e+00
0.000000000000000000e+00 3.867139999999999814e-03 8.337757616829616358e-01
3.125000000000000173e-03 2.415299999999999999e-03 1.137198120185339834e-01
4.374999999999999722e-02 9.801280000000000756e-03 3.998254941472039636e+00
1.250000000000000069e-02 9.262140000000000650e-02 3.706000670401762065e+00
0.000000000000000000e+00 1.911039999999999918e-04 3.864933184481685657e+00
1.562500000000000000e-02 2.428860000000000133e-03 4.887216496157992474e+00
4.687500000000000000e-02 9.348710000000000353e-02 7.946535519705560935e-01
0.000000000000000000e+00 6.084820000000000333e-04 2.670772857398709288e+00
3.125000000000000173e-03 1.030490000000000052e-02 4.590119265844718299e+00
0.000000000000000000e+00 7.469920000000000336e-04 2.927526221891253222e+00
3.125000000000000173e-03 1.812610000000000089e-03 3.642210485481214732e+00
2.812500000000000069e-02 7.447040000000000257e-03 5.016363064414053330e-01
0.000000000000000000e+00 7.200840000000000019e-02 3.687569421187553154e-01
0.000000000000000000e+00 2.109439999999999915e-04 1.331172062614719431e+00
2.500000000000000139e-02 3.308540000000000005e-03 3.524954440790539767e-01
0.000000000000000000e+00 1.440190000000000047e-03 4.967315397627494633e+00
2.500000000000000139e-02 2.929789999999999825e-03 4.375841410445368673e+00
0.000000000000000000e+00 1.907489999999999880e-02 2.840029308351792903e+00
2.812500000000000069e-02 3.243390000000000075e-03 2.450601774489207685e+00
1.562500000000000000e-02 2.056130000000000197e-03 3.249125303574622148e+00
1.562500000000000000e-02 1.922239999999999973e-03 4.315615151258429982e+00
0.000000000000000000e+00 4.154879999999999901e-04 4.009538848543039435e+00
5.937499999999999722e-02 1.071529999999999982e-01 4.415360912413762939e+00
2.500000000000000139e-02 2.441920000000000202e-03 1.627028853201159642e+00
0.000000000000000000e+00 9.772800000000000757e-04 4.118084022056287097e+00
0.000000000000000000e+00 5.173120000000000236e-04 4.187850787102140870e+00
0.000000000000000000e+00 1.146429999999999932e-03 1.946935783039512202e+00
0.000000000000000000e+00 3.792350000000000105e-04 9.599297595238243108e-01
0.000000000000000000e+00 3.745539999999999785e-04 3.536184344692147707e+00
4.374999999999999722e-02 9.292340000000000322e-02 2.320960537731836526e-01
0.000000000000000000e+00 5.100499999999999565e-04 4.997885445870712928e+00
0.000000000000000000e+00 7.274340000000000016e-04 3.312264026455991495e+00
2.500000000000000139e-02 4.738520000000000232e-02 4.013226693971039261e+00
0.000000000000000000e+00 6.139689999999999731e-02 4.261680330353207147e+00
0.000000000000000000e+00 4.047570000000000009e-04 1.041386881868553882e+00
0.000000000000000000e+00 9.695360000000000089e-04 2.462237962721338658e+00
0.000000000000000000e+00 6.066869999999999598e-04 1.025577734586517575e+00
2.812500000000000069e-02 2.896960000000000073e-03 1.721380750780018287e+00
0.000000000000000000e+00 2.592639999999999897e-04 2.000450925050148321e+00
0.000000000000000000e+00 3.742330000000000201e-04 6.431859991029498236e-01
0.000000000000000000e+00 7.526349999999999794e-04 2.414379247800069628e+00
1.250000000000000069e-02 5.027969999999999662e-03 3.615692627999689712e+00
0.000000000000000000e+00 7.083890000000000239e-04 4.504010055539758861e-01
0.000000000000000000e+00 0.000000000000000000e+00 6.093881094343006621e-01
0.000000000000000000e+00 1.121220000000000029e-03 2.314128303112585883e+00
3.125000000000000173e-03 2.361279999999999889e-03 6.355321080165915459e-01
0.000000000000000000e+00 1.337660000000000064e-03 1.674219835453523153e+00
0.000000000000000000e+00 2.537660000000000176e-03 2.088076629802426698e+00
0.000000000000000000e+00 4.231610000000000232e-04 1.053147139961741363e+00
3.125000000000000173e-03 2.338509999999999808e-03 5.672450794937372587e-01
3.125000000000000000e-02 2.133009999999999906e-01 8.790147670012449233e-01
0.000000000000000000e+00 3.089469999999999977e-03 1.195152415946816316e+00
0.000000000000000000e+00 1.244029999999999919e-03 4.814161974914903830e+00
0.000000000000000000e+00 3.950110000000000166e-04 3.086309964152108343e+00
0.000000000000000000e+00 6.708120000000000142e-04 4.953240192101302064e+00
0.000000000000000000e+00 1.534779999999999912e-03 3.312826916861413729e+00
6.250000000000000347e-03 2.913020000000000106e-03 2.176453846072846865e+00
0.000000000000000000e+00 3.570480000000000008e-04 3.979729998190162377e+00
1.250000000000000069e-02 3.746349999999999680e-02 7.880241918926617073e-01
0.000000000000000000e+00 6.951680000000000229e-04 1.531231055347415104e-01
0.000000000000000000e+00 1.031039999999999995e-03 1.425272449245875261e+00
1.562500000000000000e-02 2.017409999999999863e-03 2.170872311682919165e+00
7.812500000000000000e-02 5.946209999999999690e-02 2.303148176211304410e+00
6.250000000000000347e-03 4.577219999999999900e-03 3.493696073622222009e+00
0.000000000000000000e+00 1.131399999999999940e-02 2.630987706559697603e+00
0.000000000000000000e+00 6.979840000000000176e-04 2.515910666430408060e+00
0.000000000000000000e+00 1.616059999999999892e-03 4.474392544380868308e+00
9.375000000000000000e-02 1.323829999999999972e-02 8.420804687413235845e-01
0.000000000000000000e+00 1.124860000000000096e-03 1.984056158831867922e+00
0.000000000000000000e+00 2.330239999999999916e-03 1.958395565038618003e+00
0.000000000000000000e+00 6.018560000000000056e-04 2.409102131124039481e+00
3.125000000000000173e-03 2.399490000000000216e-03 4.899772128606706190e+00
0.000000000000000000e+00 9.663360000000000396e-04 4.286425512260205739e-01
6.250000000000000347e-03 2.070369999999999988e-01 9.893142405818300400e-01
3.125000000000000173e-03 1.288539999999999998e-02 4.968264064034592309e+00
0.000000000000000000e+00 3.203140000000000154e-03 4.885660016358908564e+00
2.812500000000000069e-02 6.175880000000000258e-02 2.803588689525808419e+00
0.000000000000000000e+00 5.171200000000000362e-04 2.318237845486326165e+00
0.000000000000000000e+00 3.100349999999999981e-03 1.934274240260911437e+00
0.000000000000000000e+00 0.000000000000000000e+00 2.160556788810040096e+00
0.000000000000000000e+00 9.400740000000000528e-04 7.393581098011614561e-01
0.000000000000000000e+00 7.307680000000000209e-04 5.786980412750242220e-01
0.000000000000000000e+00 4.308560000000000233e-04 4.573709894389903496e+00
2.187499999999999861e-02 2.581309999999999855e-03 1.240737858999260146e+00
5.000000000000000278e-02 9.247229999999999339e-02 1.772200160335401620e+00
2.812500000000000069e-02 2.134399999999999839e-03 3.161717785200768738e+00
0.000000000000000000e+00 5.056259999999999921e-03 1.228165609091973476e+00
0.000000000000000000e+00 9.103359999999999794e-04 1.086622504648293575e-01
2.500000000000000139e-02 2.552580000000000040e-03 2.728497505386922484e+00
6.250000000000000347e-03 9.745389999999999608e-02 1.405756787049719403e+00
6.250000000000000347e-03 9.556749999999999967e-02 1.366485682383747902e+00
2.500000000000000139e-02 1.812290000000000038e-03 4.601300717419201547e+00
1.874999999999999931e-02 2.794430000000000091e-03 1.451100979677817815e+00
0.000000000000000000e+00 2.552960000000000168e-04 3.869547023779892569e+00
2.187499999999999861e-02 1.013809999999999989e-01 2.580877774387571488e+00
0.000000000000000000e+00 1.493809999999999930e-02 8.573258576716941137e-01
0.000000000000000000e+00 3.548800000000000175e-04 1.550980031427494632e+00
0.000000000000000000e+00 3.431619999999999809e-02 1.067500912914516764e+00
0.000000000000000000e+00 7.291650000000000431e-04 3.369002925823015193e+00
0.000000000000000000e+00 9.597440000000000051e-04 8.227521238527318870e-01
0.000000000000000000e+00 2.358170000000000158e-05 3.334673229998301736e+00
1.874999999999999931e-02 1.846460000000000072e-03 3.295246815962851183e+00
2.812500000000000069e-02 2.114239999999999869e-03 2.242733538317968733e+00
3.437500000000000278e-02 7.954189999999999872e-03 2.535580335377324301e-01
1.250000000000000069e-02 3.103489999999999981e-03 2.451246303988602548e+00
4.062500000000000139e-02 9.199789999999999357e-02 4.377667126164837441e+00
9.374999999999999653e-03 2.903230000000000133e-03 3.558644952556764718e+00
1.250000000000000069e-02 5.011139999999999865e-03 9.393540315824050468e-01
0.000000000000000000e+00 0.000000000000000000e+00 1.231488203862203257e+00
1.874999999999999931e-02 1.874049999999999935e-03 4.243664901991582639e+00
0.000000000000000000e+00 7.368599999999999890e-04 2.605596229131550423e+00
0.000000000000000000e+00 1.777279999999999897e-04 4.046102190455559189e+00
2.500000000000000139e-02 3.075650000000000085e-03 2.492386977130482517e+00
6.250000000000000347e-03 5.435459999999999597e-03 2.678480144712264144e-01
1.250000000000000069e-02 2.900160000000000151e-03 1.655928009365859044e-01
0.000000000000000000e+00 5.462530000000000163e-03 8.608266419331817021e-01
1.250000000000000069e-02 3.171779999999999912e-03 2.555374563532161858e+00
0.000000000000000000e+00 1.637889999999999919e-03 4.460222315091904477e+00
6.250000000000000347e-03 8.387779999999999195e-03 5.525429038764761991e-01
3.125000000000000173e-03 6.901760000000000273e-04 3.937150133713324784e+00
3.125000000000000173e-03 1.739949999999999830e-02 2.355397629963547068e+00
0.000000000000000000e+00 7.335259999999999697e-04 3.727095289153353974e+00
3.125000000000000173e-03 1.011120000000000074e-02 3.732347812818522126e+00
6.250000000000000347e-03 2.608640000000000177e-03 2.337371026794797579e+00
0.000000000000000000e+00 7.984860000000000525e-04 1.422411606278370932e+00
0.000000000000000000e+00 1.107600000000000078e-02 5.004063116897028429e-01
5.312499999999999861e-02 9.909569999999999490e-03 3.421488985853521347e-01
0.000000000000000000e+00 6.487030000000000574e-02 8.006178272612579638e-01
0.000000000000000000e+00 1.176699999999999925e-03 1.747006286644794404e+00
2.812500000000000069e-02 9.749059999999999671e-02 3.272125034382605824e-01
0.000000000000000000e+00 4.866370000000000071e-03 3.421210287210227463e+00
0.000000000000000000e+00 6.239999999999999887e-04 4.180960801781123060e+00
0.000000000000000000e+00 1.171660000000000063e-02 1.786118626485831307e+00
1.874999999999999931e-02 3.712260000000000212e-03 5.196009399207801582e-01
6.250000000000000347e-03 3.648139999999999803e-03 2.987363640350552352e+00
2.187499999999999861e-02 5.554879999999999887e-03 5.114723388190561826e-01
6.250000000000000347e-03 1.452539999999999994e-03 1.693354339831844024e+00
1.250000000000000069e-02 2.006659999999999954e-03 8.936006053668177351e-01
0.000000000000000000e+00 6.993919999999999824e-03 4.454891408530686547e+00
3.125000000000000173e-03 9.540039999999999631e-02 2.607259729293299078e+00
3.125000000000000173e-03 7.934059999999999724e-03 1.407205021654510002e+00
3.437500000000000278e-02 9.301619999999999333e-02 1.447396760094685764e+00
3.125000000000000173e-03 2.596359999999999814e-03 2.802078816744510092e+00
0.000000000000000000e+00 7.301910000000000431e-04 4.128574686615512412e+00
6.250000000000000347e-03 6.879359999999999946e-04 7.830912879618057154e-01
3.125000000000000173e-03 1.727360000000000050e-03 2.745086184980743971e-01
0.000000000000000000e+00 9.025279999999999891e-04 1.813021263956935414e+00
3.125000000000000173e-03 1.838720000000000068e-03 4.195580088575907141e+00
2.187499999999999861e-02 2.864769999999999990e-03 4.725520243962233913e+00
0.000000000000000000e+00 2.293009999999999921e-05 4.640313316293425139e+00
1.874999999999999931e-02 2.484740000000000039e-03 2.267506723529416623e-01
2.812500000000000069e-02 2.518779999999999977e-03 1.258156413557916409e+00
0.000000000000000000e+00 2.277589999999999991e-05 1.271332478825959456e+00
0.000000000000000000e+00 2.304980000000000079e-05 5.793478287461090170e-01
0.000000000000000000e+00 9.570559999999999658e-04 3.878160745435152101e+00
0.000000000000000000e+00 6.927419999999999889e-04 4.767571359066027803e+00
1.874999999999999931e-02 9.537579999999999669e-02 8.125651421302032551e-01
1.000000000000000056e-01 4.848849999999999688e-02 9.863500726175483679e-01
0.000000000000000000e+00 3.003219999999999848e-02 4.041035540091797884e+00
0.000000000000000000e+00 2.280469999999999869e-05 2.644735154392162002e+00
0.000000000000000000e+00 6.629119999999999848e-04 4.065297268684336274e+00
0.000000000000000000e+00 0.000000000000000000e+00 4.549871875410065769e+00
0.000000000000000000e+00 1.011519999999999911e-03 3.500153967900945684e+00
0.000000000000000000e+00 1.167300000000000022e-03 2.982671435994199705e-01
2.187499999999999861e-02 1.435070000000000096e-03 2.116135806921859874e+00
0.000000000000000000e+00 1.392000000000000008e-03 2.504575919707188181e+00
3.125000000000000173e-03 7.826200000000000170e-03 4.465750121992369870e+00
0.000000000000000000e+00 1.019579999999999965e-03 3.728797273891863551e+00
6.250000000000000347e-03 1.064129999999999937e-03 2.602292232384027848e+00
3.125000000000000173e-03 9.433719999999999606e-02 4.932465494268589268e+00
0.000000000000000000e+00 5.256829999999999663e-03 1.956295316298148457e+00
3.125000000000000173e-03 1.021979999999999937e-02 1.290890777897080621e+00
0.000000000000000000e+00 7.288449999999999920e-04 1.492194096271374892e+00
0.000000000000000000e+00 1.744639999999999884e-04 1.642934127834006386e+00
0.000000000000000000e+00 3.868799999999999822e-04 2.271985235823866134e+00
9.374999999999999653e-03 2.680899999999999950e-03 4.212389417589711194e+00
3.125000000000000173e-03 1.820350000000000093e-03 1.820844836309741810e+00
0.000000000000000000e+00 2.275699999999999913e-05 1.612807520436893016e-01
6.250000000000000347e-03 1.424190000000000091e-03 1.222887427586555331e+00
0.000000000000000000e+00 6.815359999999999474e-04 2.148879844575129372e+00
0.000000000000000000e+00 1.061700000000000057e-03 3.461365940201603930e+00
0.000000000000000000e+00 4.747169999999999884e-04 2.782093415719397278e+00
3.125000000000000173e-03 7.786630000000000114e-03 3.978864163775271301e+00
3.125000000000000173e-03 2.548130000000000013e-03 9.356519400930668473e-01
3.125000000000000000e-02 9.231469999999999954e-02 2.213674035521412620e+00
4.374999999999999722e-02 9.395209999999999673e-02 1.557564117248402269e+00
2.500000000000000139e-02 1.786110000000000041e-03 2.224757089828374390e+00
1.562500000000000000e-02 3.924350000000000060e-03 1.251865011359988955e+00
0.000000000000000000e+00 1.109310000000000070e-03 5.586530736904038452e-01
2.812500000000000069e-02 2.490880000000000004e-03 1.246464030043081817e-01
2.812500000000000069e-02 1.722180000000000022e-03 2.864994125429841887e+00
2.500000000000000139e-02 5.384830000000000172e-03 2.023898158708927753e+00
0.000000000000000000e+00 1.915839999999999904e-02 4.453027503093267114e+00
0.000000000000000000e+00 2.644029999999999905e-03 2.721165027431532435e-01
0.000000000000000000e+00 1.003140000000000021e-03 2.343457457755014239e+00
0.000000000000000000e+00 1.314049999999999984e-03 4.707311847390417192e+00
0.000000000000000000e+00 2.181009999999999977e-05 8.123924455720160642e-01
1.250000000000000069e-02 3.101819999999999924e-03 4.475951056095935243e+00
0.000000000000000000e+00 1.010110000000000044e-03 1.235273279588401385e+00
0.000000000000000000e+00 5.738600000000000385e-04 2.996876043737384254e-01
0.000000000000000000e+00 1.687039999999999894e-04 1.897575676912082621e+00
3.125000000000000173e-03 1.066440000000000027e-01 6.018749970205317101e-01
0.000000000000000000e+00 6.183679999999999993e-04 4.801202554941215617e+00
0.000000000000000000e+00 1.011069999999999981e-03 2.891548693749931509e+00
1.250000000000000069e-02 2.427260000000000095e-03 4.091068045637191730e+00
0.000000000000000000e+00 1.733489999999999898e-05 4.320370898238408586e+00
2.812500000000000069e-02 9.233479999999999466e-02 2.261252972515932491e+00
2.187499999999999861e-02 9.895629999999999704e-02 3.646446984072410080e-01
0.000000000000000000e+00 1.226050000000000013e-03 2.404775710229495544e+00
1.874999999999999931e-02 1.044510000000000056e-02 3.999225147092981381e+00
2.500000000000000139e-02 9.386959999999999749e-02 1.266122578837592272e+00
0.000000000000000000e+00 8.910079999999999910e-04 4.693484387717440143e+00
0.000000000000000000e+00 4.265590000000000202e-04 7.200715983311067880e-01
9.374999999999999653e-03 1.898619999999999952e-03 4.628004421730376627e+00
1.562500000000000000e-02 3.088319999999999867e-03 2.175559103139269368e+00
5.625000000000000139e-02 4.857469999999999843e-02 4.521475333398439211e+00
3.125000000000000173e-03 1.836100000000000015e-03 5.174236139288856950e-01
4.687500000000000000e-02 8.593730000000000813e-03 1.261803327200391456e+00
6.250000000000000347e-03 5.312060000000000393e-03 1.358151306802920510e+00
0.000000000000000000e+00 3.775040000000000231e-04 6.571745057084321662e-01
0.000000000000000000e+00 1.597470000000000140e-02 3.307727823949850876e+00
1.562500000000000000e-02 2.170239999999999930e-03 2.238881990373365216e+00
0.000000000000000000e+00 3.873279999999999887e-04 1.756173261971642585e+00
3.125000000000000173e-03 9.726949999999999485e-02 2.507803888509000600e+00
0.000000000000000000e+00 2.278110000000000115e-05 1.212872506901245817e+00
0.000000000000000000e+00 1.093760000000000045e-03 2.672279941277522219e-01
2.187499999999999861e-02 9.273130000000000261e-02 2.023231168376321554e-01
0.000000000000000000e+00 1.036290000000000041e-03 2.906289995664507186e-01
0.000000000000000000e+00 3.784959999999999757e-04 4.133366755724404484e+00
0.000000000000000000e+00 1.384009999999999971e-03 3.364369878269918068e+00
0.000000000000000000e+00 8.775519999999999762e-04 1.813121455145694672e+00
0.000000000000000000e+00 2.160640000000000130e-03 2.395909706800619432e+00
0.000000000000000000e+00 9.531699999999999895e-02 2.899463512306704516e+00
3.125000000000000173e-03 1.915459999999999906e-03 1.118915604538178732e+00
3.125000000000000173e-03 1.036830000000000043e-02 4.619917687292281805e+00
0.000000000000000000e+00 4.952319999999999639e-04 1.874359579793378749e+00
0.000000000000000000e+00 3.797760000000000176e-04 5.663295781363125725e-01
0.000000000000000000e+00 1.037949999999999940e-03 3.445687942341121079e+00
0.000000000000000000e+00 6.576259999999999571e-03 3.428704306245101030e+00
3.125000000000000173e-03 1.245399999999999979e-02 3.765093753020052780e+00
3.125000000000000000e-02 1.693950000000000056e-03 1.945986938388568177e+00
3.125000000000000000e-02 9.259810000000000263e-02 3.529212319907811146e+00
3.125000000000000173e-03 1.842179999999999903e-03 2.941956894011998891e-03
1.000000000000000056e-01 2.995990000000000111e-02 3.480261374312431766e+00
0.000000000000000000e+00 2.746879999999999830e-04 1.094921702197328983e+00
2.187499999999999861e-02 1.332349999999999941e-03 8.804494565401677075e-01
2.500000000000000139e-02 3.021180000000000046e-03 1.882452331610525054e+00
0.000000000000000000e+00 1.379460000000000105e-03 3.297816962243829586e+00
3.125000000000000173e-03 1.133380000000000021e-03 1.163290542945087491e+00
2.500000000000000139e-02 2.013630000000000194e-03 3.917783146143101636e+00
0.000000000000000000e+00 1.560959999999999908e-04 1.215424818402189189e+00
0.000000000000000000e+00 1.958399999999999952e-04 1.917266017186203264e+00
1.562500000000000000e-02 1.465539999999999985e-03 1.198829898239281544e+00
0.000000000000000000e+00 3.035520000000000102e-04 3.700906007850942814e+00
0.000000000000000000e+00 3.405620000000000175e-02 3.592389689126562757e+00
4.062500000000000139e-02 9.300010000000000221e-02 1.895270670870252694e-03
0.000000000000000000e+00 2.972610000000000096e-03 3.990147942498550648e+00
0.000000000000000000e+00 1.393020000000000022e-03 8.148969233806591106e-04
2.812500000000000069e-02 2.013309999999999926e-03 1.898578791786453834e-01
1.250000000000000069e-02 1.394749999999999939e-03 4.814363089135165197e-01
5.312499999999999861e-02 9.023679999999999202e-03 2.775959149423529837e+00
0.000000000000000000e+00 2.280450000000000164e-05 1.347244567254270553e+00
0.000000000000000000e+00 3.793630000000000201e-04 1.084973746753338908e+00
0.000000000000000000e+00 1.816390000000000018e-02 1.061511345052507105e+00
0.000000000000000000e+00 4.402439999999999652e-03 3.109112113722451998e+00
9.374999999999999653e-03 1.485900000000000068e-02 1.294154885165610835e+00
2.187499999999999861e-02 1.847300000000000070e-03 3.127476128469431238e+00
3.125000000000000173e-03 1.916100000000000008e-03 3.691580139384536885e+00
0.000000000000000000e+00 3.448259999999999867e-03 9.550262090373984325e-01
0.000000000000000000e+00 1.266369999999999952e-03 4.901512533684451611e+00
3.125000000000000173e-03 1.721630000000000035e-03 4.603960212179818434e+00
0.000000000000000000e+00 7.031680000000000005e-04 7.896735964776263605e-01
1.250000000000000069e-02 2.148290000000000182e-03 4.478777726630932321e+00
0.000000000000000000e+00 9.591180000000000148e-04 2.595860270176256090e+00
1.562500000000000000e-02 9.684819999999999540e-02 7.426858059776597631e-01
0.000000000000000000e+00 5.390990000000000235e-04 1.780899813877359517e+00
0.000000000000000000e+00 1.137980000000000025e-03 2.634901695553197420e+00
9.374999999999999653e-03 4.771010000000000008e-03 4.697146841226650160e+00
0.000000000000000000e+00 4.172609999999999882e-04 2.084776726387565393e+00
0.000000000000000000e+00 9.957970000000000883e-04 4.194334490731205456e+00
2.500000000000000139e-02 2.123230000000000117e-01 4.533291850738757622e-01
0.000000000000000000e+00 4.593410000000000028e-03 3.202736583026987827e+00
0.000000000000000000e+00 7.383990000000000432e-04 2.042362121644888617e+00
0.000000000000000000e+00 1.451080000000000078e-02 2.982043343871356722e+00
0.000000000000000000e+00 2.273659999999999830e-03 1.569867356286334115e+00
0.000000000000000000e+00 4.574040000000000137e-04 4.731576806953774472e+00
0.000000000000000000e+00 8.786560000000000117e-04 1.160385639344387876e+00
2.187499999999999861e-02 2.196220000000000030e-03 8.862736858535574802e-01
0.000000000000000000e+00 3.439679999999999973e-04 2.390414046870829701e+00
0.000000000000000000e+00 8.742160000000000339e-04 2.458489197069699372e+00
3.125000000000000173e-03 1.920320000000000100e-03 1.112201591207808704e+00
9.374999999999999653e-03 1.351870000000000025e-03 6.781325747587246822e-01
0.000000000000000000e+00 7.498939999999999946e-03 2.483358899841451084e+00
0.000000000000000000e+00 9.985919999999999692e-04 4.279009061152593496e+00
0.000000000000000000e+00 1.244160000000000014e-03 2.989906377156015260e-03
9.374999999999999653e-03 7.043839999999999563e-04 4.118181756271225069e+00
0.000000000000000000e+00 2.309800000000000145e-05 2.930189794268081904e+00
3.125000000000000173e-03 1.254429999999999955e-02 1.713195140533596117e+00
4.374999999999999722e-02 1.074780000000000041e-01 4.060678339268791959e+00
5.312499999999999861e-02 9.192659999999999720e-02 2.362046903942671694e-01
1.874999999999999931e-02 1.470780000000000091e-03 5.296597734344282715e-01
3.125000000000000000e-02 2.173570000000000103e-03 3.245179078996993649e+00
0.000000000000000000e+00 8.808320000000000125e-04 3.086696432782472410e+00
3.125000000000000173e-03 1.014599999999999946e-01 3.050536279481844915e+00
0.000000000000000000e+00 3.128060000000000215e-03 4.173754917471508286e+00
3.125000000000000173e-03 1.638399999999999926e-03 4.525382074452680925e+00
0.000000000000000000e+00 9.994879999999999824e-04 6.176933438152637512e-01
0.000000000000000000e+00 1.042619999999999962e-03 3.164866897808515489e+00
0.000000000000000000e+00 2.713600000000000040e-04 2.866858301159402878e-01
0.000000000000000000e+00 1.540539999999999965e-03 9.128891719880910527e-01
0.000000000000000000e+00 3.997439999999999999e-04 2.221809975947560467e+00
9.374999999999999653e-03 1.560259999999999946e-03 3.316965140880184570e+00
2.812500000000000069e-02 3.399740000000000054e-03 3.513789773943428063e+00
1.562500000000000000e-02 2.212990000000000183e-03 7.874066991768918777e-01
2.187499999999999861e-02 2.555190000000000152e-03 8.997343990574241390e-01
0.000000000000000000e+00 5.367899999999999885e-04 1.892414317671515800e+00
0.000000000000000000e+00 9.413759999999999533e-04 3.656796428380429287e+00
9.374999999999999653e-03 1.835840000000000041e-03 3.388816139291552787e+00
